ply
format ascii 1.0
comment https://github.com/mikedh/trimesh
element vertex 1119
property float x
property float y
property float z
property uchar red
property uchar green
property uchar blue
property uchar alpha
end_header
-0.00327731 -0.00105877 -0.09982000 0 0 0 0
0.07951997 -0.01115587 0.08686344 0 0 0 0
0.06032364 0.01505356 -0.09588650 0 0 0 0
-0.09596424 -0.01867044 -0.05119360 0 0 0 0
-0.04246023 -0.04516474 -0.09588080 0 0 0 0
-0.07274967 0.05817597 0.06923813 0 0 0 0
0.04054264 -0.03785188 -0.09727688 0 0 0 0
-0.01191648 -0.03677583 0.09911659 0 0 0 0
0.06387869 0.03400073 0.09170342 0 0 0 0
0.08495159 -0.04839424 0.05242822 0 0 0 0
-0.09629793 0.01166038 0.05610354 0 0 0 0
0.05212800 -0.08421981 0.03732679 0 0 0 0
-0.00558129 0.08857533 -0.07747892 0 0 0 0
0.06475402 0.07491504 -0.03198320 0 0 0 0
0.00388583 -0.04732235 -0.09835548 0 0 0 0
-0.09030611 0.00387937 -0.07514483 0 0 0 0
0.00438464 0.04556843 -0.09856320 0 0 0 0
0.07265013 -0.03892679 -0.08523749 0 0 0 0
0.00528171 -0.04986716 -0.09800627 0 0 0 0
-0.00750119 0.09085578 -0.07423931 0 0 0 0
0.06499331 -0.05546082 0.08223839 0 0 0 0
-0.01899501 -0.08445661 -0.08035175 0 0 0 0
-0.02857300 -0.05588534 -0.09552893 0 0 0 0
-0.02497518 -0.05239080 -0.09665622 0 0 0 0
-0.09201549 0.03700436 0.03473015 0 0 0 0
0.09727716 -0.01942059 0.03550165 0 0 0 0
-0.05288969 0.08430226 -0.00151843 0 0 0 0
0.08480133 -0.00821043 0.08210159 0 0 0 0
0.00590266 -0.06675373 -0.09404643 0 0 0 0
-0.01626362 0.01080904 -0.09957512 0 0 0 0
0.02631029 -0.05054159 -0.09688129 0 0 0 0
-0.09493528 -0.02938458 -0.03087727 0 0 0 0
-0.04389608 -0.07257597 -0.08237329 0 0 0 0
0.01853329 0.09770095 0.00785214 0 0 0 0
0.01319034 -0.09781796 -0.03996382 0 0 0 0
0.01462846 -0.03146069 -0.09941185 0 0 0 0
-0.05569505 0.08235152 -0.01851550 0 0 0 0
-0.07477499 0.05903571 0.06196620 0 0 0 0
-0.09823550 0.00599612 -0.04535012 0 0 0 0
-0.08617575 0.01799898 -0.07860084 0 0 0 0
0.04883828 0.08678563 -0.01451126 0 0 0 0
-0.09721905 0.01212204 -0.04975976 0 0 0 0
0.01063953 -0.08061856 -0.08623205 0 0 0 0
0.00241861 0.02720166 -0.09957214 0 0 0 0
0.08709843 0.02693109 -0.07349693 0 0 0 0
-0.00221444 0.00064580 -0.09976777 0 0 0 0
0.09821831 -0.00355740 -0.04780609 0 0 0 0
-0.02109035 0.08820193 -0.07413815 0 0 0 0
-0.07093286 -0.06925280 0.03608092 0 0 0 0
-0.01774416 0.09656470 -0.05018913 0 0 0 0
0.02709996 -0.02471971 -0.09917766 0 0 0 0
-0.09561782 -0.02791989 -0.00496323 0 0 0 0
-0.07159295 0.06168345 -0.06490789 0 0 0 0
0.09312043 -0.03467725 -0.01165045 0 0 0 0
0.04363555 0.08899309 -0.02768449 0 0 0 0
0.07865414 0.05742580 -0.05201832 0 0 0 0
-0.01520030 0.04988784 -0.09775772 0 0 0 0
-0.02747437 0.08035695 -0.08262128 0 0 0 0
0.02353713 -0.09636669 0.02445718 0 0 0 0
0.01861139 0.08126305 -0.08405685 0 0 0 0
0.09770595 0.01489110 -0.03356070 0 0 0 0
-0.08870130 -0.04238006 -0.04469526 0 0 0 0
0.05866253 -0.08045650 0.00364092 0 0 0 0
0.01787431 0.09552565 -0.05372896 0 0 0 0
0.00405194 -0.05648534 0.09702627 0 0 0 0
-0.09621881 0.02416326 0.02486856 0 0 0 0
0.02382032 0.09664252 -0.00066230 0 0 0 0
-0.06611709 -0.02018157 -0.09335869 0 0 0 0
0.05198833 -0.07312227 -0.07675932 0 0 0 0
-0.08659114 -0.04850782 -0.03426967 0 0 0 0
0.05176673 0.00299612 -0.09781015 0 0 0 0
0.03487398 0.03830741 0.09803879 0 0 0 0
0.02956920 0.07537957 -0.08608611 0 0 0 0
-0.03438720 0.09310650 0.02027069 0 0 0 0
0.02355180 0.09533416 -0.05032969 0 0 0 0
-0.04945885 -0.08282837 -0.05858706 0 0 0 0
-0.00053155 -0.00356533 0.09976868 0 0 0 0
0.02739969 -0.09564737 -0.01993376 0 0 0 0
-0.04368439 0.03224481 -0.09743382 0 0 0 0
0.08996850 0.02973965 0.06518824 0 0 0 0
-0.00973086 -0.02868490 -0.09944534 0 0 0 0
0.07410637 0.06269509 0.05557665 0 0 0 0
0.07684746 0.04148976 -0.07959335 0 0 0 0
0.08432011 0.02568487 0.07829202 0 0 0 0
-0.08449607 -0.02726275 -0.07779696 0 0 0 0
0.08320488 -0.05404950 0.02850460 0 0 0 0
-0.03343066 -0.09341843 0.02281190 0 0 0 0
-0.03802455 -0.03779237 -0.09752924 0 0 0 0
0.00905507 -0.09155601 -0.07259023 0 0 0 0
-0.07260541 0.06824972 -0.00196632 0 0 0 0
0.07903896 0.02461069 0.08451656 0 0 0 0
-0.08798514 -0.04589391 0.01452428 0 0 0 0
-0.00218765 0.00536097 -0.09972729 0 0 0 0
0.02134798 0.09681939 -0.02228640 0 0 0 0
0.03316010 0.00216067 -0.09942727 0 0 0 0
-0.01967436 0.09642576 -0.04203205 0 0 0 0
0.09619824 0.00640378 0.05824544 0 0 0 0
-0.05687620 -0.07708116 0.06073397 0 0 0 0
0.06947644 -0.07109822 0.02669498 0 0 0 0
-0.08711723 0.04569901 0.04463742 0 0 0 0
0.09627010 0.01279126 -0.05408226 0 0 0 0
0.08371718 -0.05349765 0.00773470 0 0 0 0
0.09400725 0.03033537 -0.04216173 0 0 0 0
0.00938408 -0.09845172 0.03844958 0 0 0 0
0.05708437 -0.08029429 -0.04067787 0 0 0 0
-0.07833080 0.04803633 -0.07174731 0 0 0 0
0.02241058 0.00018467 -0.09977982 0 0 0 0
-0.08249570 0.01764193 -0.08297486 0 0 0 0
-0.04877173 -0.08595376 -0.03374502 0 0 0 0
0.00330974 -0.09906081 -0.02262316 0 0 0 0
0.09640428 -0.02385845 0.01993016 0 0 0 0
0.04304691 0.03079601 -0.09761615 0 0 0 0
0.02339640 0.09642112 0.02108764 0 0 0 0
-0.00191446 0.00949870 -0.09967967 0 0 0 0
-0.00205130 0.00133894 0.09976868 0 0 0 0
0.06617310 0.05307401 -0.08297776 0 0 0 0
-0.06635420 0.06167961 -0.07497561 0 0 0 0
-0.01215086 0.05546466 0.09697667 0 0 0 0
-0.09526005 0.02836268 -0.01678299 0 0 0 0
0.04011256 0.02392355 -0.09875222 0 0 0 0
0.05801385 0.08099049 0.00640283 0 0 0 0
0.04945076 0.01595322 -0.09778927 0 0 0 0
-0.00067495 0.09920143 -0.02912407 0 0 0 0
0.08979212 -0.02831810 -0.06579236 0 0 0 0
0.04353995 -0.03748342 0.09685245 0 0 0 0
0.00231953 -0.00297090 0.09976868 0 0 0 0
0.03829354 0.09137187 -0.03576734 0 0 0 0
0.00249483 -0.08787595 -0.07876845 0 0 0 0
-0.09478726 -0.02470790 -0.05031689 0 0 0 0
-0.01972835 -0.05033180 0.09768298 0 0 0 0
-0.05640429 0.07020535 -0.07613504 0 0 0 0
-0.00297646 -0.09829200 -0.04411189 0 0 0 0
-0.06790707 0.06400146 -0.06804028 0 0 0 0
-0.01527450 0.01179822 -0.09991411 0 0 0 0
-0.02059128 -0.02708321 0.09950358 0 0 0 0
-0.03711868 0.00482008 -0.09914964 0 0 0 0
-0.04835134 0.04295605 -0.09481080 0 0 0 0
0.03680666 0.07263701 -0.08594903 0 0 0 0
-0.02422386 0.08472719 -0.07857335 0 0 0 0
0.02380065 0.01204693 -0.09960195 0 0 0 0
-0.03168614 -0.09039967 0.06054533 0 0 0 0
-0.07640256 0.04713666 0.07572152 0 0 0 0
-0.07154345 -0.06472798 -0.05680060 0 0 0 0
0.05121536 -0.08523804 -0.01858474 0 0 0 0
-0.04938204 -0.08515174 -0.04491166 0 0 0 0
-0.08538343 -0.00215485 -0.08212717 0 0 0 0
0.09916937 0.00827592 0.01775090 0 0 0 0
0.08721714 0.04820425 -0.02809358 0 0 0 0
-0.01821470 -0.00954402 -0.09956285 0 0 0 0
0.08488654 -0.03392358 -0.07317711 0 0 0 0
0.00944035 0.08335230 0.08361229 0 0 0 0
0.09279268 -0.03597485 -0.02078164 0 0 0 0
0.00939843 0.09895138 -0.00646978 0 0 0 0
0.06009353 0.07343851 0.06332424 0 0 0 0
-0.04153828 0.04448887 0.09591709 0 0 0 0
-0.08003695 -0.05846750 -0.03086789 0 0 0 0
-0.01698374 -0.09125502 -0.06993008 0 0 0 0
-0.02374768 -0.04719052 -0.09763330 0 0 0 0
-0.08939223 0.00825506 -0.07636463 0 0 0 0
0.08198313 -0.05321165 0.05302716 0 0 0 0
-0.06438202 0.05699002 0.08135758 0 0 0 0
0.08928981 -0.03222930 0.06368240 0 0 0 0
0.03984975 -0.03755198 0.09748720 0 0 0 0
-0.09475802 -0.00903455 -0.06266101 0 0 0 0
-0.00370092 0.05222589 0.09797326 0 0 0 0
0.07936475 0.04891521 0.06948562 0 0 0 0
0.09011906 0.03548910 -0.05520340 0 0 0 0
-0.07392868 0.06650812 -0.00458382 0 0 0 0
0.00255152 0.09744601 -0.05240984 0 0 0 0
0.09500024 -0.02867215 -0.02557566 0 0 0 0
0.08131414 -0.05516284 0.04517051 0 0 0 0
-0.00392144 0.00010567 -0.09974255 0 0 0 0
-0.06393565 -0.07648022 -0.00023850 0 0 0 0
0.04405569 -0.01854769 0.09835409 0 0 0 0
0.00411884 0.09601286 -0.05969784 0 0 0 0
0.06956489 -0.07076970 0.01508461 0 0 0 0
0.09952570 0.00162274 -0.01499738 0 0 0 0
0.02064842 0.08684914 -0.07658519 0 0 0 0
-0.02007634 0.09741381 -0.00239170 0 0 0 0
-0.03540272 -0.09095504 -0.05195761 0 0 0 0
0.07938309 0.02896802 0.08276673 0 0 0 0
0.09333840 -0.03091629 0.04383676 0 0 0 0
0.00698256 0.09930585 -0.01494362 0 0 0 0
0.03339101 0.09382422 0.01647263 0 0 0 0
0.03249126 -0.06004314 -0.09353765 0 0 0 0
0.03208023 -0.08087292 -0.07978443 0 0 0 0
0.03582191 0.09196846 -0.03938730 0 0 0 0
0.03803550 -0.04845651 -0.09584315 0 0 0 0
0.02576037 -0.09445651 -0.04987498 0 0 0 0
0.08109754 -0.03786051 -0.07653958 0 0 0 0
-0.03429646 0.08754057 0.06670654 0 0 0 0
-0.02516809 0.09607622 -0.00193465 0 0 0 0
0.09910335 0.01004430 -0.01313525 0 0 0 0
-0.06879951 0.03926856 -0.08772094 0 0 0 0
0.09040429 0.03682912 0.05042244 0 0 0 0
-0.06769940 0.02133763 -0.09241945 0 0 0 0
-0.06330572 -0.01731552 -0.09449569 0 0 0 0
-0.00043046 -0.02819367 -0.09953426 0 0 0 0
0.04921143 -0.08655233 -0.00971684 0 0 0 0
-0.04095595 -0.09039079 -0.02989386 0 0 0 0
0.00153349 0.00164866 0.09976868 0 0 0 0
-0.05429602 0.07648917 0.06709594 0 0 0 0
-0.01810938 -0.09798692 -0.01341548 0 0 0 0
-0.05879825 -0.07983467 -0.03395820 0 0 0 0
-0.02633181 0.01007390 -0.09948196 0 0 0 0
0.07441282 0.02153688 -0.08872365 0 0 0 0
-0.03002062 0.09434323 -0.03154793 0 0 0 0
0.01646910 0.09291657 0.06543098 0 0 0 0
0.09138773 0.03541364 -0.05131759 0 0 0 0
0.04763914 0.08728640 -0.01070405 0 0 0 0
-0.09097007 -0.03935875 -0.03219573 0 0 0 0
0.04665760 0.08407881 -0.06070996 0 0 0 0
-0.09285115 0.00570676 -0.06909432 0 0 0 0
0.06479754 -0.03145637 0.09189409 0 0 0 0
0.09593753 0.02528346 -0.01763231 0 0 0 0
0.01714005 0.08468480 -0.08084080 0 0 0 0
0.02731153 0.08324981 -0.07930405 0 0 0 0
-0.05908508 -0.02370658 -0.09549984 0 0 0 0
-0.07254620 0.05740997 -0.07042728 0 0 0 0
-0.03451774 0.04637327 -0.09667434 0 0 0 0
-0.00241798 -0.06898067 -0.09345735 0 0 0 0
0.01572371 -0.09777007 -0.02679521 0 0 0 0
-0.08974178 0.01759387 -0.07244677 0 0 0 0
0.07642753 0.00689019 -0.08931708 0 0 0 0
0.09806478 -0.01464237 -0.03461191 0 0 0 0
0.08968110 0.04293929 -0.00717285 0 0 0 0
-0.01026040 -0.05549562 -0.09693597 0 0 0 0
-0.02028921 0.09216983 0.06528654 0 0 0 0
0.07050807 0.07029327 0.01559815 0 0 0 0
0.02501596 0.05626587 0.09580267 0 0 0 0
-0.01798883 -0.07172305 -0.09113409 0 0 0 0
-0.04081277 0.09100017 -0.00186660 0 0 0 0
-0.01138057 0.02526514 0.09976868 0 0 0 0
-0.05475716 0.06968902 0.07757241 0 0 0 0
0.03696250 -0.06695761 -0.08978128 0 0 0 0
0.07362410 -0.04628427 -0.08015350 0 0 0 0
0.03468049 0.02400726 -0.09894510 0 0 0 0
0.02664931 0.09601738 -0.00069493 0 0 0 0
0.01103276 -0.09884844 0.03454125 0 0 0 0
-0.03929657 0.09139555 -0.03041487 0 0 0 0
0.09826746 0.01433721 0.00243468 0 0 0 0
-0.07938547 -0.06005859 0.03251922 0 0 0 0
-0.09806930 0.01578871 -0.00975896 0 0 0 0
-0.01633987 0.02474878 -0.09946539 0 0 0 0
-0.07086323 -0.07034974 -0.00165151 0 0 0 0
0.06054832 0.05557521 -0.08560497 0 0 0 0
0.09823842 0.00968785 -0.03903366 0 0 0 0
-0.09799525 0.01346180 -0.03508819 0 0 0 0
0.09834326 -0.01413111 0.01244159 0 0 0 0
0.06203216 0.07463633 -0.05547998 0 0 0 0
-0.02315139 0.09038295 0.06926665 0 0 0 0
-0.08497194 0.03067178 -0.07503498 0 0 0 0
-0.05256512 -0.08387603 0.04018871 0 0 0 0
-0.02019622 0.09434162 -0.05925553 0 0 0 0
0.02657904 0.01182820 -0.09947143 0 0 0 0
-0.07314248 0.03131003 0.08750250 0 0 0 0
0.03091423 -0.07546391 0.08573373 0 0 0 0
-0.02757322 0.08865595 -0.06956296 0 0 0 0
0.00258345 0.00457427 0.09976868 0 0 0 0
-0.00681397 -0.09530319 0.06185099 0 0 0 0
-0.09272107 -0.03632266 -0.00236090 0 0 0 0
0.06462959 0.07304566 0.05400100 0 0 0 0
-0.00090702 -0.00252918 0.09976868 0 0 0 0
0.00448708 0.01461044 -0.09961959 0 0 0 0
-0.03639213 0.09270600 -0.00413891 0 0 0 0
-0.09288611 0.00081947 0.07022571 0 0 0 0
0.09634338 -0.02119450 -0.04450773 0 0 0 0
0.09754228 0.00260178 0.05198767 0 0 0 0
0.01562341 0.03091959 0.09945460 0 0 0 0
-0.09689143 -0.00739945 0.05438975 0 0 0 0
-0.00675838 -0.00610625 0.09976868 0 0 0 0
0.06066962 -0.06267006 0.07987663 0 0 0 0
-0.09088947 -0.04113382 -0.00165152 0 0 0 0
-0.08041183 0.04773753 -0.06747271 0 0 0 0
0.04552206 -0.08832661 -0.02701814 0 0 0 0
0.09840608 -0.00951764 -0.03189505 0 0 0 0
0.05568492 0.08044818 0.04850345 0 0 0 0
-0.02934061 -0.00959926 0.09976868 0 0 0 0
-0.03626497 0.09054808 -0.05198514 0 0 0 0
0.04732456 0.04134695 -0.09544350 0 0 0 0
0.01521858 -0.03118142 -0.09941135 0 0 0 0
-0.03061436 -0.09464426 -0.01059941 0 0 0 0
-0.07781710 0.06222379 -0.00546344 0 0 0 0
0.05273768 -0.05248671 0.09063427 0 0 0 0
0.00722832 -0.02370473 -0.09967929 0 0 0 0
0.05974855 -0.07939557 0.03438134 0 0 0 0
-0.08700167 -0.04422214 -0.05236538 0 0 0 0
-0.00406531 0.05384266 -0.09747146 0 0 0 0
-0.09439766 -0.03114718 -0.02657158 0 0 0 0
0.01934300 0.08422606 -0.08050823 0 0 0 0
-0.08322469 -0.04258870 -0.06792635 0 0 0 0
0.01198620 0.07810079 0.08831422 0 0 0 0
-0.03489959 -0.07609470 0.08353426 0 0 0 0
0.05390240 0.08167341 -0.05055260 0 0 0 0
0.09648237 0.02477605 0.02155755 0 0 0 0
-0.05493537 0.08281128 0.01685992 0 0 0 0
-0.00273186 0.09924658 -0.01518402 0 0 0 0
0.05893219 0.00917507 -0.09632608 0 0 0 0
-0.09706916 -0.01595429 -0.04643187 0 0 0 0
0.08228382 -0.05591847 0.02219599 0 0 0 0
0.00281631 0.09941901 -0.01727583 0 0 0 0
-0.05190461 -0.08200090 -0.05480015 0 0 0 0
0.08375615 -0.02594071 -0.07900164 0 0 0 0
-0.03974567 0.07900614 -0.07806431 0 0 0 0
-0.09602228 0.00591379 -0.05830899 0 0 0 0
0.07868288 -0.06018048 -0.03299300 0 0 0 0
-0.09392506 0.03231085 0.00070825 0 0 0 0
0.09615175 0.02305656 -0.03449351 0 0 0 0
0.06513657 0.03026423 -0.09250265 0 0 0 0
0.01112403 -0.09755272 -0.04835536 0 0 0 0
-0.03074540 0.05166063 -0.09633864 0 0 0 0
0.04441898 0.05834127 0.09130031 0 0 0 0
-0.09201090 -0.01722198 0.06791331 0 0 0 0
-0.07441328 0.00087784 -0.09086539 0 0 0 0
-0.09759001 0.01154701 0.04406990 0 0 0 0
-0.09609617 -0.01296551 0.05749793 0 0 0 0
0.02831675 -0.09354819 -0.05177245 0 0 0 0
0.01903135 -0.03967513 -0.09880789 0 0 0 0
0.02871425 0.03547450 -0.09858321 0 0 0 0
0.01083210 -0.01356946 0.09976868 0 0 0 0
-0.06731538 0.04643289 -0.08601658 0 0 0 0
0.07211872 -0.01652676 -0.09117643 0 0 0 0
-0.09559447 -0.02764060 -0.00795885 0 0 0 0
-0.09589462 0.02121732 -0.04523696 0 0 0 0
0.04120295 -0.00214057 -0.09916021 0 0 0 0
0.06086826 -0.04767833 -0.08896519 0 0 0 0
0.00588989 -0.09491615 -0.06377946 0 0 0 0
-0.09969228 0.00446675 -0.00189754 0 0 0 0
0.08625114 0.04674487 -0.04891937 0 0 0 0
-0.08189030 -0.05529920 0.04166302 0 0 0 0
0.05634583 0.08182672 -0.02787631 0 0 0 0
0.05142418 -0.08503527 -0.01029805 0 0 0 0
0.07286870 0.05773823 -0.06937991 0 0 0 0
-0.01692988 -0.02873039 0.09956951 0 0 0 0
0.02877377 0.09263039 0.05605023 0 0 0 0
0.03803458 0.00462838 0.09914760 0 0 0 0
-0.09696488 0.02211521 0.01169357 0 0 0 0
0.02617931 0.09527408 -0.04116734 0 0 0 0
-0.07671268 -0.06331810 -0.00855325 0 0 0 0
-0.06188113 0.05400351 -0.08545784 0 0 0 0
0.06002356 -0.01891106 0.09540175 0 0 0 0
0.03094666 -0.09376346 -0.03791611 0 0 0 0
-0.04555140 0.08003821 -0.07131654 0 0 0 0
0.06044001 -0.07310085 0.06343578 0 0 0 0
-0.03910105 0.00235956 0.09908754 0 0 0 0
0.06828085 0.00571158 0.09377358 0 0 0 0
-0.06535153 0.03819295 -0.09031305 0 0 0 0
-0.03196800 -0.08364871 -0.07610892 0 0 0 0
0.06954513 -0.04133197 -0.08630788 0 0 0 0
0.00649752 0.00541225 -0.09969611 0 0 0 0
0.09929486 0.00218530 -0.00110851 0 0 0 0
-0.08586645 0.04708030 -0.05182572 0 0 0 0
-0.05436980 -0.00523928 -0.09740300 0 0 0 0
0.02808556 0.05391002 -0.09616093 0 0 0 0
-0.00057812 -0.00007975 0.09976868 0 0 0 0
-0.06811019 0.02606849 0.09140812 0 0 0 0
0.07240663 -0.06556252 0.05142104 0 0 0 0
0.05452356 0.03521170 -0.09474195 0 0 0 0
-0.02179587 -0.06644025 0.09307081 0 0 0 0
0.07851510 -0.03781459 -0.07966737 0 0 0 0
0.00368972 0.00048013 0.09976868 0 0 0 0
-0.00860343 -0.09903454 -0.00265419 0 0 0 0
-0.03047469 -0.09478253 0.00330949 0 0 0 0
0.02088575 -0.00207991 0.09976868 0 0 0 0
0.03361662 0.09317754 -0.02438963 0 0 0 0
-0.07368398 0.06628196 -0.02038336 0 0 0 0
-0.08580359 -0.04990734 -0.02898950 0 0 0 0
-0.07550157 -0.02225058 -0.08799948 0 0 0 0
-0.04166690 -0.05189760 -0.09438117 0 0 0 0
-0.05927397 -0.07976741 0.02916436 0 0 0 0
0.07412172 0.06619279 -0.03053555 0 0 0 0
-0.04989209 -0.07706796 0.07231234 0 0 0 0
0.03243869 0.09353285 -0.03963382 0 0 0 0
0.00582877 -0.09920690 0.03390809 0 0 0 0
0.01033087 0.01650741 -0.09957581 0 0 0 0
-0.01912102 -0.02894004 -0.09925888 0 0 0 0
0.03025855 0.07731707 -0.08446603 0 0 0 0
0.03847344 -0.03285746 0.09812221 0 0 0 0
-0.06384493 0.06203575 0.07746288 0 0 0 0
-0.05699338 -0.08134241 0.00881496 0 0 0 0
0.07410879 -0.05096517 -0.07587440 0 0 0 0
-0.08028230 0.00758504 -0.08648285 0 0 0 0
0.07652722 0.06218512 -0.03886304 0 0 0 0
-0.05291914 -0.02886478 -0.09628220 0 0 0 0
0.00012271 -0.07141183 -0.09226953 0 0 0 0
-0.09789619 -0.01780665 0.03074792 0 0 0 0
0.09720076 -0.02144994 0.00436713 0 0 0 0
0.06196001 0.07048804 -0.06685926 0 0 0 0
-0.04342441 0.00538787 -0.09885215 0 0 0 0
-0.03497676 0.09284484 0.03418367 0 0 0 0
0.00379981 0.06550957 -0.09449485 0 0 0 0
0.02482859 -0.09130608 -0.06524790 0 0 0 0
0.02982115 -0.01040891 -0.09944475 0 0 0 0
-0.07974371 0.05578072 -0.05394160 0 0 0 0
-0.03959554 0.01212680 -0.09897365 0 0 0 0
-0.09695121 0.02174971 0.02556854 0 0 0 0
-0.01454010 0.08739792 0.07756183 0 0 0 0
-0.06451955 -0.07537485 0.01810014 0 0 0 0
-0.02031665 0.09640785 -0.04519247 0 0 0 0
0.08302630 0.05444276 0.01289095 0 0 0 0
-0.00805740 0.04069306 0.09888075 0 0 0 0
0.03939025 -0.09046735 -0.03830338 0 0 0 0
-0.05656989 -0.01252106 -0.09696113 0 0 0 0
0.06832160 0.05881181 0.07493787 0 0 0 0
-0.07757561 0.06207193 -0.01897507 0 0 0 0
0.03224841 -0.09332009 -0.03841778 0 0 0 0
-0.00613169 -0.00014838 -0.09971956 0 0 0 0
0.05870342 0.01612286 -0.09615174 0 0 0 0
-0.08549938 0.02852769 -0.07601168 0 0 0 0
-0.07430711 0.02765295 0.08793552 0 0 0 0
-0.04848853 -0.07745149 -0.07344546 0 0 0 0
-0.04908775 0.00486909 0.09823368 0 0 0 0
0.03390346 -0.04915376 -0.09648221 0 0 0 0
0.09699798 -0.02180608 -0.01436857 0 0 0 0
0.06442288 0.07219584 -0.05564202 0 0 0 0
0.04073577 -0.08251241 -0.07113139 0 0 0 0
-0.06247408 0.04604442 -0.08883469 0 0 0 0
-0.03088352 -0.04391927 0.09781726 0 0 0 0
-0.07644625 -0.06317224 0.03041789 0 0 0 0
-0.07352070 -0.06692155 -0.00572502 0 0 0 0
0.01806244 -0.09803837 -0.02094309 0 0 0 0
-0.05031420 -0.08569093 0.00866949 0 0 0 0
-0.02614685 -0.01145038 -0.09947802 0 0 0 0
0.07470962 0.06526758 -0.03218763 0 0 0 0
0.07632211 -0.00790611 -0.08927952 0 0 0 0
-0.02580787 -0.02571686 -0.09918498 0 0 0 0
0.07052393 -0.06859831 -0.04554739 0 0 0 0
-0.04952201 -0.07672516 -0.07261968 0 0 0 0
-0.08958092 -0.04251165 0.03616396 0 0 0 0
-0.04316090 -0.05603141 -0.09279050 0 0 0 0
-0.09007908 0.01587000 -0.07254799 0 0 0 0
-0.01359293 0.09623896 0.05525405 0 0 0 0
0.08831008 -0.03231189 0.06690143 0 0 0 0
-0.00895215 0.09815685 -0.04061178 0 0 0 0
0.08972763 0.01951274 0.07237004 0 0 0 0
-0.03941154 0.09122641 -0.00811807 0 0 0 0
0.07531434 -0.05591678 -0.06680006 0 0 0 0
0.09113594 -0.03993001 -0.01269305 0 0 0 0
-0.06935073 -0.07119794 0.02049072 0 0 0 0
-0.05562104 0.08216725 -0.03081363 0 0 0 0
-0.06861351 0.06079878 0.07240335 0 0 0 0
-0.03533462 0.00297538 -0.09923041 0 0 0 0
-0.04764513 0.08478066 -0.05361158 0 0 0 0
-0.02443001 0.09560536 0.04232345 0 0 0 0
0.03999946 -0.08889093 -0.05339099 0 0 0 0
0.01659179 0.03007933 0.09947605 0 0 0 0
-0.05650833 -0.04066277 -0.09323066 0 0 0 0
-0.04937357 0.08435386 -0.05113173 0 0 0 0
0.04598482 -0.08769024 -0.02684836 0 0 0 0
-0.01996361 -0.09410363 -0.05856596 0 0 0 0
-0.07672352 -0.05976177 0.05352634 0 0 0 0
-0.01626644 0.09800231 0.00074890 0 0 0 0
-0.08688624 -0.04899653 0.00296069 0 0 0 0
0.01221980 -0.09879973 -0.00107210 0 0 0 0
-0.06719986 -0.07229191 -0.04065100 0 0 0 0
-0.08105564 0.04961864 -0.06334916 0 0 0 0
0.08746536 -0.04753552 0.01735589 0 0 0 0
-0.07963801 -0.04755649 -0.06955382 0 0 0 0
-0.04546604 0.08749518 -0.04603442 0 0 0 0
-0.00029976 -0.00103750 -0.09977202 0 0 0 0
-0.07283463 -0.06713574 -0.03561264 0 0 0 0
-0.02346394 0.09616872 -0.04147886 0 0 0 0
-0.08145049 -0.03873931 0.07480685 0 0 0 0
-0.09944700 -0.00033770 -0.00622007 0 0 0 0
0.05550911 0.03395771 0.09486380 0 0 0 0
-0.04546430 -0.08808725 -0.03921983 0 0 0 0
-0.04824568 -0.08251356 -0.06092279 0 0 0 0
-0.07469110 -0.06580688 -0.02335740 0 0 0 0
-0.07096090 0.07002370 -0.00195411 0 0 0 0
0.04695398 0.08195275 -0.06644898 0 0 0 0
-0.08709865 -0.04845509 -0.02820458 0 0 0 0
0.07954749 -0.00926360 -0.08707996 0 0 0 0
-0.05040935 0.06183446 0.08756811 0 0 0 0
0.00548768 0.00093481 -0.09972417 0 0 0 0
-0.01678852 0.00535150 -0.09959444 0 0 0 0
0.03085997 0.03810139 -0.09813096 0 0 0 0
-0.09503891 0.02184717 -0.05063980 0 0 0 0
0.05630782 -0.07432397 -0.06901356 0 0 0 0
0.09872042 -0.00650942 -0.04064190 0 0 0 0
0.00804944 0.09919974 -0.02114655 0 0 0 0
0.00149643 -0.07558620 -0.09052698 0 0 0 0
0.03925011 -0.07687180 0.08134992 0 0 0 0
0.02073887 -0.06604516 -0.09322438 0 0 0 0
-0.08788130 -0.04675315 -0.01575505 0 0 0 0
0.04511435 -0.04723873 0.09481215 0 0 0 0
-0.09624925 -0.02364904 -0.02551287 0 0 0 0
0.09081858 0.01790393 -0.07007224 0 0 0 0
-0.05742070 -0.06804676 -0.07760531 0 0 0 0
-0.08369270 -0.03003004 -0.07772103 0 0 0 0
0.09498709 0.02968635 -0.02896187 0 0 0 0
0.01232524 0.07114608 0.09182100 0 0 0 0
-0.04357058 -0.02568835 0.09812183 0 0 0 0
-0.08034641 -0.01335984 -0.08570620 0 0 0 0
0.07721617 0.01673216 0.08803164 0 0 0 0
0.02149396 -0.01770962 0.09976868 0 0 0 0
0.02764619 -0.07683933 -0.08621806 0 0 0 0
-0.03092967 0.05962408 0.09430500 0 0 0 0
-0.06302018 0.07671884 -0.02773634 0 0 0 0
0.09500920 0.02968483 -0.00581689 0 0 0 0
0.05957329 -0.07947697 -0.02710703 0 0 0 0
0.01818331 0.05378227 0.09696657 0 0 0 0
-0.07935244 0.05788326 -0.04656821 0 0 0 0
0.07395116 0.06663454 -0.01064549 0 0 0 0
-0.04242624 -0.05483351 0.09333886 0 0 0 0
-0.06003829 -0.07838337 -0.03844979 0 0 0 0
0.00087734 -0.09954885 -0.01833861 0 0 0 0
0.07057035 -0.06600888 -0.05812000 0 0 0 0
0.04294575 0.08435714 0.06434529 0 0 0 0
0.01066634 0.00157176 -0.09966847 0 0 0 0
-0.01175244 -0.07845320 0.08779271 0 0 0 0
-0.00800966 -0.03946017 -0.09929098 0 0 0 0
-0.01598298 -0.05486261 -0.09680849 0 0 0 0
-0.05637731 -0.01933813 -0.09652270 0 0 0 0
-0.07981018 -0.05680319 -0.05073800 0 0 0 0
0.05529357 -0.07151200 -0.07490790 0 0 0 0
0.04864164 -0.08653454 0.00791960 0 0 0 0
0.06242491 0.00209637 -0.09555016 0 0 0 0
-0.00320599 0.00692430 0.09976868 0 0 0 0
-0.07806908 -0.06041422 0.04254584 0 0 0 0
0.00198391 0.00593958 0.09976868 0 0 0 0
-0.08821198 -0.04475781 -0.02973238 0 0 0 0
0.09051438 0.03680921 0.04954867 0 0 0 0
0.08407653 -0.05294697 0.01177577 0 0 0 0
-0.08254959 -0.05535628 -0.01328708 0 0 0 0
-0.09681557 0.01792804 -0.04253584 0 0 0 0
-0.09702455 -0.02000122 -0.02678390 0 0 0 0
-0.06098564 -0.07820892 0.03071221 0 0 0 0
-0.03832394 0.05286897 -0.09462935 0 0 0 0
0.03101685 -0.06062699 0.09395682 0 0 0 0
-0.09058242 -0.03584179 -0.05146050 0 0 0 0
0.07582705 0.06425564 -0.00975331 0 0 0 0
0.06885870 -0.07179506 0.01309374 0 0 0 0
-0.08087327 0.05798910 -0.01522584 0 0 0 0
-0.06763308 0.07280554 -0.00848266 0 0 0 0
-0.02248734 0.00528820 0.09976868 0 0 0 0
-0.09554333 0.00522122 -0.06077487 0 0 0 0
-0.09243657 0.02607715 -0.05997405 0 0 0 0
-0.01546489 0.00165394 -0.09961816 0 0 0 0
0.08522525 -0.05105305 -0.00913417 0 0 0 0
-0.03247783 -0.07711718 -0.08365405 0 0 0 0
-0.06463139 -0.07523410 0.02499579 0 0 0 0
0.07740810 0.05639154 -0.06042786 0 0 0 0
-0.05084060 -0.05032570 -0.09215819 0 0 0 0
0.02803231 0.05092423 0.09663974 0 0 0 0
-0.09492798 0.00540816 0.06286159 0 0 0 0
-0.07258911 -0.01896552 0.09032232 0 0 0 0
-0.09254807 -0.02940535 -0.05534211 0 0 0 0
0.04155480 -0.09064101 -0.00801521 0 0 0 0
0.00473330 -0.00376716 0.09976868 0 0 0 0
-0.09904844 0.01139545 -0.02649735 0 0 0 0
0.07189661 0.06269489 -0.06248591 0 0 0 0
0.09392687 0.03243760 -0.02670215 0 0 0 0
0.04745122 -0.08240793 -0.06426059 0 0 0 0
-0.04609098 -0.00426746 0.09847972 0 0 0 0
0.07418807 0.05555684 0.07052016 0 0 0 0
0.08058994 0.05782964 0.02493056 0 0 0 0
0.02810376 -0.08081286 -0.08176173 0 0 0 0
0.08958039 -0.04242059 -0.03102618 0 0 0 0
0.07200240 0.06012863 0.06706558 0 0 0 0
0.00015793 -0.00063577 -0.09978936 0 0 0 0
0.01078454 -0.09837189 -0.04355428 0 0 0 0
0.03967606 0.05804337 0.09292334 0 0 0 0
0.08547907 0.05044727 0.01193327 0 0 0 0
0.03533398 0.09264159 0.03644317 0 0 0 0
-0.02233310 -0.04006388 0.09852372 0 0 0 0
0.00849342 0.01440546 0.09976868 0 0 0 0
-0.09640740 -0.02101744 0.04011377 0 0 0 0
0.07900082 0.00525811 -0.08752616 0 0 0 0
-0.07948133 -0.04201007 -0.07589458 0 0 0 0
-0.07699716 -0.04173609 -0.07912358 0 0 0 0
-0.00210526 0.09916498 0.02849965 0 0 0 0
0.05566927 0.08079117 0.04911932 0 0 0 0
0.04126419 0.06748742 -0.08758073 0 0 0 0
-0.00873910 0.00632545 -0.09966941 0 0 0 0
-0.00508540 -0.07444419 -0.09092083 0 0 0 0
-0.06428241 0.07572351 -0.00412398 0 0 0 0
0.02588591 -0.09600283 -0.02946035 0 0 0 0
-0.08285664 0.05446613 -0.01992571 0 0 0 0
-0.09506353 -0.00415096 -0.06284232 0 0 0 0
-0.04232657 0.03543674 -0.09721065 0 0 0 0
0.06052775 -0.00798672 -0.09606265 0 0 0 0
0.06569192 -0.07121362 0.05668566 0 0 0 0
-0.04219637 0.07693060 -0.07892917 0 0 0 0
-0.09382207 0.03336869 0.00181627 0 0 0 0
-0.02783754 0.09466438 -0.04307534 0 0 0 0
-0.00997992 0.05070068 0.09803020 0 0 0 0
-0.02661111 -0.06473108 0.09304190 0 0 0 0
-0.04173440 0.08567609 -0.06328138 0 0 0 0
0.00142532 0.00286200 0.09976868 0 0 0 0
0.08783902 -0.01015343 -0.07810389 0 0 0 0
-0.01475029 -0.09830742 -0.01555691 0 0 0 0
-0.09667755 -0.01710842 0.04760125 0 0 0 0
0.04884771 -0.06639358 -0.08509837 0 0 0 0
0.01029580 0.09915917 0.00190434 0 0 0 0
0.01109176 0.08377071 0.08276840 0 0 0 0
-0.06397525 0.02581392 0.09364358 0 0 0 0
0.07198568 0.04858262 -0.08028991 0 0 0 0
0.09473298 -0.02144856 -0.05307720 0 0 0 0
-0.03805685 -0.09041160 -0.04916585 0 0 0 0
-0.00374931 -0.03546068 -0.09940115 0 0 0 0
0.09430508 0.02781705 -0.04690172 0 0 0 0
-0.02256648 0.09683559 -0.01677302 0 0 0 0
-0.09862343 0.01140038 0.02576124 0 0 0 0
0.09593634 0.02347362 -0.04210388 0 0 0 0
-0.08370865 -0.05267192 -0.03083758 0 0 0 0
-0.09182847 -0.02639991 -0.06104127 0 0 0 0
0.08475251 -0.03961246 0.06816186 0 0 0 0
0.09524440 0.02871804 -0.00280185 0 0 0 0
0.03896395 0.05501629 -0.09400794 0 0 0 0
0.06470962 -0.04358976 0.08872920 0 0 0 0
0.00462757 0.00772156 -0.09968932 0 0 0 0
-0.01327073 -0.01116817 -0.09959749 0 0 0 0
0.08788478 0.03143563 0.06945269 0 0 0 0
0.01994020 0.09427775 -0.05860928 0 0 0 0
0.09686612 -0.00650196 0.05561150 0 0 0 0
0.05082421 0.08562005 0.02296889 0 0 0 0
-0.08478086 0.05071142 -0.04340103 0 0 0 0
-0.09282525 0.02949524 0.05301231 0 0 0 0
-0.01310708 0.09267673 -0.06802039 0 0 0 0
0.00854480 0.08052617 -0.08646457 0 0 0 0
0.08253132 -0.05509964 -0.01890131 0 0 0 0
-0.00887556 0.09938543 -0.00723021 0 0 0 0
0.09771542 -0.01721724 -0.03082936 0 0 0 0
0.01466979 -0.01383862 -0.09956732 0 0 0 0
0.04829194 0.07894491 -0.07013210 0 0 0 0
-0.05046861 -0.07948524 -0.06646625 0 0 0 0
0.03989754 -0.08595909 0.06468840 0 0 0 0
-0.00529078 -0.07819302 -0.08824610 0 0 0 0
-0.03011003 -0.09373853 0.04215270 0 0 0 0
0.04176368 0.08103106 -0.07434409 0 0 0 0
0.03957722 0.09117978 -0.01188801 0 0 0 0
0.00810426 0.09947499 -0.00298347 0 0 0 0
0.04204117 -0.09017603 0.02105959 0 0 0 0
0.01827776 -0.03325028 -0.09912515 0 0 0 0
-0.00637662 0.01763292 -0.09958236 0 0 0 0
-0.08762661 -0.04439204 -0.04956511 0 0 0 0
-0.08042422 0.04940384 0.06500204 0 0 0 0
0.07260458 0.06812618 -0.01410149 0 0 0 0
-0.07745920 -0.04400397 -0.07727634 0 0 0 0
-0.05217138 -0.07015567 0.07982107 0 0 0 0
0.04543035 -0.03880251 -0.09635693 0 0 0 0
0.05048462 0.08560430 0.00462199 0 0 0 0
0.06865981 -0.07154939 0.02891538 0 0 0 0
0.00115164 -0.00792979 0.09976868 0 0 0 0
-0.01140316 -0.01119584 -0.09995368 0 0 0 0
0.07330237 0.05458942 -0.07256072 0 0 0 0
-0.09278788 -0.03565760 -0.00685333 0 0 0 0
0.07016753 0.00419955 -0.09269726 0 0 0 0
-0.09958868 0.00124956 0.01189767 0 0 0 0
-0.06310972 -0.04636257 0.08860482 0 0 0 0
0.01063920 0.09785488 -0.04731261 0 0 0 0
0.01062691 0.09374737 0.06615058 0 0 0 0
-0.09194116 -0.02600341 -0.06235474 0 0 0 0
0.02435783 -0.09523513 -0.04381590 0 0 0 0
-0.01448782 -0.07898448 0.08679292 0 0 0 0
-0.06222828 -0.07751776 -0.00693285 0 0 0 0
-0.03871755 0.09128900 0.03212949 0 0 0 0
-0.09234498 0.03133765 -0.05222931 0 0 0 0
-0.00808910 -0.06431298 -0.09505585 0 0 0 0
-0.01381977 -0.03355482 -0.09939429 0 0 0 0
-0.03228071 -0.08849637 -0.06578019 0 0 0 0
0.01583691 -0.09753413 -0.03674994 0 0 0 0
0.03714473 -0.09222408 -0.02285316 0 0 0 0
-0.06259499 0.05324719 0.08535226 0 0 0 0
-0.09704839 -0.00504446 -0.05289058 0 0 0 0
0.09913675 -0.00339586 0.02259838 0 0 0 0
0.01380837 0.00523576 -0.09962761 0 0 0 0
0.05292306 0.05068452 -0.09144796 0 0 0 0
-0.00777937 -0.09915325 -0.00511038 0 0 0 0
0.02588764 0.08248133 -0.08075184 0 0 0 0
0.05948747 -0.07480778 -0.06308901 0 0 0 0
-0.01032520 -0.09236088 -0.06982552 0 0 0 0
0.05327369 0.03747948 -0.09469510 0 0 0 0
-0.09791950 0.00565484 -0.04786113 0 0 0 0
-0.04430257 0.08895538 -0.02173578 0 0 0 0
-0.09424740 0.03268338 -0.02035971 0 0 0 0
-0.01085012 0.00019104 -0.09967035 0 0 0 0
0.02659502 0.00457050 0.09976868 0 0 0 0
0.05907940 -0.07874203 -0.04150392 0 0 0 0
0.03661928 -0.05190498 0.09529920 0 0 0 0
0.04148383 -0.07945791 0.07579223 0 0 0 0
0.00861867 0.00770909 0.09976868 0 0 0 0
0.00546048 0.02921527 0.09976868 0 0 0 0
-0.05965638 -0.06507839 -0.07791804 0 0 0 0
0.07794081 -0.05510144 -0.06270420 0 0 0 0
0.05767726 0.07823110 -0.05268500 0 0 0 0
0.01912414 0.09206210 -0.06682639 0 0 0 0
-0.08369603 0.05403186 0.02220337 0 0 0 0
-0.05690921 -0.08073750 -0.03920557 0 0 0 0
-0.02867515 -0.09510134 0.00319221 0 0 0 0
0.01096108 0.01475541 -0.09958662 0 0 0 0
0.03197341 -0.09413153 -0.01362077 0 0 0 0
-0.05072823 -0.04768098 0.09326787 0 0 0 0
-0.06929247 -0.03989214 -0.08690001 0 0 0 0
0.00917565 -0.00099999 0.09976868 0 0 0 0
0.01176450 -0.09907191 -0.00209049 0 0 0 0
-0.04905307 -0.08643827 -0.01554462 0 0 0 0
0.00519088 -0.01748924 0.09976868 0 0 0 0
-0.08081716 -0.00071484 -0.08644455 0 0 0 0
0.09533950 0.02755492 0.03621077 0 0 0 0
0.06746317 0.05848070 0.07645400 0 0 0 0
-0.09530422 -0.01454930 -0.05855516 0 0 0 0
0.09754382 0.01840917 0.01525531 0 0 0 0
0.05764734 0.07968791 -0.04730683 0 0 0 0
-0.04186262 0.03179138 0.09795930 0 0 0 0
-0.05748922 -0.08125930 0.03332626 0 0 0 0
-0.03095422 -0.06477536 0.09208859 0 0 0 0
0.02483648 0.07757907 -0.08621621 0 0 0 0
-0.07535300 -0.06400652 0.03872916 0 0 0 0
0.08382319 0.03867492 0.07159007 0 0 0 0
0.09553670 0.02674958 0.02174355 0 0 0 0
0.01675287 -0.09557857 -0.05472412 0 0 0 0
-0.08711834 0.04834192 -0.02865725 0 0 0 0
0.05751524 -0.07948358 0.04649529 0 0 0 0
0.08913478 -0.04118361 -0.04712323 0 0 0 0
0.00286370 -0.00285193 -0.09974010 0 0 0 0
-0.09924789 -0.00507369 -0.00845903 0 0 0 0
0.05000737 0.08590128 -0.01562539 0 0 0 0
0.09010482 -0.02191747 -0.07020897 0 0 0 0
0.08911634 -0.04021730 0.04859409 0 0 0 0
-0.09833746 -0.01192544 -0.02417097 0 0 0 0
0.07745112 -0.06067143 0.04419672 0 0 0 0
-0.01864056 -0.04253326 -0.09876873 0 0 0 0
0.05951916 0.07960334 -0.01676291 0 0 0 0
0.01256840 -0.07339002 -0.09070952 0 0 0 0
0.09340047 -0.03430370 -0.00176481 0 0 0 0
-0.01619194 -0.09805585 -0.02682199 0 0 0 0
-0.05837955 0.08038526 -0.02302583 0 0 0 0
0.02488151 0.09595464 -0.01944928 0 0 0 0
-0.01399137 0.09819759 0.02540122 0 0 0 0
-0.08051316 0.05625933 -0.04620536 0 0 0 0
-0.09744302 -0.02010730 -0.00639251 0 0 0 0
-0.04388192 0.07610763 0.07921243 0 0 0 0
-0.02724307 0.04138238 -0.09807234 0 0 0 0
0.08378375 -0.05028536 -0.05222742 0 0 0 0
-0.06355558 -0.07664184 0.00759221 0 0 0 0
-0.01970394 0.09602021 -0.04916570 0 0 0 0
0.06789056 0.07285023 0.01454354 0 0 0 0
0.01606680 -0.09762602 0.03794399 0 0 0 0
0.07581383 -0.04750931 0.07618739 0 0 0 0
0.00845756 0.01234687 0.09976868 0 0 0 0
-0.06216542 0.07704262 -0.03906272 0 0 0 0
-0.02825403 -0.09362678 0.04894262 0 0 0 0
-0.07908909 0.05903260 -0.04256701 0 0 0 0
-0.00452004 0.00218965 -0.09983645 0 0 0 0
0.09844320 0.01503109 -0.01034475 0 0 0 0
-0.08520652 -0.02556100 0.07722946 0 0 0 0
0.03603654 0.09295343 -0.01501408 0 0 0 0
0.05504829 -0.02069801 -0.09680145 0 0 0 0
0.05776023 -0.02079565 0.09578033 0 0 0 0
0.01922648 0.09768617 -0.00685771 0 0 0 0
0.09822704 -0.01517266 -0.01614522 0 0 0 0
0.02665145 0.00770463 -0.09955342 0 0 0 0
-0.01733088 0.05197834 -0.09727047 0 0 0 0
0.00931783 -0.08810499 -0.07753667 0 0 0 0
-0.06874351 0.04675773 -0.08437861 0 0 0 0
-0.02252071 -0.08848967 0.07307496 0 0 0 0
-0.01721004 0.06107700 -0.09523993 0 0 0 0
0.09236570 0.03586733 -0.03720590 0 0 0 0
0.03749118 -0.09163116 -0.03603573 0 0 0 0
-0.05310246 0.07980541 -0.06081545 0 0 0 0
0.09053775 0.04142091 0.00718862 0 0 0 0
-0.09962337 0.00084226 0.01280809 0 0 0 0
-0.09884204 0.01121619 -0.01130493 0 0 0 0
-0.04081393 0.07224265 -0.08466695 0 0 0 0
0.09650137 -0.02484370 0.01568041 0 0 0 0
-0.03484692 -0.09261225 0.04112167 0 0 0 0
-0.02987015 0.02068615 -0.09918897 0 0 0 0
-0.07911631 -0.04066546 0.07689133 0 0 0 0
0.07203232 -0.06758006 -0.04173686 0 0 0 0
-0.00568685 -0.09004247 -0.07534312 0 0 0 0
0.04628279 -0.01970494 -0.09798091 0 0 0 0
-0.02106818 -0.05799863 0.09570892 0 0 0 0
0.09776922 0.00693068 0.04696417 0 0 0 0
-0.07716370 0.05575666 0.06326922 0 0 0 0
0.09310123 0.03555587 -0.00059492 0 0 0 0
0.01299867 0.09664626 -0.05213276 0 0 0 0
-0.04225238 -0.05629243 0.09281341 0 0 0 0
0.03791115 -0.08557422 -0.06867594 0 0 0 0
-0.05788358 -0.08038346 0.03748238 0 0 0 0
-0.09303118 -0.03502570 0.01224890 0 0 0 0
-0.05981933 0.06517698 0.07778742 0 0 0 0
-0.04376029 -0.07956244 -0.07425321 0 0 0 0
-0.08092492 -0.03832557 -0.07655431 0 0 0 0
-0.03275935 -0.03555111 -0.09851066 0 0 0 0
0.08468373 -0.04718249 -0.05450286 0 0 0 0
-0.01366327 0.09688529 0.04794598 0 0 0 0
-0.02566475 0.09511227 -0.04035403 0 0 0 0
-0.05188865 -0.01051842 -0.09763891 0 0 0 0
-0.00516710 0.09763624 -0.04989217 0 0 0 0
-0.03329325 -0.02940170 0.09863619 0 0 0 0
-0.04579664 0.04319228 -0.09570888 0 0 0 0
-0.04582597 -0.07868129 -0.07320523 0 0 0 0
0.04811534 0.08683044 0.00800866 0 0 0 0
-0.00796972 -0.01156520 -0.09993307 0 0 0 0
-0.00934015 0.09342752 0.06807165 0 0 0 0
-0.09381662 0.00428917 -0.06641395 0 0 0 0
-0.03649784 -0.02414533 -0.09888117 0 0 0 0
-0.04411247 0.08907177 -0.01635695 0 0 0 0
-0.03317180 -0.05831860 0.09435469 0 0 0 0
0.09864648 0.01107557 0.01076857 0 0 0 0
-0.05579241 0.08022768 0.04947950 0 0 0 0
0.04495788 -0.07988499 0.07253269 0 0 0 0
-0.06824099 0.01102030 -0.09337090 0 0 0 0
-0.08901784 0.03266273 0.06350537 0 0 0 0
-0.09905137 0.00843271 -0.01890824 0 0 0 0
0.00000461 0.06570280 0.09467158 0 0 0 0
-0.08577095 0.04902761 -0.03627839 0 0 0 0
-0.06241869 0.06331803 -0.07756985 0 0 0 0
0.03076614 0.07668106 -0.08490150 0 0 0 0
0.03895009 0.08585434 0.06545792 0 0 0 0
-0.05174971 0.08486845 -0.00929171 0 0 0 0
0.04047951 0.02759718 -0.09836428 0 0 0 0
-0.00731833 0.09330535 -0.06727955 0 0 0 0
-0.06199752 0.07777609 -0.02065521 0 0 0 0
-0.07952063 -0.03720288 0.07944407 0 0 0 0
0.08294371 -0.05438640 -0.01971136 0 0 0 0
-0.02070680 -0.08013851 -0.08469822 0 0 0 0
-0.09398496 0.03235143 0.03662911 0 0 0 0
-0.00425998 -0.07863662 0.08827620 0 0 0 0
0.08325904 -0.05349246 -0.03069011 0 0 0 0
-0.03928611 -0.06293456 -0.09085055 0 0 0 0
-0.08422723 0.05293667 -0.01787019 0 0 0 0
0.02282400 -0.01734818 -0.09951875 0 0 0 0
0.09838501 -0.01223377 -0.03685439 0 0 0 0
-0.08851196 -0.04465935 0.03519770 0 0 0 0
-0.07685834 -0.05274761 -0.06888355 0 0 0 0
-0.08080625 0.05463175 0.05186689 0 0 0 0
0.04269289 0.08617418 0.05933907 0 0 0 0
-0.04699226 0.04383697 0.09509067 0 0 0 0
0.05286176 0.03050800 -0.09607182 0 0 0 0
0.02592473 0.02026830 -0.09933437 0 0 0 0
0.01766283 0.01695910 -0.09952213 0 0 0 0
-0.06029170 -0.07174088 0.06731854 0 0 0 0
-0.08890637 0.00004580 0.07767542 0 0 0 0
-0.00061160 -0.00321103 -0.09980987 0 0 0 0
0.05100624 -0.07365220 -0.07610707 0 0 0 0
-0.04914230 0.08629765 -0.01915859 0 0 0 0
0.03573003 0.08954199 0.05863965 0 0 0 0
-0.08384319 0.05272658 -0.03862327 0 0 0 0
0.04430120 0.03210755 0.09751066 0 0 0 0
0.04193234 -0.09040662 -0.00827339 0 0 0 0
0.02385910 -0.03343737 -0.09918444 0 0 0 0
-0.04947517 -0.08631045 -0.01003943 0 0 0 0
-0.08535748 0.05129235 -0.01874133 0 0 0 0
0.09486588 -0.00164112 0.06333812 0 0 0 0
-0.09453538 -0.02529436 -0.05103843 0 0 0 0
0.01970415 0.01215540 -0.09953691 0 0 0 0
-0.06630439 -0.01272128 -0.09387527 0 0 0 0
-0.03103454 0.06676424 -0.09126808 0 0 0 0
0.08091372 0.05548595 -0.04850904 0 0 0 0
-0.07238254 0.06850167 0.00144548 0 0 0 0
0.06248778 -0.07414068 -0.05537876 0 0 0 0
0.09208499 0.03104708 0.05681489 0 0 0 0
-0.00149970 0.00255621 -0.09975873 0 0 0 0
-0.09940903 0.00853260 -0.00195938 0 0 0 0
-0.07992943 0.05366216 -0.05780745 0 0 0 0
0.08145744 0.03968437 0.07468688 0 0 0 0
-0.01921174 0.09548973 0.05358151 0 0 0 0
-0.07317749 -0.03763934 -0.08504384 0 0 0 0
0.04805684 0.08539305 -0.05087751 0 0 0 0
0.04132316 -0.05474653 -0.09354094 0 0 0 0
0.09939634 0.00264981 -0.02423891 0 0 0 0
0.02642744 0.09579819 0.01252279 0 0 0 0
0.05681221 0.05361514 -0.08847719 0 0 0 0
0.00779916 -0.00382724 0.09976868 0 0 0 0
0.06673381 -0.07323255 -0.03833065 0 0 0 0
-0.07485874 0.05744564 0.06619513 0 0 0 0
-0.05247433 -0.05506535 0.08975561 0 0 0 0
0.09771744 -0.02010860 -0.01823606 0 0 0 0
0.02651655 -0.09441298 -0.04923356 0 0 0 0
-0.01332901 -0.02448555 -0.09948447 0 0 0 0
-0.09360184 -0.01512971 -0.06434482 0 0 0 0
0.04944005 -0.08558979 -0.03723715 0 0 0 0
0.07890259 0.06000669 -0.03643401 0 0 0 0
0.00255252 -0.03453271 0.09945311 0 0 0 0
0.03046904 0.00564802 -0.09945139 0 0 0 0
-0.09654497 -0.02367906 0.00326173 0 0 0 0
-0.08618940 0.00973224 -0.08045144 0 0 0 0
-0.00254868 0.00145819 0.09976868 0 0 0 0
0.08110695 -0.05719703 0.01258047 0 0 0 0
0.09232645 -0.03603467 -0.02121199 0 0 0 0
-0.00212813 -0.09937684 -0.02737283 0 0 0 0
-0.08814781 0.03210965 0.06696208 0 0 0 0
-0.06289189 -0.07507920 -0.04970690 0 0 0 0
0.06969403 0.07095776 0.00206417 0 0 0 0
-0.08883639 0.04300816 0.04392776 0 0 0 0
-0.00288153 -0.00118752 -0.09975067 0 0 0 0
0.00446521 0.08282113 -0.08463877 0 0 0 0
0.06788290 -0.07263961 -0.01934055 0 0 0 0
-0.02880580 0.09271767 -0.05394977 0 0 0 0
-0.04617256 -0.07456629 -0.07905562 0 0 0 0
-0.09602839 -0.02485105 -0.01933590 0 0 0 0
-0.08596523 0.03245088 -0.07246531 0 0 0 0
-0.02159394 0.07658070 0.08757181 0 0 0 0
-0.09899600 0.00494363 -0.02487812 0 0 0 0
0.01708437 0.05194787 -0.09729174 0 0 0 0
-0.05801389 -0.07936528 -0.04374744 0 0 0 0
-0.04520582 -0.05991591 -0.09028212 0 0 0 0
-0.09729532 0.02018220 -0.00767071 0 0 0 0
0.09567126 0.01053873 -0.05915574 0 0 0 0
-0.03066960 0.08419865 0.07582082 0 0 0 0
0.05750371 -0.07933202 -0.04914891 0 0 0 0
0.05178547 0.06795307 -0.08222468 0 0 0 0
-0.09501003 0.01642168 -0.05769312 0 0 0 0
0.02463887 -0.06284866 -0.09386562 0 0 0 0
0.07093416 -0.06674699 -0.05147426 0 0 0 0
0.01056676 0.08364544 0.08313070 0 0 0 0
0.09925264 -0.00507443 0.00537675 0 0 0 0
0.05269547 -0.04531467 -0.09321388 0 0 0 0
-0.01569653 -0.06226016 0.09508024 0 0 0 0
0.05999468 0.07944984 -0.01565061 0 0 0 0
-0.04342848 -0.08967289 -0.02152874 0 0 0 0
0.08119204 0.05758640 -0.01208025 0 0 0 0
0.00270970 -0.07984845 -0.08738194 0 0 0 0
-0.00263204 -0.00313421 0.09976868 0 0 0 0
0.06859987 0.03603537 0.08908100 0 0 0 0
0.06009589 0.04772231 -0.08919309 0 0 0 0
0.02954196 -0.05405600 -0.09589770 0 0 0 0
-0.00613538 0.09922554 -0.02873173 0 0 0 0
0.06972657 0.04616274 -0.08404412 0 0 0 0
-0.06781662 -0.02904411 -0.09117530 0 0 0 0
0.07719211 0.06311896 -0.02265331 0 0 0 0
-0.04536770 -0.08838330 -0.02792688 0 0 0 0
0.02953205 -0.01116116 0.09971210 0 0 0 0
0.01429522 0.07260995 -0.09110728 0 0 0 0
0.01759701 0.05082814 -0.09746918 0 0 0 0
-0.05506524 0.01058243 -0.09700923 0 0 0 0
-0.05424925 0.06090372 -0.08612005 0 0 0 0
-0.06206813 -0.07743809 -0.02915977 0 0 0 0
0.01661574 -0.09765551 -0.02404133 0 0 0 0
-0.05774020 -0.02371809 0.09552579 0 0 0 0
0.07343654 -0.06662928 -0.02780057 0 0 0 0
-0.07853837 0.05875550 -0.04985833 0 0 0 0
0.08542093 -0.04374840 -0.05979709 0 0 0 0
0.07346401 0.01501193 -0.09034222 0 0 0 0
0.09092559 0.04063448 -0.02013401 0 0 0 0
-0.00790429 0.06639891 -0.09416898 0 0 0 0
-0.08882841 -0.03574786 0.06176518 0 0 0 0
0.00537968 -0.09315982 -0.06861694 0 0 0 0
0.01150437 -0.07606289 0.08933567 0 0 0 0
0.05003855 0.06899053 0.08217812 0 0 0 0
-0.01598698 -0.06790778 0.09321713 0 0 0 0
0.06593099 0.06310666 -0.07365811 0 0 0 0
-0.01620748 0.09815539 -0.00549135 0 0 0 0
-0.07136397 0.06979959 -0.01997582 0 0 0 0
0.09647326 0.01701819 0.04790549 0 0 0 0
0.07544869 0.06491818 -0.01970872 0 0 0 0
-0.07592675 0.02164321 0.08829375 0 0 0 0
0.06554221 -0.01847340 -0.09373607 0 0 0 0
0.00969327 -0.09893822 -0.01137060 0 0 0 0
-0.06172415 0.07676457 -0.04484177 0 0 0 0
0.02631555 0.09597974 -0.01472613 0 0 0 0
-0.04256696 0.08985002 0.01010975 0 0 0 0
0.08918010 -0.03864772 0.05622458 0 0 0 0
0.00887945 -0.00858505 -0.09965260 0 0 0 0
0.00072012 -0.00331787 -0.09981828 0 0 0 0
-0.03158870 -0.07851551 -0.08272453 0 0 0 0
-0.02723840 0.01187528 0.09976868 0 0 0 0
0.02605419 0.02085033 0.09956332 0 0 0 0
0.05161344 -0.08513832 -0.00131268 0 0 0 0
0.07933492 -0.05261802 0.06230127 0 0 0 0
0.01877372 -0.06754234 -0.09306908 0 0 0 0
0.08910897 -0.02845891 0.06795788 0 0 0 0
-0.03818054 -0.06001145 -0.09236784 0 0 0 0
-0.00268538 0.00027332 0.09976868 0 0 0 0
0.01035876 0.09886006 -0.00244893 0 0 0 0
0.08101854 -0.01135103 -0.08583434 0 0 0 0
-0.01119172 0.01603919 0.09976868 0 0 0 0
0.08026519 0.02508582 0.08325780 0 0 0 0
-0.06518953 0.07475467 -0.01700228 0 0 0 0
-0.07233009 -0.06820410 -0.01784536 0 0 0 0
0.02143139 0.09319448 0.06089194 0 0 0 0
-0.01391768 0.09851485 0.02071110 0 0 0 0
0.06808573 -0.05291999 -0.08068386 0 0 0 0
0.01855349 -0.00956491 0.09976868 0 0 0 0
0.02161845 -0.09180444 0.06548487 0 0 0 0
0.00131417 -0.04688340 -0.09841526 0 0 0 0
-0.01122056 -0.09632830 -0.05456015 0 0 0 0
0.02643715 0.09556247 -0.02433673 0 0 0 0
0.06385139 -0.06223517 -0.07670686 0 0 0 0
-0.01285293 -0.01237399 -0.09997373 0 0 0 0
-0.01237989 0.09816550 -0.03869953 0 0 0 0
-0.09915204 0.00974164 -0.02088482 0 0 0 0
-0.07372165 -0.06623942 -0.02846951 0 0 0 0
-0.05550499 -0.07554315 -0.06725495 0 0 0 0
0.05435482 0.08276480 -0.03586445 0 0 0 0
-0.04453059 -0.02335019 -0.09810583 0 0 0 0
-0.02331751 -0.03726380 -0.09886584 0 0 0 0
-0.08849682 0.00417846 0.07752799 0 0 0 0
-0.04306700 0.08572873 -0.06067101 0 0 0 0
-0.08981013 0.04279555 -0.00433715 0 0 0 0
0.08330314 -0.05435381 -0.00593788 0 0 0 0
-0.09035809 0.04103746 0.01440517 0 0 0 0
-0.00369769 0.01504300 -0.09994914 0 0 0 0
-0.09959812 -0.00077564 -0.02894598 0 0 0 0
0.05196460 -0.04802318 -0.09252725 0 0 0 0
-0.07259191 -0.05523171 0.07358001 0 0 0 0
0.02615787 -0.07175262 -0.08974645 0 0 0 0
0.03496313 -0.08088721 -0.07851267 0 0 0 0
0.08454714 -0.01881278 0.08074626 0 0 0 0
0.08754990 0.04581251 -0.03443456 0 0 0 0
0.05834455 0.07844363 -0.05097421 0 0 0 0
0.06835304 -0.07198398 -0.02573697 0 0 0 0
-0.05265986 -0.08297320 -0.04764954 0 0 0 0
0.00511592 -0.00152583 0.09976868 0 0 0 0
-0.07435512 0.06636858 -0.00116668 0 0 0 0
0.00152484 -0.09604923 -0.06008942 0 0 0 0
-0.02201783 -0.08898021 0.07240921 0 0 0 0
0.05496541 0.04159411 0.09365535 0 0 0 0
0.02425142 0.06608442 0.09275936 0 0 0 0
-0.04450383 0.08906702 0.00989716 0 0 0 0
-0.09846346 -0.00733910 -0.04261576 0 0 0 0
-0.02053036 -0.00557124 -0.09955650 0 0 0 0
-0.01519427 -0.08304219 -0.08291736 0 0 0 0
-0.07800604 0.06156494 0.03419906 0 0 0 0
-0.08369467 0.05364303 -0.00753331 0 0 0 0
0.02828402 -0.00957990 -0.09946485 0 0 0 0
-0.09160925 0.03918813 -0.00763596 0 0 0 0
0.07062624 -0.06975249 -0.03050047 0 0 0 0
0.08713595 0.04671657 0.03826619 0 0 0 0
0.09924259 -0.00440451 -0.00972730 0 0 0 0
0.04161325 0.04020735 -0.09696253 0 0 0 0
0.08212949 0.05296622 0.04933646 0 0 0 0
0.05853014 -0.06553443 -0.07856190 0 0 0 0
-0.09513398 -0.02776171 -0.02072373 0 0 0 0
0.09888504 -0.00801284 0.02202928 0 0 0 0
0.08265831 0.05557033 0.00713858 0 0 0 0
0.06023639 -0.07695104 0.04979627 0 0 0 0
0.04414137 -0.00385706 -0.09875501 0 0 0 0
0.09395920 0.01124319 -0.06530764 0 0 0 0
0.07355870 0.04817782 -0.07874735 0 0 0 0
-0.08518264 -0.03341768 -0.07307097 0 0 0 0
0.05184255 0.08421960 -0.03393937 0 0 0 0
-0.07758915 0.02874585 -0.08491378 0 0 0 0
0.09480823 -0.00093200 -0.06404898 0 0 0 0
-0.05154908 0.01389640 -0.09757961 0 0 0 0
-0.07129996 0.05135229 -0.07884819 0 0 0 0
0.06915639 -0.07070747 -0.04119929 0 0 0 0
-0.09257838 0.03541750 -0.02592102 0 0 0 0
0.07466929 -0.01845285 -0.08913219 0 0 0 0
-0.00638458 0.00061534 0.09976868 0 0 0 0
-0.02219658 -0.09668182 -0.03646063 0 0 0 0
-0.09548112 0.02417088 0.04532441 0 0 0 0
0.09219022 0.02174476 0.06437755 0 0 0 0
-0.08061583 0.00051207 0.08651202 0 0 0 0
0.09719862 -0.00397960 -0.05433847 0 0 0 0
0.07511394 0.05883817 0.06233490 0 0 0 0
0.00209492 0.00401069 -0.09974182 0 0 0 0
-0.04391348 -0.08795786 -0.04570724 0 0 0 0
0.09743629 -0.01686868 0.03810866 0 0 0 0
0.08867951 0.04325333 -0.04307422 0 0 0 0
-0.01381331 -0.08637504 -0.07929479 0 0 0 0
-0.00504635 -0.09931464 -0.00126141 0 0 0 0
-0.08469348 -0.04932813 -0.04874158 0 0 0 0
-0.07873894 -0.03097395 -0.08308633 0 0 0 0
0.08105941 -0.01334648 -0.08527393 0 0 0 0
0.01855706 -0.03753849 0.09885310 0 0 0 0
0.05706710 0.00927855 -0.09696467 0 0 0 0
-0.09769805 -0.02040925 -0.00336396 0 0 0 0
0.08513219 -0.00039771 -0.08236627 0 0 0 0
0.09415101 0.00251932 -0.06567113 0 0 0 0
-0.03735191 -0.09213319 0.01966032 0 0 0 0
0.01617221 -0.09082497 -0.07064936 0 0 0 0
-0.01125478 0.08174035 -0.08525153 0 0 0 0
-0.04415206 0.05165181 -0.09366887 0 0 0 0
-0.03919386 0.08768006 -0.05896196 0 0 0 0
0.09712981 0.02170888 -0.00893353 0 0 0 0
-0.02580537 -0.02393999 -0.09940598 0 0 0 0
0.02024843 -0.09717534 0.01079657 0 0 0 0
0.02839904 0.03054889 -0.09910043 0 0 0 0
-0.06242256 -0.03638272 -0.09225038 0 0 0 0
-0.05382099 -0.07051692 -0.07794721 0 0 0 0
-0.05269988 0.05337386 -0.09072969 0 0 0 0
0.08904354 0.02482848 -0.07061663 0 0 0 0
-0.03623167 0.06130274 0.09231810 0 0 0 0
-0.00175237 0.09807532 -0.04712651 0 0 0 0
0.03904455 -0.06389089 -0.09042851 0 0 0 0
-0.02694303 -0.09547069 -0.01685140 0 0 0 0
-0.01588405 0.09619619 0.05151734 0 0 0 0
0.01764073 -0.09781164 0.00871987 0 0 0 0
0.03815765 0.01777693 -0.09894635 0 0 0 0
-0.09664609 -0.01017453 0.05417971 0 0 0 0
-0.05634894 -0.07679517 0.06288315 0 0 0 0
0.01392060 -0.07023971 -0.09219085 0 0 0 0
0.05275889 -0.08434900 -0.01820000 0 0 0 0
-0.09261866 -0.03634515 0.03511096 0 0 0 0
0.02288569 -0.09664556 0.01395467 0 0 0 0
-0.04994918 0.04898511 -0.09305184 0 0 0 0
-0.09863939 -0.00582740 -0.04213911 0 0 0 0
-0.04148165 -0.08973235 -0.03493845 0 0 0 0
0.09411933 -0.03154005 0.02090289 0 0 0 0
0.06016967 -0.05088903 -0.08807755 0 0 0 0
0.05377044 -0.08027171 -0.05813035 0 0 0 0
-0.01132040 0.08959816 -0.07477171 0 0 0 0
-0.07262804 -0.04387461 -0.08249293 0 0 0 0
0.01533559 -0.07325160 0.09051909 0 0 0 0
0.06918664 0.01154463 0.09295941 0 0 0 0
-0.01650698 0.04901662 -0.09785494 0 0 0 0
0.05542525 0.08229973 -0.01550928 0 0 0 0
-0.05283710 0.08364637 -0.03448097 0 0 0 0
0.02235600 -0.09665595 0.02839545 0 0 0 0
0.09851383 -0.00617844 0.04016886 0 0 0 0
-0.07607549 -0.06109116 0.05217758 0 0 0 0
-0.00183154 -0.08015972 -0.08701135 0 0 0 0
-0.01549655 0.09632930 0.05098332 0 0 0 0
-0.06303750 0.06138269 0.07862841 0 0 0 0
-0.03133055 -0.09440271 0.00913068 0 0 0 0
-0.05374261 0.05917066 -0.08715324 0 0 0 0
-0.07655048 0.06289525 -0.03617991 0 0 0 0
0.08695129 -0.04808937 -0.00513354 0 0 0 0
-0.06002840 0.07497413 -0.06070612 0 0 0 0
0.09920482 0.00156644 -0.01583079 0 0 0 0
0.09051644 -0.04090232 -0.00350887 0 0 0 0
-0.03623845 -0.01895817 -0.09899534 0 0 0 0
0.06554164 0.07400482 -0.03325327 0 0 0 0
0.00767660 -0.01761637 0.09976868 0 0 0 0
-0.04942196 0.08622317 -0.01427297 0 0 0 0
0.06802890 -0.07251365 -0.00103211 0 0 0 0
