ply
format ascii 1.0
comment https://github.com/mikedh/trimesh
element vertex 1121
property float x
property float y
property float z
property uchar red
property uchar green
property uchar blue
property uchar alpha
end_header
-0.06081219 0.09077000 -0.07468552 0 0 0 0
-0.00665331 -0.00676377 0.09976868 0 0 0 0
-0.09344563 -0.01124563 0.06970571 0 0 0 0
0.04337580 0.07677829 -0.08966868 0 0 0 0
-0.02344065 0.06856802 -0.09361517 0 0 0 0
0.02251246 -0.08774257 0.07968429 0 0 0 0
-0.06918213 0.09985728 -0.01740719 0 0 0 0
0.02077792 -0.09286611 0.07087380 0 0 0 0
-0.06611577 0.01591371 -0.09443076 0 0 0 0
0.02117777 0.01312257 -0.09964327 0 0 0 0
0.00646103 -0.09633344 -0.05948073 0 0 0 0
0.03787427 -0.09945170 -0.02587929 0 0 0 0
0.09540296 0.09059994 -0.06368488 0 0 0 0
0.05814191 0.09724639 -0.05517821 0 0 0 0
-0.04990313 -0.04243804 -0.09804400 0 0 0 0
0.08984171 -0.09996487 -0.00165787 0 0 0 0
-0.09717499 -0.04710890 -0.05567838 0 0 0 0
0.09914920 0.01113036 -0.04015645 0 0 0 0
-0.01411338 -0.07077862 -0.09287997 0 0 0 0
0.09959431 0.06679741 0.03463988 0 0 0 0
-0.09775718 0.09621115 -0.05197576 0 0 0 0
0.09745219 -0.03049312 -0.05388791 0 0 0 0
0.01593197 -0.09634799 -0.05941499 0 0 0 0
-0.09840075 0.05407577 -0.04956048 0 0 0 0
-0.06505918 0.07336198 0.09135519 0 0 0 0
0.06870805 0.09082745 0.07437949 0 0 0 0
-0.09685486 0.05601720 -0.05763299 0 0 0 0
-0.02928152 0.09971265 0.01121669 0 0 0 0
0.09240354 0.03388591 -0.07121494 0 0 0 0
-0.09982942 -0.09669920 -0.00805127 0 0 0 0
-0.01428121 0.00103336 0.09976868 0 0 0 0
-0.03060283 -0.09970675 0.01238570 0 0 0 0
0.08989815 0.07691714 -0.07653783 0 0 0 0
0.04800714 -0.09857695 -0.04683595 0 0 0 0
0.09545355 0.07704864 0.06284840 0 0 0 0
-0.02031314 0.09400882 -0.06730129 0 0 0 0
-0.02822167 -0.09845991 -0.04860192 0 0 0 0
0.03882801 0.01403552 -0.09936900 0 0 0 0
0.07009134 0.09942485 -0.02714651 0 0 0 0
-0.09997929 -0.09399845 -0.00097774 0 0 0 0
0.00112371 -0.08796189 0.07930715 0 0 0 0
0.01644974 0.02672114 -0.09949817 0 0 0 0
-0.03040581 0.07608865 -0.09020997 0 0 0 0
-0.08476551 0.09985694 -0.01734057 0 0 0 0
-0.03608548 -0.04425690 -0.09878885 0 0 0 0
0.00771806 0.09957940 -0.01985176 0 0 0 0
0.00325424 0.01774041 0.09976868 0 0 0 0
0.09934540 0.09789331 -0.03425362 0 0 0 0
0.01947341 0.00484618 -0.09983499 0 0 0 0
0.01705133 -0.04147128 0.09889772 0 0 0 0
-0.04255874 0.09986760 -0.01944988 0 0 0 0
0.00054739 0.09350975 -0.06863103 0 0 0 0
-0.08294310 0.05296120 0.08462705 0 0 0 0
-0.03204508 -0.09317391 -0.06952585 0 0 0 0
0.07667038 0.03503946 -0.08975338 0 0 0 0
0.07747516 -0.00497695 0.08919998 0 0 0 0
0.00896734 -0.09960619 0.03228937 0 0 0 0
-0.02191806 0.09973447 0.00689957 0 0 0 0
0.00061952 0.03980808 0.09903590 0 0 0 0
0.01521979 -0.09925194 -0.03530747 0 0 0 0
0.07426207 0.09831189 0.04775231 0 0 0 0
-0.09757116 -0.09972559 0.00865653 0 0 0 0
-0.09945216 0.04125743 -0.03252365 0 0 0 0
-0.09960811 0.03529488 0.03190938 0 0 0 0
-0.08550441 -0.06947266 -0.08235480 0 0 0 0
0.09282424 0.00117286 -0.07032115 0 0 0 0
0.07174028 -0.09875765 -0.04377733 0 0 0 0
-0.07537360 0.09966341 0.02096312 0 0 0 0
0.04246505 -0.08809708 -0.07871021 0 0 0 0
-0.08560835 0.09961544 -0.01815087 0 0 0 0
-0.09966785 0.05933943 0.02008473 0 0 0 0
-0.03522941 -0.09981646 -0.00866275 0 0 0 0
0.08366589 0.08801959 0.07920794 0 0 0 0
-0.08182733 0.09985181 -0.01632464 0 0 0 0
-0.05879179 0.08610873 -0.08150531 0 0 0 0
0.09983132 -0.05377536 -0.01226946 0 0 0 0
0.03198785 -0.04403413 0.09868480 0 0 0 0
0.07911751 0.04406543 -0.08783269 0 0 0 0
0.00920146 -0.09836940 -0.05006845 0 0 0 0
0.03339478 0.09391026 0.06811894 0 0 0 0
-0.06543364 -0.09977600 -0.00132075 0 0 0 0
0.04401775 -0.05573983 -0.09711687 0 0 0 0
0.09868832 -0.08242787 -0.04490082 0 0 0 0
0.07494643 0.08986344 -0.07622718 0 0 0 0
0.09042737 0.09075766 -0.07471173 0 0 0 0
0.00754712 -0.09970738 0.01226201 0 0 0 0
0.03936747 0.09994027 -0.00281904 0 0 0 0
0.05054016 -0.02886363 0.09814429 0 0 0 0
-0.09906656 0.01340419 0.04066393 0 0 0 0
0.00601994 -0.04217825 0.09883898 0 0 0 0
-0.08277540 -0.09957507 -0.03053208 0 0 0 0
0.04465763 -0.08812475 -0.07867131 0 0 0 0
0.08477124 0.01301464 -0.08338545 0 0 0 0
0.06030409 -0.09800060 -0.05044951 0 0 0 0
-0.02037930 -0.05904244 -0.09649179 0 0 0 0
-0.07045857 -0.09920958 -0.03730683 0 0 0 0
-0.03829037 -0.00875733 0.09916198 0 0 0 0
-0.09319190 -0.09913454 -0.04084843 0 0 0 0
0.04653738 -0.09987675 -0.02126126 0 0 0 0
-0.04673642 -0.09568810 0.06204739 0 0 0 0
-0.04395363 0.09641767 0.05955586 0 0 0 0
-0.09717115 -0.08184876 -0.05564992 0 0 0 0
-0.09550689 -0.00045720 -0.06321532 0 0 0 0
-0.09846045 -0.09471788 -0.04756638 0 0 0 0
0.06396528 0.05408049 -0.09548057 0 0 0 0
0.05455054 -0.00763201 0.09760223 0 0 0 0
-0.09344527 0.04789022 0.06970693 0 0 0 0
-0.02089833 0.04452185 0.09864428 0 0 0 0
0.07923353 0.08287901 0.08468811 0 0 0 0
-0.05741084 0.05769079 -0.09701665 0 0 0 0
0.04373074 -0.02448714 0.09871000 0 0 0 0
0.09683086 -0.05991280 -0.05778345 0 0 0 0
0.06629612 -0.08417249 0.08345556 0 0 0 0
0.05893503 -0.03119078 0.09648073 0 0 0 0
-0.09520621 -0.08161295 0.06369312 0 0 0 0
-0.00650773 0.02917358 0.09976868 0 0 0 0
0.09936198 -0.02835635 -0.03011370 0 0 0 0
-0.08779301 -0.09973700 0.00639982 0 0 0 0
0.00468013 0.08392193 0.08369431 0 0 0 0
-0.07269395 -0.09936745 0.03783761 0 0 0 0
-0.01095895 -0.02876079 0.09976868 0 0 0 0
-0.08839505 0.09954318 -0.02156114 0 0 0 0
0.09966306 0.09933281 0.02103394 0 0 0 0
0.01267485 -0.07657442 -0.08982870 0 0 0 0
0.01746012 -0.09813817 0.04938409 0 0 0 0
-0.02502247 -0.01199024 0.09976868 0 0 0 0
0.09691659 0.07974237 -0.05724593 0 0 0 0
0.02075691 -0.09090371 -0.07440145 0 0 0 0
0.02292539 -0.09968124 0.01743653 0 0 0 0
0.04621539 0.06644502 0.09455975 0 0 0 0
0.08680926 0.08343814 -0.08052056 0 0 0 0
-0.03492399 -0.01174546 0.09944166 0 0 0 0
-0.09414064 -0.03121587 0.06733215 0 0 0 0
0.09169205 -0.09948292 -0.02440556 0 0 0 0
0.09911966 0.06594921 -0.03791135 0 0 0 0
0.07139199 -0.09921023 0.03931441 0 0 0 0
-0.09969087 -0.04210449 0.01552951 0 0 0 0
0.04436226 0.01836989 -0.09885708 0 0 0 0
0.09077306 0.06354738 0.07447304 0 0 0 0
0.02978013 0.02584308 -0.09950754 0 0 0 0
-0.09336810 0.09620362 -0.06006730 0 0 0 0
0.06604862 0.02955315 -0.09445308 0 0 0 0
0.05037224 0.00888401 0.09815823 0 0 0 0
0.04665253 0.01366254 -0.09876038 0 0 0 0
0.00446235 -0.09991752 -0.00389282 0 0 0 0
-0.00371802 0.04526626 -0.09865569 0 0 0 0
-0.05369250 0.09984131 -0.01424822 0 0 0 0
0.09483799 -0.00344114 0.06495063 0 0 0 0
0.09921218 0.03850364 -0.03718439 0 0 0 0
0.08619441 0.01138305 -0.08118384 0 0 0 0
-0.06429955 -0.09928390 -0.03379901 0 0 0 0
0.02000910 -0.02716045 -0.09958342 0 0 0 0
-0.02324476 -0.06271254 -0.09556262 0 0 0 0
-0.00958390 0.05738653 0.09687681 0 0 0 0
-0.06882265 0.09971214 0.01131874 0 0 0 0
0.09973210 -0.04298469 0.00736793 0 0 0 0
-0.07761697 -0.00097353 -0.08885734 0 0 0 0
-0.01790820 0.01473532 0.09976868 0 0 0 0
-0.07011076 -0.09971193 0.01136056 0 0 0 0
0.01227091 0.09981138 -0.00832332 0 0 0 0
-0.09074470 0.06268103 -0.07473926 0 0 0 0
0.09994091 0.06134348 -0.00278884 0 0 0 0
0.09990811 0.03385832 -0.00433686 0 0 0 0
-0.05132037 -0.05320576 -0.09760832 0 0 0 0
0.09616797 0.09973142 0.00750370 0 0 0 0
0.06453603 -0.09175081 0.07279169 0 0 0 0
0.03238775 0.01787225 0.09965236 0 0 0 0
0.07323544 -0.09960695 0.03213870 0 0 0 0
0.02783247 -0.09247933 -0.07105392 0 0 0 0
0.00211869 -0.04288832 -0.09896939 0 0 0 0
-0.00276771 -0.09369088 0.06886815 0 0 0 0
0.00366816 0.04756932 -0.09866326 0 0 0 0
-0.05878121 -0.01448901 -0.09687011 0 0 0 0
-0.03689850 -0.09639482 -0.06051727 0 0 0 0
0.09046772 -0.09996736 -0.00154055 0 0 0 0
-0.04024367 0.06657020 0.09452774 0 0 0 0
-0.00764200 0.01547565 0.09976868 0 0 0 0
0.08926289 -0.09949037 -0.02405375 0 0 0 0
0.04083921 0.05613274 -0.09722219 0 0 0 0
-0.09987092 0.00514320 -0.02010681 0 0 0 0
-0.02202576 0.08912306 -0.07779843 0 0 0 0
-0.03010426 -0.09575723 -0.06264266 0 0 0 0
0.03234126 0.09895141 -0.04063760 0 0 0 0
0.07700878 -0.09923239 -0.03622999 0 0 0 0
0.06881963 -0.09024166 0.07538684 0 0 0 0
-0.09540650 0.08190060 -0.06357717 0 0 0 0
0.04180475 0.09597744 -0.06108921 0 0 0 0
0.08483825 0.09686124 -0.05759302 0 0 0 0
-0.03952149 0.09758478 -0.05305662 0 0 0 0
0.09632575 0.09936590 -0.02992833 0 0 0 0
0.02530719 0.04664720 -0.09847353 0 0 0 0
-0.03386577 -0.09793921 0.05125291 0 0 0 0
-0.09838553 0.07280375 -0.04980717 0 0 0 0
-0.06912819 -0.01343361 -0.09330574 0 0 0 0
-0.05238793 0.07209188 0.09202068 0 0 0 0
0.00230032 -0.00431775 -0.09973721 0 0 0 0
0.00377629 0.03376339 -0.09942304 0 0 0 0
0.06403910 0.09968267 -0.01497712 0 0 0 0
0.03243263 0.09974840 -0.02772356 0 0 0 0
-0.01707112 0.01207578 0.09976868 0 0 0 0
0.05071545 0.02006970 -0.09806781 0 0 0 0
0.01046595 0.01335227 -0.09967162 0 0 0 0
0.07352553 0.09917848 -0.03877483 0 0 0 0
-0.00798942 -0.08530601 -0.08221079 0 0 0 0
0.08971288 0.09767072 0.05377476 0 0 0 0
-0.00776142 -0.09911809 -0.03793687 0 0 0 0
0.04633512 0.06821488 -0.09369046 0 0 0 0
-0.09974411 -0.06594045 -0.01207750 0 0 0 0
0.09962314 -0.06842404 0.02893537 0 0 0 0
-0.04811895 0.08467127 -0.08347369 0 0 0 0
-0.00888535 0.09954827 -0.02132129 0 0 0 0
-0.06716503 0.00389469 0.09437558 0 0 0 0
0.07138176 0.09414940 0.06730224 0 0 0 0
0.00613925 0.03833782 -0.09911146 0 0 0 0
0.04242979 -0.01930681 -0.09893868 0 0 0 0
0.02175992 0.03459808 0.09946873 0 0 0 0
-0.01833321 0.01070493 -0.09995614 0 0 0 0
-0.02012785 0.09908183 -0.04333649 0 0 0 0
0.00580394 0.00057232 0.09976868 0 0 0 0
0.01919734 0.09991294 -0.00410912 0 0 0 0
-0.00040718 0.07065595 -0.09292077 0 0 0 0
0.09913028 -0.01427194 -0.03773932 0 0 0 0
-0.01396075 -0.01413197 -0.09993407 0 0 0 0
0.06876768 -0.06440379 0.09376248 0 0 0 0
-0.09758107 0.03024492 0.05461689 0 0 0 0
0.08889189 -0.04805200 0.07770792 0 0 0 0
-0.06676491 0.09922163 -0.03673799 0 0 0 0
-0.02992144 0.04451252 0.09864505 0 0 0 0
-0.04711568 0.09974451 0.00491261 0 0 0 0
-0.06392364 0.09506091 0.06418934 0 0 0 0
-0.03505924 0.09775276 0.05300417 0 0 0 0
0.00925434 -0.00239786 0.09976868 0 0 0 0
-0.09927028 0.09908389 -0.03547081 0 0 0 0
0.01685567 -0.01887384 -0.09958190 0 0 0 0
-0.01201473 0.00256852 -0.09975588 0 0 0 0
0.01354540 0.09534261 -0.06374741 0 0 0 0
-0.07098586 -0.09903424 -0.03929545 0 0 0 0
0.01144606 0.09286784 -0.07034139 0 0 0 0
0.09963719 -0.03748459 0.02615438 0 0 0 0
-0.00653945 -0.04439288 0.09865499 0 0 0 0
0.00599412 -0.08226232 -0.08536441 0 0 0 0
-0.09748925 -0.02891434 -0.05365556 0 0 0 0
0.08783545 0.02112289 0.07952459 0 0 0 0
-0.08928347 0.09970282 0.01316477 0 0 0 0
0.09840176 -0.03665843 0.04690822 0 0 0 0
-0.00257600 0.06436042 -0.09531412 0 0 0 0
0.06343038 0.09301578 -0.06994721 0 0 0 0
-0.07204659 -0.08602495 -0.08137973 0 0 0 0
0.00637979 -0.04851970 -0.09848339 0 0 0 0
-0.03604808 0.06899543 0.09364315 0 0 0 0
-0.09967053 -0.01931451 0.01955488 0 0 0 0
0.09533449 -0.09914647 -0.04028534 0 0 0 0
0.07742294 0.06667175 0.08922733 0 0 0 0
-0.09843324 -0.05437239 0.04661253 0 0 0 0
0.05622890 -0.08501239 -0.08255021 0 0 0 0
0.04002205 0.02508532 0.09901811 0 0 0 0
-0.00309363 -0.02548074 0.09976868 0 0 0 0
-0.04827323 -0.09967460 0.01874804 0 0 0 0
0.02974329 -0.09984662 -0.01529850 0 0 0 0
0.03799104 -0.09977396 -0.01066891 0 0 0 0
-0.09962107 -0.06801107 0.02934420 0 0 0 0
-0.09622492 0.07487461 0.06021411 0 0 0 0
0.08957823 -0.09952471 -0.02243303 0 0 0 0
-0.07409646 0.07292003 -0.09112388 0 0 0 0
0.05045488 0.09969370 0.01496808 0 0 0 0
0.02559026 0.07672472 -0.08971073 0 0 0 0
0.06907257 0.09982193 -0.01040963 0 0 0 0
-0.08492767 0.08486249 0.08273594 0 0 0 0
-0.03403477 0.08405370 -0.08395840 0 0 0 0
0.09980492 0.02191811 -0.00704596 0 0 0 0
0.00754147 0.09934869 -0.03074083 0 0 0 0
0.09508185 -0.02752785 0.06411780 0 0 0 0
-0.02555018 0.09985138 -0.01624134 0 0 0 0
0.09971283 0.04171673 -0.01355404 0 0 0 0
0.09962008 -0.01803099 -0.01793171 0 0 0 0
-0.09724111 -0.02243808 0.05674370 0 0 0 0
-0.00078799 0.09926663 -0.03461394 0 0 0 0
0.00260079 0.09829958 -0.04857498 0 0 0 0
0.09544653 -0.01431337 -0.06348802 0 0 0 0
0.00899575 -0.02867025 -0.09951966 0 0 0 0
0.06249812 -0.07960475 -0.08745027 0 0 0 0
-0.08009100 0.08055060 0.08690686 0 0 0 0
0.01410484 -0.03799561 0.09918647 0 0 0 0
0.08838245 0.08882493 -0.07768705 0 0 0 0
0.04734511 -0.04557221 -0.09838145 0 0 0 0
-0.06294560 0.04071804 -0.09575306 0 0 0 0
-0.09718926 -0.09972248 0.00927279 0 0 0 0
-0.02997655 -0.08311383 0.08446436 0 0 0 0
0.05170674 -0.09913649 -0.03763882 0 0 0 0
-0.02192024 0.02486848 0.09976868 0 0 0 0
-0.03641688 0.09649140 -0.05991182 0 0 0 0
0.01130722 0.00691640 0.09976868 0 0 0 0
-0.05247093 0.09998567 -0.00067622 0 0 0 0
0.07192507 -0.09633185 0.05984891 0 0 0 0
0.00896422 -0.00100428 -0.09968764 0 0 0 0
0.09188624 0.07357047 0.07255880 0 0 0 0
0.09913431 0.05160153 0.04002753 0 0 0 0
0.09144776 0.09979681 -0.00543876 0 0 0 0
-0.09980071 -0.09373187 -0.00621086 0 0 0 0
0.01190996 0.06813885 -0.09375791 0 0 0 0
-0.00006944 -0.06115931 0.09591178 0 0 0 0
-0.09983705 0.04732763 -0.01340343 0 0 0 0
0.09542277 0.03046694 -0.06359536 0 0 0 0
0.06249546 0.07400395 -0.09118344 0 0 0 0
0.09629954 0.02628195 -0.06111465 0 0 0 0
0.04301128 0.09986664 -0.01926026 0 0 0 0
0.09974168 -0.09802423 -0.02783242 0 0 0 0
-0.09918188 -0.09643172 -0.03861452 0 0 0 0
0.08625545 0.07450500 0.08147071 0 0 0 0
0.09631379 -0.00857459 -0.06102535 0 0 0 0
0.04481113 0.03835703 0.09862025 0 0 0 0
-0.06323034 0.09970253 0.01322097 0 0 0 0
-0.03711779 -0.09170578 -0.07269738 0 0 0 0
-0.01667911 -0.07797395 -0.08862752 0 0 0 0
0.04371832 -0.07852633 -0.08827190 0 0 0 0
-0.02967804 -0.00185340 -0.09947711 0 0 0 0
0.04142695 0.01194834 -0.09898102 0 0 0 0
-0.01606420 0.01368972 -0.09961188 0 0 0 0
-0.07419889 0.09971915 0.00993105 0 0 0 0
0.05482128 0.09965463 0.02270192 0 0 0 0
0.08760874 0.09728893 -0.05491149 0 0 0 0
0.03685893 0.07794365 -0.08864702 0 0 0 0
-0.08009176 -0.02094707 -0.08726406 0 0 0 0
-0.00559229 -0.09989363 -0.02460210 0 0 0 0
-0.09925260 -0.03956851 -0.03527628 0 0 0 0
0.06816142 -0.08636770 -0.08114125 0 0 0 0
0.08061643 -0.04172255 -0.08692627 0 0 0 0
0.01816176 0.00019194 -0.09958950 0 0 0 0
0.09969018 -0.06531281 0.01566547 0 0 0 0
0.08259311 0.09750605 0.05532153 0 0 0 0
-0.03963288 0.08148744 -0.08597259 0 0 0 0
0.04468357 0.02722269 -0.09884351 0 0 0 0
-0.02315063 0.03710828 0.09926019 0 0 0 0
-0.02921836 -0.09464221 -0.06561361 0 0 0 0
-0.01822604 0.09597845 -0.06108469 0 0 0 0
0.04755140 -0.09922927 -0.03637736 0 0 0 0
0.03252514 0.08957148 -0.07723188 0 0 0 0
-0.00591664 -0.06959558 0.09332869 0 0 0 0
0.09980936 0.09142153 -0.00899780 0 0 0 0
0.06405130 0.09996127 -0.00182815 0 0 0 0
-0.06702829 0.09982546 -0.01110962 0 0 0 0
-0.05702459 -0.09773559 -0.05211105 0 0 0 0
0.01013134 -0.09849424 0.04603958 0 0 0 0
0.04406697 -0.09976009 0.00182871 0 0 0 0
-0.04232411 -0.03371394 0.09882687 0 0 0 0
0.08723804 0.00314558 -0.07997745 0 0 0 0
-0.09983040 -0.06538814 -0.01208860 0 0 0 0
-0.05467512 -0.09868477 -0.04495837 0 0 0 0
0.09670360 -0.09724884 -0.05534468 0 0 0 0
-0.09040207 0.09987374 -0.00595910 0 0 0 0
0.05506412 0.09232779 -0.07137589 0 0 0 0
0.00439131 -0.09666108 0.05872454 0 0 0 0
0.03704634 0.09020565 -0.07588454 0 0 0 0
0.05186063 0.07902965 0.08835617 0 0 0 0
-0.08319061 0.09963857 -0.02950328 0 0 0 0
0.00915494 0.01105409 -0.09968560 0 0 0 0
-0.09961604 0.01345451 0.03034000 0 0 0 0
-0.09967612 -0.06437723 0.01844911 0 0 0 0
-0.09259428 0.03442807 -0.07107028 0 0 0 0
0.09354644 0.05314667 -0.06853329 0 0 0 0
0.04121516 0.09925748 -0.03504601 0 0 0 0
0.09069564 0.02564606 -0.07505733 0 0 0 0
0.09967129 -0.07768405 0.01940389 0 0 0 0
0.09975441 -0.02982810 0.00295252 0 0 0 0
0.06821445 -0.01367757 0.09405236 0 0 0 0
-0.00561403 0.07899016 0.08839379 0 0 0 0
-0.03742715 -0.07015112 0.09303759 0 0 0 0
0.09310444 -0.08315973 0.07046396 0 0 0 0
0.08040770 -0.09924606 -0.03558504 0 0 0 0
-0.08935166 0.08628465 0.07691728 0 0 0 0
0.00114029 0.09971996 0.00976995 0 0 0 0
-0.03332531 0.07478704 0.09060849 0 0 0 0
0.01044223 -0.09922194 0.03920440 0 0 0 0
-0.09976494 0.06501689 0.00086795 0 0 0 0
0.02148473 0.06930824 0.09347925 0 0 0 0
-0.00200468 -0.06140507 0.09584891 0 0 0 0
-0.09227532 -0.01099761 -0.07192014 0 0 0 0
0.06169020 -0.09912112 -0.03788782 0 0 0 0
-0.06870161 0.03029761 0.09379710 0 0 0 0
0.09857158 0.07430209 -0.04679241 0 0 0 0
0.02499222 0.09928844 -0.03358466 0 0 0 0
-0.09654339 -0.09235401 -0.05853213 0 0 0 0
-0.09936699 0.00983055 0.03784193 0 0 0 0
0.09968457 -0.06646685 -0.01488811 0 0 0 0
0.08135723 -0.08003648 0.08613821 0 0 0 0
0.03709674 -0.09958606 -0.03035392 0 0 0 0
0.01764382 0.08763571 -0.07951775 0 0 0 0
-0.09646858 -0.09862072 -0.04599610 0 0 0 0
-0.04707305 -0.09956732 -0.02042170 0 0 0 0
-0.01493107 -0.02161778 -0.09955262 0 0 0 0
-0.09941766 -0.03228950 0.03736607 0 0 0 0
-0.09573618 -0.09740783 -0.05416602 0 0 0 0
-0.07749673 -0.09170128 -0.07270695 0 0 0 0
-0.08863748 0.07599251 0.07814540 0 0 0 0
-0.00314923 0.00525471 -0.09983935 0 0 0 0
0.08881912 0.09921189 -0.03719808 0 0 0 0
-0.07733706 -0.07186134 -0.08923013 0 0 0 0
-0.09135936 0.03717358 0.07346482 0 0 0 0
-0.02633428 0.09806993 0.05002506 0 0 0 0
-0.00957048 -0.09286893 -0.07022619 0 0 0 0
0.07583190 -0.08256541 -0.08537883 0 0 0 0
-0.01335472 0.09939153 -0.02871856 0 0 0 0
-0.04551858 -0.09910990 -0.04201154 0 0 0 0
-0.04353807 0.08172425 -0.08578673 0 0 0 0
-0.07187459 -0.04256880 -0.09251547 0 0 0 0
0.06429568 0.08226362 -0.08572769 0 0 0 0
0.08570475 0.03349559 -0.08207319 0 0 0 0
0.08060496 0.09789489 -0.05111227 0 0 0 0
0.02146880 -0.00702658 0.09976868 0 0 0 0
0.04531784 0.09960400 0.03272222 0 0 0 0
0.05451412 0.09987386 -0.00595393 0 0 0 0
0.09566981 0.00625703 -0.06247918 0 0 0 0
-0.08266358 0.08691879 -0.08034649 0 0 0 0
-0.07983518 0.01452101 0.08758858 0 0 0 0
-0.05764944 0.09715195 0.05704818 0 0 0 0
0.08863167 -0.00697046 0.07815538 0 0 0 0
-0.00505385 0.05716336 -0.09708624 0 0 0 0
-0.01022702 -0.09608106 0.06070540 0 0 0 0
-0.05432330 -0.09983224 -0.01245244 0 0 0 0
0.09044378 -0.06568600 -0.07541137 0 0 0 0
-0.05407085 0.09964548 -0.01673285 0 0 0 0
-0.09968962 -0.01563968 0.01577727 0 0 0 0
0.01551932 0.09838685 -0.04978564 0 0 0 0
-0.02576032 -0.09973957 0.00589036 0 0 0 0
-0.04213166 0.07216860 -0.09202498 0 0 0 0
0.05687020 -0.08185939 -0.08568067 0 0 0 0
0.09910099 -0.01715112 -0.03821387 0 0 0 0
0.00585018 -0.09931118 -0.03251149 0 0 0 0
-0.09374698 0.09585603 0.06147392 0 0 0 0
0.08713364 0.08882371 -0.07768877 0 0 0 0
-0.09980626 0.07625856 -0.00914440 0 0 0 0
0.03838088 -0.03101282 0.09915446 0 0 0 0
0.09527878 -0.04085978 -0.06424595 0 0 0 0
0.04701952 -0.04222520 -0.09842440 0 0 0 0
-0.09539198 -0.01203888 0.06305867 0 0 0 0
0.06260118 -0.09944195 0.03713785 0 0 0 0
0.09982730 0.06663185 -0.01147498 0 0 0 0
0.04821364 -0.06863314 0.09383298 0 0 0 0
-0.03684748 -0.09898119 -0.04430153 0 0 0 0
-0.02277272 -0.09916920 -0.03710869 0 0 0 0
-0.00074151 0.09979398 -0.00487834 0 0 0 0
0.01371290 -0.09601288 0.06093823 0 0 0 0
0.09623002 0.09741553 0.05614802 0 0 0 0
-0.03389911 0.09977106 -0.01080579 0 0 0 0
0.09958051 0.07582090 -0.01979922 0 0 0 0
-0.01051818 -0.09850977 0.04589365 0 0 0 0
0.02354932 -0.08557216 -0.08190314 0 0 0 0
-0.09961043 -0.02797136 0.03145132 0 0 0 0
-0.05661699 0.09964968 0.02368139 0 0 0 0
0.09778001 -0.09199370 -0.05183254 0 0 0 0
-0.01558540 -0.01335056 -0.09994958 0 0 0 0
-0.02947718 -0.06895591 -0.09337831 0 0 0 0
0.02127695 -0.09961544 0.03045846 0 0 0 0
0.07552285 0.09980451 -0.00696418 0 0 0 0
0.04919462 0.02680191 -0.09835565 0 0 0 0
0.09971006 -0.09579922 0.01173115 0 0 0 0
-0.06975050 0.09815118 0.04926191 0 0 0 0
0.08433202 -0.02724588 -0.08333670 0 0 0 0
0.05629672 -0.05977288 -0.09635355 0 0 0 0
0.09687433 0.08467449 -0.05751092 0 0 0 0
-0.08411635 -0.07697479 0.08350904 0 0 0 0
0.07174145 0.03175810 -0.09220491 0 0 0 0
-0.05322253 -0.07233389 -0.09225864 0 0 0 0
0.09981155 -0.04434329 -0.00835627 0 0 0 0
0.09738658 -0.06171985 -0.05429924 0 0 0 0
0.07822707 -0.08687297 0.08088227 0 0 0 0
-0.06731993 0.09988401 -0.00547471 0 0 0 0
0.09971393 -0.03678789 0.01096560 0 0 0 0
-0.04005326 0.09845833 -0.04757965 0 0 0 0
-0.09980168 -0.04480366 -0.00640311 0 0 0 0
0.09969831 -0.05775537 -0.01423956 0 0 0 0
0.05935041 -0.08297636 0.08459536 0 0 0 0
-0.08955079 0.07510040 0.07657487 0 0 0 0
-0.05018433 -0.09324031 -0.06934896 0 0 0 0
0.04610676 0.09946244 -0.02537188 0 0 0 0
-0.09983767 0.02960033 -0.01352617 0 0 0 0
0.06964548 0.09964598 -0.02938306 0 0 0 0
0.09803904 -0.01662005 -0.05177435 0 0 0 0
0.00624148 0.08424272 0.08338863 0 0 0 0
0.06801283 -0.09984226 -0.01443393 0 0 0 0
-0.09981664 -0.02366638 -0.02661777 0 0 0 0
0.06891876 0.09985085 -0.02606343 0 0 0 0
-0.04438257 -0.09985317 -0.01659557 0 0 0 0
-0.02287159 0.07577384 -0.09045706 0 0 0 0
-0.03023881 -0.09975372 0.00309048 0 0 0 0
-0.04017925 0.09982236 -0.01049512 0 0 0 0
-0.03603122 0.02840745 -0.09939884 0 0 0 0
-0.09838652 0.00126927 -0.04979096 0 0 0 0
0.00924016 -0.00810201 -0.09968469 0 0 0 0
0.05687032 0.05667449 0.09700885 0 0 0 0
-0.07655869 0.09964580 0.02444959 0 0 0 0
0.09908029 0.07531525 -0.03854942 0 0 0 0
-0.04562269 -0.09979484 -0.00968323 0 0 0 0
-0.09984005 -0.09221625 -0.00754945 0 0 0 0
0.09229967 -0.09890873 -0.04132926 0 0 0 0
-0.09176372 0.00196567 -0.07328329 0 0 0 0
0.04818707 -0.09920998 -0.03728820 0 0 0 0
0.09989056 0.00999318 -0.02399498 0 0 0 0
-0.06249999 0.09973864 0.00607431 0 0 0 0
-0.01165955 0.07868171 -0.08817475 0 0 0 0
-0.01985065 -0.02264038 -0.09977427 0 0 0 0
-0.03432309 0.00496588 -0.09941706 0 0 0 0
-0.05478420 -0.07821150 -0.08854380 0 0 0 0
-0.06527596 -0.08286636 0.08470017 0 0 0 0
0.01423078 0.09639198 0.05964357 0 0 0 0
0.02901561 -0.03473534 -0.09941266 0 0 0 0
-0.09723829 -0.09840937 0.04683671 0 0 0 0
-0.07552545 -0.03740057 0.09022158 0 0 0 0
0.09972262 0.04570539 -0.01309171 0 0 0 0
-0.01026786 0.02381129 -0.09967373 0 0 0 0
0.00622347 0.09384435 -0.06773949 0 0 0 0
0.07322560 0.09905384 -0.04384599 0 0 0 0
0.04363681 -0.09932248 -0.03197765 0 0 0 0
0.09960848 -0.00694250 0.03183525 0 0 0 0
-0.04072577 0.02446559 -0.09901063 0 0 0 0
-0.09938774 0.03604241 -0.02889778 0 0 0 0
0.03104046 0.04435596 0.09865806 0 0 0 0
0.00780950 0.05193255 0.09802861 0 0 0 0
-0.08055030 0.09354536 -0.06853615 0 0 0 0
-0.06732468 -0.06993778 0.09314938 0 0 0 0
0.07304806 0.09638999 -0.06054763 0 0 0 0
-0.09966759 0.08890797 0.02013581 0 0 0 0
0.05646172 -0.09852347 -0.04717129 0 0 0 0
0.07146628 0.02109543 -0.09265126 0 0 0 0
-0.06673656 -0.09939124 -0.02873247 0 0 0 0
0.02593549 0.09203132 -0.07257028 0 0 0 0
0.00462014 0.00219509 0.09976868 0 0 0 0
0.09985866 -0.01297106 -0.01768231 0 0 0 0
0.00438175 0.07894102 0.08843190 0 0 0 0
0.07550275 0.04533412 0.09023347 0 0 0 0
-0.04892567 -0.09909809 -0.04256922 0 0 0 0
-0.08388682 0.06081263 -0.08408938 0 0 0 0
-0.06258068 -0.06953264 -0.09313536 0 0 0 0
-0.06645653 -0.09285349 -0.07037963 0 0 0 0
0.04891778 0.09137138 -0.07340784 0 0 0 0
-0.00067256 -0.04830531 0.09832995 0 0 0 0
0.09914320 0.02071864 -0.04043992 0 0 0 0
-0.09981012 0.05251200 -0.00807303 0 0 0 0
-0.09784500 0.03113233 0.05213785 0 0 0 0
0.07903957 0.08098055 -0.08637044 0 0 0 0
0.04665533 -0.09986842 -0.01961256 0 0 0 0
-0.01578086 0.07563936 -0.09056260 0 0 0 0
0.09999068 -0.09928799 -0.00043960 0 0 0 0
-0.01143747 -0.09926599 -0.03464422 0 0 0 0
0.03355812 -0.09399521 0.06782881 0 0 0 0
0.07666066 -0.02338217 -0.08947302 0 0 0 0
-0.09834040 -0.05433383 -0.04831909 0 0 0 0
-0.02904817 0.02036592 0.09976868 0 0 0 0
0.00378119 -0.05720406 -0.09683973 0 0 0 0
0.00623463 0.02239611 -0.09971676 0 0 0 0
0.09966306 -0.02009400 -0.02910643 0 0 0 0
-0.09981854 0.07992156 -0.00974164 0 0 0 0
-0.06487085 0.09680717 0.05822562 0 0 0 0
0.09678878 0.08068927 0.05828846 0 0 0 0
0.07086070 0.04524038 0.09266579 0 0 0 0
0.09852295 -0.01931405 -0.04717458 0 0 0 0
0.04023078 0.09974470 -0.01204981 0 0 0 0
0.09973448 0.00390825 0.00689770 0 0 0 0
0.01189853 -0.00258773 -0.09975567 0 0 0 0
0.09979845 -0.09698906 -0.00576274 0 0 0 0
-0.03492445 -0.04933858 -0.09832840 0 0 0 0
-0.03711342 0.01440235 0.09925976 0 0 0 0
0.02606659 0.00254010 0.09976868 0 0 0 0
-0.07741559 -0.02213214 -0.08898700 0 0 0 0
0.07143627 0.09959787 0.03393615 0 0 0 0
-0.08639111 -0.09938063 -0.02923382 0 0 0 0
0.07336005 0.09988152 -0.02220559 0 0 0 0
0.04388044 -0.09976534 0.00078982 0 0 0 0
-0.02715374 0.06035402 -0.09624355 0 0 0 0
-0.08737439 0.09970909 0.01192255 0 0 0 0
0.08680215 0.09187564 0.07257702 0 0 0 0
-0.02179053 0.02908947 -0.09950197 0 0 0 0
-0.04471215 -0.04843726 0.09831899 0 0 0 0
-0.09341894 0.08973946 -0.06887300 0 0 0 0
-0.03504855 0.09973197 0.00739345 0 0 0 0
-0.05140033 -0.05836806 -0.09692731 0 0 0 0
-0.09021720 0.09843434 -0.04901604 0 0 0 0
-0.09959896 -0.01064487 0.03372126 0 0 0 0
0.09976126 -0.09953699 0.00159605 0 0 0 0
-0.04899906 -0.08174297 -0.08577204 0 0 0 0
0.04037341 -0.09895038 -0.04065442 0 0 0 0
0.00761808 0.01173173 -0.09970200 0 0 0 0
-0.05603135 -0.09763850 0.05407733 0 0 0 0
0.09901790 -0.00666146 -0.04407132 0 0 0 0
-0.01175259 0.00324782 0.09976868 0 0 0 0
-0.08024243 0.05622716 0.08720051 0 0 0 0
-0.09665671 -0.09985351 -0.00691429 0 0 0 0
-0.06392582 0.01140605 -0.09515910 0 0 0 0
0.02568316 0.09984083 -0.01415221 0 0 0 0
-0.05527480 0.09968419 0.01684993 0 0 0 0
0.09922201 -0.08789376 0.03920373 0 0 0 0
0.00582970 -0.09923246 -0.03608363 0 0 0 0
-0.01001068 0.07398642 -0.09125924 0 0 0 0
0.00919458 -0.09072937 -0.07477185 0 0 0 0
-0.09716642 0.07707206 -0.05567960 0 0 0 0
-0.01625320 -0.03025050 -0.09946051 0 0 0 0
-0.07924284 -0.09180771 0.07269385 0 0 0 0
-0.00806931 -0.09947670 -0.02469929 0 0 0 0
-0.02454798 0.07920763 0.08818658 0 0 0 0
-0.06317036 -0.09992483 -0.00354814 0 0 0 0
0.09924380 0.05073052 -0.03569187 0 0 0 0
-0.07628359 0.09527268 -0.06427352 0 0 0 0
-0.08557092 -0.09828229 -0.04868346 0 0 0 0
-0.09969752 0.08644241 0.01421243 0 0 0 0
0.09965154 -0.04817666 0.02331360 0 0 0 0
-0.07708808 0.00701862 0.08940279 0 0 0 0
0.07209314 -0.09769453 0.05355110 0 0 0 0
-0.09758236 0.00386450 -0.05307183 0 0 0 0
-0.04769799 -0.09700408 -0.05645058 0 0 0 0
-0.05779392 0.09842938 -0.04909649 0 0 0 0
0.02470051 0.08620638 -0.08117001 0 0 0 0
0.06303479 -0.09966749 0.02015661 0 0 0 0
-0.05281347 0.01769964 -0.09766007 0 0 0 0
0.02244904 0.00491282 -0.09973086 0 0 0 0
-0.01458221 0.09874565 -0.04397174 0 0 0 0
-0.01162602 -0.02026799 -0.09965923 0 0 0 0
-0.00302469 0.01223963 -0.09975101 0 0 0 0
0.08909004 -0.09962558 -0.01767207 0 0 0 0
0.09957412 0.04931923 -0.03054749 0 0 0 0
0.06015117 0.03676132 0.09616965 0 0 0 0
0.09848730 -0.07132606 0.04610475 0 0 0 0
0.03021516 -0.00528354 0.09976868 0 0 0 0
-0.08125959 0.01902972 -0.08615144 0 0 0 0
-0.03137271 0.09515547 0.06386639 0 0 0 0
-0.09171428 -0.03470010 -0.07267933 0 0 0 0
0.05339503 -0.01632807 -0.09758335 0 0 0 0
-0.00867952 -0.09682237 -0.05727162 0 0 0 0
0.00367790 0.01525593 -0.09962051 0 0 0 0
0.08335806 -0.03823350 0.08423162 0 0 0 0
-0.08197807 -0.09015222 -0.07599804 0 0 0 0
-0.09931985 -0.00609759 0.03828482 0 0 0 0
0.07598801 -0.02362832 -0.09028895 0 0 0 0
-0.09401334 -0.07725277 -0.06728923 0 0 0 0
-0.00741421 -0.08825548 -0.07848754 0 0 0 0
0.09969503 0.08145768 0.01470682 0 0 0 0
-0.09890591 -0.08094181 0.04217276 0 0 0 0
-0.08472382 0.07778381 0.08293020 0 0 0 0
0.02698199 0.09924135 -0.03580756 0 0 0 0
0.09461178 -0.09915812 -0.03973529 0 0 0 0
0.09244236 -0.04963494 -0.07147507 0 0 0 0
0.09891775 0.03528579 -0.04118305 0 0 0 0
0.01041300 -0.09978671 -0.01006737 0 0 0 0
0.01166520 -0.06491113 -0.09483140 0 0 0 0
-0.09335385 0.09984381 -0.00737208 0 0 0 0
-0.08882480 -0.09883668 -0.04520753 0 0 0 0
0.04373331 0.09977456 -0.00103628 0 0 0 0
-0.02303756 -0.09619478 -0.06010722 0 0 0 0
0.08832339 -0.09967731 0.01821241 0 0 0 0
0.09876760 -0.09292703 0.04347194 0 0 0 0
0.09816600 -0.00315007 -0.05120072 0 0 0 0
0.02577250 -0.03863298 -0.09937108 0 0 0 0
-0.01429780 0.08287652 0.08469050 0 0 0 0
-0.01974929 -0.09530611 -0.06384467 0 0 0 0
0.03565991 -0.05244520 0.09798602 0 0 0 0
0.08270143 -0.06443439 0.08485733 0 0 0 0
-0.05065730 -0.08539451 0.08229109 0 0 0 0
0.09218179 0.09987228 -0.02037745 0 0 0 0
-0.05523767 0.01365264 -0.09734027 0 0 0 0
-0.03937224 0.09959455 0.03459343 0 0 0 0
-0.06644331 0.09971408 0.01093533 0 0 0 0
0.02269461 -0.02268282 0.09976868 0 0 0 0
0.07084949 -0.02893556 -0.09285639 0 0 0 0
0.01593219 0.09922190 -0.03672527 0 0 0 0
0.09799189 0.08065742 0.05075809 0 0 0 0
-0.01292655 0.07035047 -0.09302236 0 0 0 0
-0.09535325 -0.09477340 -0.06371906 0 0 0 0
0.02257331 -0.08274698 -0.08498402 0 0 0 0
-0.09203849 -0.05295129 -0.07199052 0 0 0 0
0.09885353 -0.07901829 -0.04510188 0 0 0 0
-0.07072865 0.09087907 0.07429074 0 0 0 0
0.09358485 -0.03390468 0.06923024 0 0 0 0
0.04525774 -0.01535917 -0.09865682 0 0 0 0
0.08934768 0.09044395 -0.07541114 0 0 0 0
-0.08310863 0.06150916 -0.08470017 0 0 0 0
0.04972649 0.00635816 -0.09806730 0 0 0 0
-0.07923881 -0.01778748 -0.08781320 0 0 0 0
-0.09913166 0.02102121 -0.03771702 0 0 0 0
-0.02734945 0.08849285 0.07839411 0 0 0 0
-0.09983702 0.04725447 -0.01339829 0 0 0 0
0.00899708 -0.06034617 -0.09634963 0 0 0 0
-0.01604372 -0.09603985 -0.06188963 0 0 0 0
-0.04738397 -0.09101777 0.07405222 0 0 0 0
0.00695379 -0.00675682 -0.09970909 0 0 0 0
-0.02130271 0.08989704 0.07597946 0 0 0 0
0.00851817 -0.06956121 -0.09328486 0 0 0 0
0.04655302 -0.03991016 -0.09848595 0 0 0 0
0.03794751 0.09794979 0.05115350 0 0 0 0
-0.09922467 0.09369655 -0.03620977 0 0 0 0
0.09988619 -0.00838545 -0.02313063 0 0 0 0
-0.09430782 -0.04697387 -0.06650459 0 0 0 0
0.06018015 0.08057006 -0.08695612 0 0 0 0
-0.01585579 -0.02149266 -0.09982274 0 0 0 0
-0.09969155 0.09066580 -0.01455824 0 0 0 0
0.09967371 0.09598635 0.01892541 0 0 0 0
-0.09755643 0.09558539 -0.05395491 0 0 0 0
-0.05440114 -0.05664382 -0.09694577 0 0 0 0
0.09977232 -0.03794154 -0.00059116 0 0 0 0
-0.09982590 -0.02351587 -0.00821730 0 0 0 0
-0.02226434 0.04322251 -0.09890521 0 0 0 0
0.00852151 -0.07373755 -0.09135495 0 0 0 0
0.03878896 -0.09972527 0.00872068 0 0 0 0
-0.05516863 -0.09994225 -0.00272586 0 0 0 0
-0.03117305 -0.07713093 0.08938034 0 0 0 0
0.08399945 0.08622129 -0.08134708 0 0 0 0
-0.09947128 -0.02916953 -0.02495498 0 0 0 0
-0.01331849 0.09968926 0.01584878 0 0 0 0
0.09804463 0.03328720 -0.05017347 0 0 0 0
-0.03095579 0.09963480 -0.01723698 0 0 0 0
-0.03935515 -0.09741019 -0.05461563 0 0 0 0
-0.08649117 -0.05757889 -0.08096769 0 0 0 0
-0.00420846 -0.09962373 0.02881649 0 0 0 0
-0.01703025 -0.07027096 -0.09304881 0 0 0 0
-0.09966608 0.07134030 0.02043526 0 0 0 0
0.03006429 -0.07280124 -0.09195776 0 0 0 0
0.00039334 -0.09080761 -0.07460561 0 0 0 0
0.01306392 -0.03805486 -0.09912340 0 0 0 0
-0.09969090 0.04801039 0.01552268 0 0 0 0
0.02815628 -0.02810894 -0.09954137 0 0 0 0
-0.08887501 -0.00104335 -0.07808517 0 0 0 0
0.07015501 0.00123558 -0.09287319 0 0 0 0
-0.09929039 -0.08821830 -0.03514511 0 0 0 0
-0.02081281 0.02072824 0.09976868 0 0 0 0
-0.06661585 -0.09992841 -0.00337906 0 0 0 0
0.04811107 0.08376579 -0.08418439 0 0 0 0
-0.09963265 -0.01690540 0.02705249 0 0 0 0
0.06330490 0.09971743 -0.01333691 0 0 0 0
-0.05725907 0.06035032 0.09611870 0 0 0 0
0.04690671 0.05179456 -0.09786357 0 0 0 0
-0.01841424 0.04585676 0.09853338 0 0 0 0
0.09349686 -0.07474449 -0.06889211 0 0 0 0
0.07969958 0.07214514 0.08771779 0 0 0 0
-0.04945868 0.09925504 -0.03571773 0 0 0 0
0.09934277 -0.09779887 -0.03102043 0 0 0 0
0.00090192 -0.05794127 -0.09670021 0 0 0 0
-0.05213954 0.06735899 -0.09401728 0 0 0 0
0.09975912 0.01807856 0.00202063 0 0 0 0
0.09939495 0.05926549 0.03757938 0 0 0 0
0.00816415 -0.09963685 -0.01713997 0 0 0 0
-0.09989648 0.03454419 -0.02516724 0 0 0 0
-0.09963202 -0.00492603 0.02717533 0 0 0 0
0.07169000 0.09965959 0.02172005 0 0 0 0
-0.06467570 0.09616096 -0.06026004 0 0 0 0
0.08014610 -0.02426302 -0.08722907 0 0 0 0
-0.08313210 -0.09930528 -0.03279003 0 0 0 0
-0.09970262 -0.02515116 0.01320343 0 0 0 0
-0.04591300 0.05442178 -0.09736633 0 0 0 0
0.09987514 0.00194600 -0.02094191 0 0 0 0
0.01782328 -0.08595405 -0.08172274 0 0 0 0
-0.09962816 -0.02718443 0.02794189 0 0 0 0
0.09968375 -0.07938953 0.01693676 0 0 0 0
0.03077272 -0.09861274 -0.04612530 0 0 0 0
0.07711878 -0.05957487 -0.08940144 0 0 0 0
-0.08112533 0.09968503 0.01668408 0 0 0 0
0.03175746 -0.09920742 0.03934081 0 0 0 0
0.07464048 0.09270877 -0.07056646 0 0 0 0
0.09959791 -0.01552841 0.03392921 0 0 0 0
0.09584267 -0.02145842 -0.06169817 0 0 0 0
-0.08755563 0.03803446 -0.07961032 0 0 0 0
0.08353268 0.09921037 -0.03726923 0 0 0 0
-0.01000663 -0.09985177 -0.00699610 0 0 0 0
0.08674626 -0.09970029 -0.02850299 0 0 0 0
-0.06377307 -0.01423007 -0.09556153 0 0 0 0
0.03333309 0.09653763 0.05914616 0 0 0 0
0.08666353 0.08704871 -0.08019630 0 0 0 0
-0.05227065 0.08291190 -0.08497830 0 0 0 0
-0.09971483 0.01483042 0.01078736 0 0 0 0
0.09931310 -0.07296406 -0.03242097 0 0 0 0
-0.03255209 -0.07185259 -0.09252279 0 0 0 0
0.08569278 0.08353638 0.08200686 0 0 0 0
0.06736965 0.00594345 -0.09404650 0 0 0 0
-0.02941863 -0.09968445 0.01679995 0 0 0 0
0.03250153 -0.09812078 -0.04969604 0 0 0 0
-0.06284043 0.09966440 0.02076844 0 0 0 0
-0.00985334 -0.09821349 0.04867665 0 0 0 0
-0.08519420 0.00443677 0.08248197 0 0 0 0
0.06972937 -0.09971000 0.01174223 0 0 0 0
0.09933514 0.01147672 0.03814115 0 0 0 0
0.00585859 -0.02560906 -0.09972078 0 0 0 0
-0.07421841 -0.09916614 -0.03715828 0 0 0 0
0.01095990 -0.01367461 0.09976868 0 0 0 0
0.06337114 -0.08296152 -0.08481563 0 0 0 0
0.01253335 -0.09959191 0.03511541 0 0 0 0
-0.09880932 -0.02727580 0.04308012 0 0 0 0
0.04979309 0.09934634 -0.03085187 0 0 0 0
0.00523798 -0.09987565 -0.02104435 0 0 0 0
-0.03930333 0.01773611 0.09907783 0 0 0 0
-0.03107418 0.09111331 0.07388792 0 0 0 0
0.03826131 -0.09443828 -0.06689199 0 0 0 0
0.00735953 -0.08036812 0.08708075 0 0 0 0
0.03946326 -0.02839329 -0.09906394 0 0 0 0
-0.01167765 -0.04726291 -0.09872125 0 0 0 0
-0.08526869 -0.08319598 -0.08268616 0 0 0 0
-0.01548953 -0.01939016 -0.09961801 0 0 0 0
0.01429844 0.09948787 -0.02417190 0 0 0 0
-0.07657210 0.09913921 -0.04062825 0 0 0 0
0.00392843 0.09969620 0.01447421 0 0 0 0
-0.09931631 0.06359300 -0.03472479 0 0 0 0
0.08825892 0.07350878 -0.07879734 0 0 0 0
-0.00204975 0.09046768 0.07499816 0 0 0 0
-0.00821359 -0.09668558 0.05864089 0 0 0 0
-0.09694704 0.06947459 0.05774798 0 0 0 0
-0.03155658 0.09713302 -0.05588903 0 0 0 0
0.03014473 0.02912732 0.09976868 0 0 0 0
0.09951436 -0.03333028 0.03645776 0 0 0 0
0.06376286 0.09688047 -0.05700910 0 0 0 0
0.09077191 0.09985416 -0.01678976 0 0 0 0
0.08183042 0.06078485 -0.08614470 0 0 0 0
0.09987302 -0.02620037 -0.02052293 0 0 0 0
0.09585365 -0.09925597 -0.03511721 0 0 0 0
0.02019925 -0.01698387 -0.09987734 0 0 0 0
0.08701276 0.01424365 -0.08023786 0 0 0 0
-0.03693628 -0.04610748 0.09851255 0 0 0 0
0.09926970 -0.06963591 -0.03548024 0 0 0 0
-0.05578265 -0.09989692 -0.02525408 0 0 0 0
-0.04864426 -0.09237722 -0.07127087 0 0 0 0
0.00852650 0.09338574 0.06991024 0 0 0 0
0.08880641 0.05954162 0.07785491 0 0 0 0
0.05359118 0.07781422 -0.08885561 0 0 0 0
-0.08968197 -0.00781733 -0.07699712 0 0 0 0
0.09974840 0.09538305 0.00414352 0 0 0 0
-0.08409227 -0.09968652 0.01639111 0 0 0 0
0.04433925 -0.09612343 -0.06166695 0 0 0 0
0.09391003 -0.02169053 -0.06801428 0 0 0 0
0.05096394 -0.03811523 -0.09790406 0 0 0 0
0.00342729 -0.09986509 -0.01895493 0 0 0 0
-0.02675509 0.01696766 -0.09960224 0 0 0 0
0.00035142 -0.00567222 -0.09984381 0 0 0 0
0.07272970 0.09558125 -0.06287934 0 0 0 0
-0.01238038 0.09988780 -0.02344820 0 0 0 0
-0.01143885 -0.01640129 0.09976868 0 0 0 0
0.01038439 -0.09576911 -0.06203055 0 0 0 0
-0.09962685 -0.08036621 0.02820132 0 0 0 0
0.08576510 0.05032837 0.08193795 0 0 0 0
-0.09986775 -0.07637396 -0.01947889 0 0 0 0
0.00673635 -0.02877278 0.09976868 0 0 0 0
0.07394040 0.09958918 0.03565614 0 0 0 0
0.03416257 -0.03695180 -0.09938901 0 0 0 0
0.09697628 0.07094050 -0.05687170 0 0 0 0
0.04603642 0.09482814 0.06498425 0 0 0 0
-0.02279537 -0.09888501 0.04236912 0 0 0 0
0.07196954 -0.02078319 -0.09248389 0 0 0 0
-0.09963419 0.05520785 0.02674781 0 0 0 0
-0.08029500 0.00801287 0.08715041 0 0 0 0
0.05849969 -0.08997931 -0.07636539 0 0 0 0
0.09986757 -0.03115450 -0.01944260 0 0 0 0
0.02790805 0.03548286 0.09939523 0 0 0 0
0.02274086 0.09757764 0.05464908 0 0 0 0
-0.00887953 -0.09985437 -0.00687330 0 0 0 0
0.01570950 0.09967913 -0.02884582 0 0 0 0
0.06015662 0.01057928 -0.09641267 0 0 0 0
0.04339182 -0.07100710 0.09258909 0 0 0 0
0.08495791 0.08224874 0.08270713 0 0 0 0
-0.00871528 -0.08520929 -0.08232260 0 0 0 0
-0.07297426 0.09924848 -0.03547039 0 0 0 0
0.09213612 0.09536785 0.06314109 0 0 0 0
0.06804830 0.09971213 0.01132135 0 0 0 0
0.02199839 0.08711674 0.08064997 0 0 0 0
0.08189858 -0.09910556 -0.03813985 0 0 0 0
0.09804877 -0.09965785 0.02206513 0 0 0 0
0.09925721 -0.00920902 -0.03568261 0 0 0 0
0.09737701 0.04046392 0.05627959 0 0 0 0
-0.00186326 0.06007947 0.09618799 0 0 0 0
0.03301933 0.02514396 0.09959989 0 0 0 0
-0.04874139 0.09962530 -0.01768502 0 0 0 0
0.00101525 0.09876985 0.04345084 0 0 0 0
-0.05335096 -0.03112015 -0.09758916 0 0 0 0
-0.00697621 -0.05925296 0.09639940 0 0 0 0
0.05391179 0.07767569 -0.08881954 0 0 0 0
-0.00581635 -0.02366165 0.09976868 0 0 0 0
-0.07879062 -0.08752395 -0.07951588 0 0 0 0
0.06702651 -0.09922641 -0.03618168 0 0 0 0
-0.07186291 0.03996181 0.09214066 0 0 0 0
-0.08714429 -0.09918167 -0.03862450 0 0 0 0
0.06196939 -0.09892692 -0.04103458 0 0 0 0
0.03592962 0.09409159 0.06749969 0 0 0 0
-0.06408577 0.05506521 -0.09510590 0 0 0 0
-0.07540142 0.01950704 -0.09028374 0 0 0 0
-0.01264208 0.09972002 -0.01321452 0 0 0 0
0.05901914 0.01840108 0.09645921 0 0 0 0
0.00224143 -0.09363331 0.06906474 0 0 0 0
0.05534846 0.09982719 -0.01145020 0 0 0 0
0.09979908 0.01565486 -0.00588783 0 0 0 0
0.09960878 -0.00113315 0.03177648 0 0 0 0
-0.09963349 0.08424334 0.02688626 0 0 0 0
-0.09706598 0.03563545 -0.05617091 0 0 0 0
-0.03396995 0.04365326 -0.09886848 0 0 0 0
-0.09953334 0.02969082 -0.02202547 0 0 0 0
0.03876979 -0.02291869 0.09912215 0 0 0 0
-0.05325614 0.07590329 -0.08996063 0 0 0 0
-0.07323429 0.08456241 -0.08307038 0 0 0 0
-0.02543338 0.05637162 0.09713642 0 0 0 0
-0.06290589 0.07744779 -0.08896627 0 0 0 0
0.04529383 0.09786453 0.05195431 0 0 0 0
-0.00755284 -0.01828489 0.09976868 0 0 0 0
-0.03468052 -0.08856075 -0.07844845 0 0 0 0
-0.09979029 0.07990432 -0.00989825 0 0 0 0
-0.04331247 -0.05957796 -0.09660512 0 0 0 0
-0.01616452 -0.09408605 -0.06709549 0 0 0 0
-0.08513920 0.02068781 -0.08240362 0 0 0 0
0.04352387 0.09491183 0.06469846 0 0 0 0
-0.00811009 0.08545919 -0.08241839 0 0 0 0
0.07273391 -0.06766350 -0.09200110 0 0 0 0
-0.00629146 -0.09967826 0.01802461 0 0 0 0
-0.08296542 0.09971154 0.01143715 0 0 0 0
0.02871178 0.08205604 0.08547232 0 0 0 0
0.07882947 -0.09083191 0.07437183 0 0 0 0
0.03058354 0.09058786 -0.07520884 0 0 0 0
-0.06617431 -0.05042537 -0.09441128 0 0 0 0
-0.01194989 -0.09422693 -0.06672011 0 0 0 0
-0.08955363 -0.09971291 0.01116705 0 0 0 0
-0.08601984 0.06631333 -0.08138564 0 0 0 0
0.00626197 0.09571214 0.06196532 0 0 0 0
0.08472120 0.09921452 -0.03707378 0 0 0 0
-0.09223182 -0.09975923 0.00200001 0 0 0 0
-0.09894923 -0.00633978 -0.04067298 0 0 0 0
0.09197737 -0.04511930 0.07240209 0 0 0 0
-0.06811547 0.09811206 0.04962930 0 0 0 0
-0.01465490 0.08944213 0.07676171 0 0 0 0
0.05719000 0.09062546 -0.07499259 0 0 0 0
0.09986875 0.05283707 -0.01967762 0 0 0 0
-0.03096208 0.01338821 -0.09945293 0 0 0 0
-0.00900345 -0.01395317 -0.09987935 0 0 0 0
-0.07098578 -0.09739777 0.05620868 0 0 0 0
0.01602794 0.01931611 -0.09957718 0 0 0 0
0.04385930 -0.05021124 -0.09800336 0 0 0 0
0.08383092 0.04476131 0.08378104 0 0 0 0
-0.09735657 0.09968238 0.01720994 0 0 0 0
0.06523480 0.09898782 0.04140350 0 0 0 0
0.01765428 0.00953602 -0.09968154 0 0 0 0
-0.04413927 -0.09681500 -0.05730488 0 0 0 0
0.01865079 0.09975673 0.00249296 0 0 0 0
-0.00998899 -0.09999099 -0.00042544 0 0 0 0
0.05625218 0.00919165 -0.09701990 0 0 0 0
-0.09976579 -0.02187452 -0.01105427 0 0 0 0
0.08631405 -0.07643778 -0.08104554 0 0 0 0
-0.03579824 -0.09341896 0.06979680 0 0 0 0
-0.08029767 -0.09938794 -0.03356417 0 0 0 0
0.00857058 0.09974486 -0.01204214 0 0 0 0
-0.04784188 -0.09828715 0.04798478 0 0 0 0
0.04211305 0.02734617 -0.09895205 0 0 0 0
-0.05897220 0.04733736 0.09647122 0 0 0 0
0.02867729 0.07871966 -0.08814495 0 0 0 0
0.09047268 -0.00705657 -0.07537076 0 0 0 0
-0.05067339 -0.04827577 -0.09794239 0 0 0 0
0.09748699 -0.09436330 -0.05426867 0 0 0 0
0.08942251 -0.08568648 -0.07745227 0 0 0 0
0.06920142 -0.02522185 -0.09327488 0 0 0 0
0.01878757 -0.09610377 0.06062784 0 0 0 0
-0.01095206 0.09976503 0.00085206 0 0 0 0
0.06383823 -0.07009564 -0.09289820 0 0 0 0
0.07576376 -0.09108976 -0.07400616 0 0 0 0
0.09152264 -0.07955611 -0.07389479 0 0 0 0
0.01967146 0.03712826 0.09925853 0 0 0 0
-0.06158117 -0.08098031 -0.08637063 0 0 0 0
0.02903704 -0.09976216 0.00141950 0 0 0 0
0.04697330 0.05712847 -0.09709083 0 0 0 0
0.08933578 -0.09474352 -0.06534368 0 0 0 0
-0.00298943 -0.09846135 -0.04857838 0 0 0 0
0.09978698 -0.00166764 -0.00349355 0 0 0 0
-0.03496419 -0.09801401 -0.05188740 0 0 0 0
0.03417906 0.09911314 0.04022635 0 0 0 0
-0.00032332 0.03694042 0.09927414 0 0 0 0
0.05804215 0.03539246 -0.09668111 0 0 0 0
-0.06290027 -0.06309184 -0.09572537 0 0 0 0
0.06130303 -0.02013768 0.09587502 0 0 0 0
0.09800136 -0.09955338 -0.02107991 0 0 0 0
-0.02842768 -0.00885196 -0.09947996 0 0 0 0
-0.01569851 0.01235836 -0.09991515 0 0 0 0
0.01586977 0.08734909 -0.07976168 0 0 0 0
0.09962423 0.05004608 0.02871917 0 0 0 0
-0.07370858 0.04731054 -0.09137628 0 0 0 0
-0.03198529 -0.07407944 -0.09122006 0 0 0 0
0.00193005 -0.03726199 -0.09915689 0 0 0 0
0.07022963 -0.02825078 0.09299646 0 0 0 0
-0.09356072 0.00444890 -0.06875642 0 0 0 0
0.04647090 -0.05462729 -0.09742080 0 0 0 0
-0.04963926 0.07847451 0.08867634 0 0 0 0
-0.01550249 -0.05546715 -0.09716847 0 0 0 0
0.04331163 -0.09616552 0.06041694 0 0 0 0
-0.09934524 0.00303623 -0.03090357 0 0 0 0
-0.06503471 -0.06562163 -0.09459510 0 0 0 0
0.05500031 -0.09948708 -0.03195785 0 0 0 0
0.08698305 -0.09938006 -0.02926043 0 0 0 0
-0.03103805 0.05730491 -0.09682065 0 0 0 0
-0.05631573 -0.05951583 -0.09662579 0 0 0 0
-0.00790871 -0.09662588 -0.05815939 0 0 0 0
-0.01714006 -0.08324296 -0.08459561 0 0 0 0
-0.09972811 0.00495648 0.00815754 0 0 0 0
-0.02473002 0.09944172 -0.02634986 0 0 0 0
-0.09745515 0.01249658 -0.05386934 0 0 0 0
0.09441274 0.02461876 0.06640290 0 0 0 0
-0.09935971 0.02174900 -0.03022091 0 0 0 0
0.09862655 -0.03283852 0.04479681 0 0 0 0
-0.08019394 -0.05400726 -0.08698784 0 0 0 0
-0.00022469 -0.03664526 -0.09918293 0 0 0 0
-0.09574248 -0.09980864 -0.00903198 0 0 0 0
-0.09160285 0.09391686 -0.06799978 0 0 0 0
0.04275344 0.05401215 -0.09750194 0 0 0 0
-0.09956203 -0.07150094 -0.02067159 0 0 0 0
-0.00919194 0.00539873 -0.09988137 0 0 0 0
-0.07567192 0.09971499 0.01075489 0 0 0 0
0.02569992 -0.04177276 -0.09896642 0 0 0 0
0.01167753 0.02563329 -0.09965868 0 0 0 0
-0.04698850 -0.09285052 -0.07026531 0 0 0 0
0.05499036 -0.09576456 -0.06262315 0 0 0 0
0.00442290 0.06425180 -0.09505068 0 0 0 0
0.03496701 -0.09499715 -0.06551842 0 0 0 0
0.07202026 -0.04684406 0.09205821 0 0 0 0
0.01405160 0.09967531 -0.01532463 0 0 0 0
0.00096656 0.01158916 -0.09990694 0 0 0 0
-0.08847040 -0.09888737 0.04234693 0 0 0 0
0.01249230 0.02553212 -0.09965217 0 0 0 0
-0.08730308 0.03544495 -0.07990226 0 0 0 0
-0.09846716 -0.00005670 -0.04848426 0 0 0 0
0.00951486 0.09889742 0.04225258 0 0 0 0
0.09895640 0.01374191 0.04169856 0 0 0 0
0.09980071 -0.09315653 -0.00621047 0 0 0 0
0.09208592 -0.01201301 -0.07242480 0 0 0 0
0.08194323 0.09331804 -0.06914183 0 0 0 0
0.08221705 0.09793984 -0.05083046 0 0 0 0
-0.09833462 0.09989537 -0.00493860 0 0 0 0
-0.09975456 0.08874939 -0.01158417 0 0 0 0
0.00925358 0.09032224 0.07524826 0 0 0 0
0.02413562 0.09834624 0.04742974 0 0 0 0
-0.09962320 -0.09790320 0.02892207 0 0 0 0
0.04550442 -0.09989685 -0.02523928 0 0 0 0
-0.09262259 0.05638592 0.07129256 0 0 0 0
0.00070871 -0.05143398 -0.09784205 0 0 0 0
0.09975588 0.05101709 -0.01152189 0 0 0 0
-0.02292336 0.09959775 0.03395884 0 0 0 0
-0.09743987 -0.03400851 0.05594313 0 0 0 0
0.09974696 0.06561086 -0.01194339 0 0 0 0
0.01370770 0.09974664 0.00448948 0 0 0 0
-0.01539434 0.02955506 0.09976868 0 0 0 0
-0.01392011 -0.04922123 -0.09813396 0 0 0 0
0.08169825 0.09927997 0.03865936 0 0 0 0
-0.09974907 0.09245538 0.00400906 0 0 0 0
-0.04778141 -0.04163741 -0.09862312 0 0 0 0
-0.04906571 -0.09899843 -0.03987576 0 0 0 0
0.09775364 -0.03519639 0.05299588 0 0 0 0
0.02425167 0.02744636 -0.09952452 0 0 0 0
0.05761578 -0.09670140 0.05858687 0 0 0 0
-0.07754268 -0.01177895 0.08916460 0 0 0 0
0.08940233 0.01116030 0.07683014 0 0 0 0
0.01083961 -0.01007479 -0.09967579 0 0 0 0
-0.04598220 0.00632029 0.09852295 0 0 0 0
-0.05786120 -0.01107579 -0.09671536 0 0 0 0
-0.01328169 0.02342615 -0.09974109 0 0 0 0
0.02882191 -0.09660434 -0.05920365 0 0 0 0
0.03694968 -0.01043110 0.09927337 0 0 0 0
0.06315875 0.03213808 -0.09541421 0 0 0 0
0.08012332 0.09726097 -0.05508674 0 0 0 0
-0.09939381 -0.07917024 -0.02861117 0 0 0 0
-0.00269226 0.09976198 -0.01123454 0 0 0 0
0.02897897 0.09152839 -0.07307426 0 0 0 0
0.02197066 0.07569752 -0.09051696 0 0 0 0
0.06675283 0.04348994 -0.09421888 0 0 0 0
0.04083236 -0.09932895 -0.03167293 0 0 0 0
-0.03975210 0.09722508 -0.05545207 0 0 0 0
0.07254121 0.09965899 0.02183828 0 0 0 0
-0.08465087 -0.09963693 0.02620471 0 0 0 0
0.07164654 0.09248629 0.07152694 0 0 0 0
0.02971086 0.09981125 -0.00829751 0 0 0 0
0.09149380 0.07303035 -0.07314774 0 0 0 0
0.02387494 -0.08982366 0.07610562 0 0 0 0
0.02458826 0.09964813 0.02398886 0 0 0 0
-0.03314855 0.04987767 -0.09804736 0 0 0 0
-0.09898154 -0.04682463 0.04146245 0 0 0 0
0.03571265 -0.09427296 -0.06724323 0 0 0 0
-0.09950429 0.06963824 0.03655235 0 0 0 0
0.08039379 0.09876408 -0.04367327 0 0 0 0
0.09617086 -0.07233585 0.06039874 0 0 0 0
-0.00416130 0.01110847 -0.09990181 0 0 0 0
-0.02169346 -0.09947813 -0.03210297 0 0 0 0
0.03692283 -0.08222812 -0.08539126 0 0 0 0
0.02053199 -0.09974643 0.00453271 0 0 0 0
-0.04709380 -0.05008109 0.09818242 0 0 0 0
-0.02916174 -0.09979074 -0.00423766 0 0 0 0
0.09981777 -0.00765253 -0.00958832 0 0 0 0
0.09950240 -0.07847271 -0.02348623 0 0 0 0
-0.01767308 0.07123442 -0.09272838 0 0 0 0
-0.03071494 0.01375060 0.09976868 0 0 0 0
-0.09123781 -0.04401962 0.07367384 0 0 0 0
-0.08464055 -0.09980733 -0.00752096 0 0 0 0
0.01582816 -0.02685564 0.09976868 0 0 0 0
-0.04468187 0.09986449 -0.01883466 0 0 0 0
-0.09951036 0.01393443 -0.03158072 0 0 0 0
-0.09245832 -0.01255454 0.07157505 0 0 0 0
-0.09983906 -0.06696691 -0.01380121 0 0 0 0
0.00125043 -0.00731199 -0.09986130 0 0 0 0
-0.05804448 -0.09942476 -0.02715070 0 0 0 0
0.00525757 0.01574529 0.09976868 0 0 0 0
-0.02012018 0.06734569 0.09432937 0 0 0 0
-0.01580716 -0.05371851 0.09781505 0 0 0 0
0.03700649 -0.04510889 -0.09882556 0 0 0 0
0.04212431 0.06429573 -0.09534137 0 0 0 0
-0.09967397 0.05322342 0.01887381 0 0 0 0
-0.03190129 0.09982757 -0.00813827 0 0 0 0
-0.08400678 0.08424739 -0.08380638 0 0 0 0
-0.09962558 -0.00151908 -0.01767207 0 0 0 0
-0.08434624 0.03196398 0.08328999 0 0 0 0
0.07891439 0.00029939 -0.08799212 0 0 0 0
-0.06775597 -0.07899629 0.08838796 0 0 0 0
0.08002688 -0.08858167 -0.07802902 0 0 0 0
-0.09919666 0.01956734 0.03944187 0 0 0 0
-0.09400184 0.07494672 0.06780619 0 0 0 0
-0.09286971 0.06872407 -0.07022454 0 0 0 0
0.04522920 -0.05146480 0.09806747 0 0 0 0
0.07749788 -0.07382592 0.08918807 0 0 0 0
0.06322245 0.02209900 -0.09539302 0 0 0 0
-0.09326966 -0.02729851 -0.06937481 0 0 0 0
0.07391427 0.04474201 -0.09128963 0 0 0 0
0.03162497 0.09697226 0.05766187 0 0 0 0
0.09703161 0.00827381 -0.05652479 0 0 0 0
-0.00776144 0.04568712 0.09854747 0 0 0 0
0.05909524 -0.02797886 -0.09676567 0 0 0 0
0.07081084 0.00776710 -0.09259693 0 0 0 0
0.08546738 0.09640776 -0.05914490 0 0 0 0
0.09984531 0.02870325 -0.01503893 0 0 0 0
-0.09846301 -0.04103524 0.04633298 0 0 0 0
0.04083667 0.04316754 -0.09890753 0 0 0 0
