ply
format ascii 1.0
comment https://github.com/mikedh/trimesh
element vertex 1118
property float x
property float y
property float z
property uchar red
property uchar green
property uchar blue
property uchar alpha
end_header
-0.03973045 0.07583521 -0.04190275 0 0 0 0
-0.07362700 0.02917574 -0.07761318 0 0 0 0
-0.09231951 -0.01756739 -0.00737442 0 0 0 0
-0.03343678 0.08024551 -0.04626643 0 0 0 0
0.01597648 0.03779772 0.09846874 0 0 0 0
-0.09630235 0.00933581 -0.01124084 0 0 0 0
-0.06988604 -0.02658091 -0.08396010 0 0 0 0
-0.00008076 -0.09914289 -0.00783133 0 0 0 0
0.04057642 0.07594027 -0.01320477 0 0 0 0
-0.00269535 -0.00067268 -0.09975536 0 0 0 0
-0.00578808 0.02780911 -0.09945987 0 0 0 0
-0.02055576 0.09019595 0.00274253 0 0 0 0
0.02812118 -0.01144291 -0.09941739 0 0 0 0
-0.09503798 -0.00918258 0.04653968 0 0 0 0
0.08565240 -0.02746174 0.02027562 0 0 0 0
0.00119323 0.06040637 -0.09617823 0 0 0 0
-0.03900930 -0.07713488 -0.00035162 0 0 0 0
-0.09197308 0.01615960 -0.04100570 0 0 0 0
-0.02984272 -0.08331726 -0.04319458 0 0 0 0
-0.07082387 0.04676464 -0.01775223 0 0 0 0
-0.00851703 -0.09657602 -0.01884279 0 0 0 0
-0.05088986 0.06709121 0.02291079 0 0 0 0
0.08739944 0.02282769 -0.04778039 0 0 0 0
0.04187265 0.07472192 0.02989959 0 0 0 0
-0.04585872 0.07156184 0.00741939 0 0 0 0
-0.01062540 0.01993467 -0.09962595 0 0 0 0
-0.04376944 0.00915420 -0.09831622 0 0 0 0
-0.02855184 -0.03284011 -0.09779063 0 0 0 0
-0.00167598 0.00450646 -0.09983899 0 0 0 0
-0.06372835 -0.05100183 -0.05699189 0 0 0 0
-0.04860858 0.02410300 -0.09584362 0 0 0 0
-0.01766344 -0.08985087 0.05271189 0 0 0 0
-0.05747850 -0.06086649 0.00662629 0 0 0 0
0.09296892 -0.01569184 0.00572899 0 0 0 0
0.02172804 0.08955610 0.02266424 0 0 0 0
0.08237026 -0.02777706 -0.05986984 0 0 0 0
-0.04374320 0.07322495 0.00861049 0 0 0 0
-0.07576413 0.03970868 0.04416971 0 0 0 0
-0.09359030 0.00962396 -0.05566406 0 0 0 0
-0.01877641 0.08893634 -0.05412357 0 0 0 0
0.05177627 0.06056159 0.06487108 0 0 0 0
0.03414632 -0.08097346 0.01561689 0 0 0 0
0.08533640 -0.02847609 -0.02752222 0 0 0 0
-0.00678256 0.01501876 -0.09993544 0 0 0 0
-0.01170328 -0.08899939 -0.06843355 0 0 0 0
-0.07506088 -0.04074680 -0.04173999 0 0 0 0
-0.06677283 -0.01246638 -0.09197844 0 0 0 0
0.01710274 0.04244209 -0.09781183 0 0 0 0
-0.02997151 0.07698161 0.07034526 0 0 0 0
-0.07752745 0.03782985 -0.03430124 0 0 0 0
0.04086047 -0.07556256 0.01376726 0 0 0 0
-0.03033295 0.08315875 0.04133024 0 0 0 0
-0.05708202 0.06112784 -0.03046745 0 0 0 0
0.05769276 -0.05340344 -0.06799013 0 0 0 0
-0.01963031 -0.07553689 -0.08251544 0 0 0 0
-0.05714095 -0.00799451 -0.09638052 0 0 0 0
0.09366003 -0.01073502 -0.05233407 0 0 0 0
-0.06161446 -0.05068890 0.06548939 0 0 0 0
0.00597384 0.09156463 0.06998184 0 0 0 0
0.00848435 -0.00042180 -0.09987529 0 0 0 0
0.02788714 0.08003301 -0.06555735 0 0 0 0
-0.05009507 -0.01469388 -0.09706064 0 0 0 0
0.00376688 -0.09838832 0.03086122 0 0 0 0
-0.05363518 -0.00908499 -0.09704837 0 0 0 0
0.07649828 0.01196578 -0.08631773 0 0 0 0
0.06685382 0.04698677 -0.06061495 0 0 0 0
-0.09406682 0.01153377 -0.04907660 0 0 0 0
0.00979671 -0.09641208 -0.02410838 0 0 0 0
0.06245250 -0.05591633 0.00974176 0 0 0 0
-0.01237930 0.05317240 -0.09681212 0 0 0 0
0.02016754 0.01178331 -0.09949276 0 0 0 0
-0.04295706 0.06258589 -0.07672770 0 0 0 0
-0.04670991 0.07021429 -0.04127943 0 0 0 0
0.03989176 -0.07641494 0.00100038 0 0 0 0
0.02763552 0.02215227 -0.09895807 0 0 0 0
-0.05826778 -0.01348472 -0.09524845 0 0 0 0
0.03094623 0.03295932 0.09777812 0 0 0 0
-0.00284634 -0.08225953 0.08457075 0 0 0 0
0.03028532 0.07555337 -0.07250237 0 0 0 0
-0.07059006 -0.02932381 -0.08058628 0 0 0 0
-0.06241943 -0.03720145 -0.08311812 0 0 0 0
0.02328247 -0.01738585 0.09948237 0 0 0 0
-0.02701217 0.08636333 -0.00581523 0 0 0 0
-0.00042439 -0.00069646 0.09976868 0 0 0 0
-0.09323277 -0.01479484 -0.03146596 0 0 0 0
-0.00904877 -0.09534181 -0.04719377 0 0 0 0
-0.05737606 -0.04877040 0.07657073 0 0 0 0
-0.07338865 0.02246002 0.08305399 0 0 0 0
-0.02116553 -0.08323278 -0.06905424 0 0 0 0
-0.08433323 0.00964041 -0.07914232 0 0 0 0
0.04931822 0.06495483 -0.05846882 0 0 0 0
-0.07525048 -0.04154453 -0.00724488 0 0 0 0
0.01636767 0.07581487 0.08425301 0 0 0 0
-0.06712274 -0.00259667 -0.09382311 0 0 0 0
0.08900210 0.02280770 -0.00132607 0 0 0 0
0.05241583 0.06538174 0.03385045 0 0 0 0
-0.06465806 -0.05319701 -0.01917689 0 0 0 0
0.08561759 0.02235288 -0.06039644 0 0 0 0
0.03591966 0.07780974 -0.04982773 0 0 0 0
0.02697921 -0.08066935 0.06552999 0 0 0 0
-0.01234451 0.03531843 -0.09911852 0 0 0 0
0.05383962 -0.06434727 0.03548538 0 0 0 0
-0.01516264 -0.01457784 -0.09951649 0 0 0 0
0.00361208 0.08408321 0.08252047 0 0 0 0
-0.07941312 -0.03525479 -0.03960385 0 0 0 0
-0.01910659 0.08221518 -0.07439107 0 0 0 0
-0.01796158 0.09092180 0.04129978 0 0 0 0
-0.06431583 0.05387368 0.02365639 0 0 0 0
0.06287439 -0.01186531 -0.09381203 0 0 0 0
0.07654462 -0.03937110 -0.03776215 0 0 0 0
0.00112589 0.09838082 -0.04530599 0 0 0 0
-0.00552666 0.04903966 0.09809113 0 0 0 0
0.00910684 0.06030123 0.09519602 0 0 0 0
-0.02778808 -0.06534144 -0.08693132 0 0 0 0
0.01772043 0.05180592 -0.09613125 0 0 0 0
-0.04308856 -0.02405121 0.09687021 0 0 0 0
0.04429591 -0.07288627 -0.00396089 0 0 0 0
-0.09804223 -0.00562631 -0.00221340 0 0 0 0
0.02257970 0.08766028 -0.04935709 0 0 0 0
0.04849821 -0.06441613 -0.06322224 0 0 0 0
0.06210668 -0.02682408 0.08945401 0 0 0 0
0.09656151 -0.00641191 -0.04622867 0 0 0 0
-0.08461671 -0.00712354 0.08079606 0 0 0 0
-0.07804058 0.01512994 -0.08337174 0 0 0 0
-0.05368909 -0.06377053 -0.03906420 0 0 0 0
0.05355496 -0.00928949 0.09685586 0 0 0 0
0.00109630 -0.02091071 -0.09983236 0 0 0 0
0.00812032 -0.09687843 0.00592998 0 0 0 0
-0.03937062 0.07634797 -0.04076086 0 0 0 0
0.01439332 0.00984069 0.09976868 0 0 0 0
0.08142239 0.03397060 -0.01144110 0 0 0 0
0.06193161 0.05638759 -0.00453794 0 0 0 0
-0.04752610 -0.03938213 -0.09151709 0 0 0 0
0.07027046 0.00989522 -0.09112221 0 0 0 0
-0.07772405 0.00158542 -0.08854964 0 0 0 0
0.05276772 -0.06419246 0.04354316 0 0 0 0
-0.03222788 0.08246487 -0.00492910 0 0 0 0
-0.04134748 0.07469596 -0.03681616 0 0 0 0
-0.06585345 0.04628658 -0.06559585 0 0 0 0
0.02338149 0.02469807 -0.09901699 0 0 0 0
0.00742000 0.00023505 -0.09970541 0 0 0 0
-0.03520076 -0.07971215 -0.03238198 0 0 0 0
0.00106533 0.09818090 -0.04890242 0 0 0 0
0.00595937 -0.09156512 0.07000525 0 0 0 0
0.06378250 -0.02960374 -0.08704577 0 0 0 0
0.05122656 -0.06387286 -0.05474018 0 0 0 0
-0.06518196 -0.05200849 -0.03874808 0 0 0 0
-0.02912536 -0.08455782 -0.00435022 0 0 0 0
0.09721072 -0.00751634 0.01632334 0 0 0 0
-0.05436210 0.02768229 -0.09275061 0 0 0 0
-0.03634521 -0.03875133 0.09536507 0 0 0 0
-0.02044982 -0.07873677 -0.07851081 0 0 0 0
-0.07458438 0.02818353 0.07630913 0 0 0 0
-0.04166291 -0.00440029 -0.09890721 0 0 0 0
0.02657199 0.08458663 -0.04964555 0 0 0 0
0.04587326 0.01775455 -0.09731087 0 0 0 0
0.09457208 0.01290657 -0.00962539 0 0 0 0
-0.05391103 0.06419776 -0.00010509 0 0 0 0
-0.08334407 0.03075208 -0.02112752 0 0 0 0
-0.06445402 0.04616600 -0.06794200 0 0 0 0
0.09927808 0.00101666 0.01881140 0 0 0 0
-0.01752225 0.03015477 0.09896292 0 0 0 0
-0.01849904 0.08866479 -0.05657106 0 0 0 0
0.03028879 -0.08108371 -0.05523080 0 0 0 0
0.04733386 -0.07007733 0.03290845 0 0 0 0
-0.03049774 0.08361288 0.00315458 0 0 0 0
-0.04198186 -0.07462560 0.03024440 0 0 0 0
-0.00235951 0.05969818 -0.09630277 0 0 0 0
-0.03619283 0.06195225 -0.08420481 0 0 0 0
-0.05108164 -0.01660292 -0.09664626 0 0 0 0
-0.01224324 -0.03756548 -0.09884639 0 0 0 0
0.06173350 0.05651100 0.00750702 0 0 0 0
-0.03381094 -0.06299527 0.08473720 0 0 0 0
0.08378939 -0.02694261 0.05440500 0 0 0 0
0.02130191 0.08974819 0.00589539 0 0 0 0
-0.04948134 -0.06756844 -0.04248561 0 0 0 0
-0.04155790 -0.07538705 -0.01233426 0 0 0 0
0.04633705 0.07116139 0.01000851 0 0 0 0
0.07864496 -0.03627112 -0.03877968 0 0 0 0
0.07397071 -0.04288957 -0.00129746 0 0 0 0
-0.07659464 -0.03520050 -0.06097692 0 0 0 0
-0.01768684 -0.03175057 -0.09894638 0 0 0 0
-0.05340747 0.06077271 0.05973849 0 0 0 0
0.09017599 0.02074392 -0.01356464 0 0 0 0
-0.04396177 -0.07198760 -0.04712902 0 0 0 0
-0.07867166 0.02805965 -0.06892480 0 0 0 0
0.01516494 -0.07850282 -0.08266653 0 0 0 0
-0.04421289 0.00353918 -0.09862822 0 0 0 0
-0.07707345 -0.03915444 -0.02117115 0 0 0 0
0.06960838 -0.04751886 -0.03315454 0 0 0 0
0.04237657 0.06671177 -0.07048213 0 0 0 0
0.09808545 -0.00516469 -0.01433091 0 0 0 0
0.06429283 0.05354892 -0.02039150 0 0 0 0
-0.01721104 -0.09245226 -0.00235448 0 0 0 0
0.01664798 -0.09052377 -0.05339904 0 0 0 0
0.00163965 0.02110459 -0.09955196 0 0 0 0
0.00996540 -0.06458038 -0.09345549 0 0 0 0
-0.09592360 -0.00886304 -0.03655045 0 0 0 0
-0.03643613 0.07473865 0.06213596 0 0 0 0
0.09750886 0.00732626 -0.00366382 0 0 0 0
-0.02083872 -0.07922234 -0.07767881 0 0 0 0
0.01354510 0.09410332 0.01051036 0 0 0 0
-0.01144461 0.06337614 -0.09367311 0 0 0 0
-0.09733924 0.00356043 -0.04775508 0 0 0 0
-0.07628568 0.02268196 0.08003211 0 0 0 0
-0.09553571 0.01106062 -0.00522548 0 0 0 0
0.03243329 0.08036619 -0.05051990 0 0 0 0
-0.08098935 0.03419917 -0.00636917 0 0 0 0
-0.05624004 0.04916955 0.07750089 0 0 0 0
-0.02345051 -0.07948144 0.07420888 0 0 0 0
-0.04148776 -0.05467522 0.08610315 0 0 0 0
-0.06511389 0.00149090 -0.09483794 0 0 0 0
-0.05712699 0.04174472 -0.08410374 0 0 0 0
0.07114670 -0.03335998 -0.07633305 0 0 0 0
-0.03944827 0.05713505 0.08578487 0 0 0 0
-0.09719525 0.00773134 -0.00001244 0 0 0 0
-0.00049161 -0.00799109 -0.09969975 0 0 0 0
-0.04778578 -0.03016708 -0.09436899 0 0 0 0
-0.03034795 -0.08327453 -0.03371699 0 0 0 0
-0.02708120 -0.07214417 -0.08115889 0 0 0 0
0.02304028 0.06190413 -0.09107126 0 0 0 0
-0.02910620 0.05600104 0.09158786 0 0 0 0
0.04548751 0.05052851 0.08662381 0 0 0 0
-0.08714171 0.02545479 -0.01403725 0 0 0 0
0.06540581 -0.05269550 -0.00360604 0 0 0 0
-0.02324323 -0.04616519 0.09633426 0 0 0 0
0.01793436 -0.07508122 -0.08438985 0 0 0 0
-0.04086155 -0.07491427 -0.04148662 0 0 0 0
0.02462737 0.08792993 -0.01435690 0 0 0 0
-0.00628443 0.06550534 -0.09389316 0 0 0 0
0.06361316 0.02735881 -0.08810944 0 0 0 0
-0.07247777 -0.01546053 0.08799307 0 0 0 0
-0.05050390 -0.06708567 -0.03182095 0 0 0 0
-0.00740911 -0.09387284 -0.05931047 0 0 0 0
-0.05848419 0.05977528 -0.00368406 0 0 0 0
-0.00640781 0.01693999 0.09976868 0 0 0 0
-0.05415527 0.05879176 -0.06378574 0 0 0 0
0.09546314 -0.01081181 -0.02852756 0 0 0 0
-0.01198526 -0.09360130 0.04764379 0 0 0 0
-0.04946924 0.06763724 0.03985893 0 0 0 0
0.00821431 -0.09467702 0.05466877 0 0 0 0
0.08844017 -0.02086144 -0.05000824 0 0 0 0
-0.00589793 -0.08509681 -0.08032884 0 0 0 0
0.02171377 -0.08847786 -0.04528836 0 0 0 0
0.08131205 0.03236412 0.04286040 0 0 0 0
0.03740008 0.02226531 -0.09803519 0 0 0 0
0.01609182 -0.09137046 -0.05053094 0 0 0 0
-0.08330373 0.01266743 0.07848555 0 0 0 0
0.03071351 -0.07077545 -0.07924175 0 0 0 0
0.07523455 0.04145384 -0.00783386 0 0 0 0
0.09221818 0.00789684 0.06501321 0 0 0 0
0.00138288 0.00108128 -0.09978934 0 0 0 0
0.05708347 0.06135024 0.00119138 0 0 0 0
-0.07063219 -0.03697560 0.07239995 0 0 0 0
0.05497359 -0.06224310 -0.04509221 0 0 0 0
-0.06585186 0.04519678 0.06729652 0 0 0 0
-0.03956807 0.02246488 0.09794413 0 0 0 0
-0.03394485 -0.00092602 -0.09928407 0 0 0 0
-0.02574301 0.07193828 0.08215574 0 0 0 0
0.03344226 -0.06795043 -0.08003001 0 0 0 0
-0.02238232 -0.08889390 0.02611971 0 0 0 0
-0.08326437 -0.01075391 0.08000605 0 0 0 0
0.06903342 -0.01978873 -0.08804782 0 0 0 0
0.05827552 -0.03598661 -0.08696766 0 0 0 0
0.00402670 -0.09631971 -0.05250040 0 0 0 0
0.08845805 -0.02326709 0.00744128 0 0 0 0
0.03797662 -0.07760563 -0.02880769 0 0 0 0
-0.03893951 0.03963492 0.09463098 0 0 0 0
-0.00010150 0.00173754 0.09976868 0 0 0 0
-0.05795117 -0.06014388 0.02256984 0 0 0 0
-0.08020623 -0.03132954 -0.05572399 0 0 0 0
0.06835414 0.03855522 0.07358842 0 0 0 0
0.06857660 0.04708074 0.05014392 0 0 0 0
0.07468905 -0.04203932 -0.00269666 0 0 0 0
0.06850096 -0.04753297 -0.04768230 0 0 0 0
-0.01076659 -0.09458470 -0.04723969 0 0 0 0
-0.02077903 0.07549628 0.08205801 0 0 0 0
-0.04742034 -0.00919577 0.09807549 0 0 0 0
-0.08082893 0.01254408 -0.08161385 0 0 0 0
0.02950270 0.07479448 0.07443435 0 0 0 0
0.08651476 -0.00087101 0.08064432 0 0 0 0
0.05121554 -0.00011149 -0.09792279 0 0 0 0
0.03288605 -0.00115347 -0.09932561 0 0 0 0
0.05050138 -0.02694611 0.09463318 0 0 0 0
0.00509018 -0.07109748 -0.09171470 0 0 0 0
-0.05383590 0.02992497 -0.09259437 0 0 0 0
-0.02292729 -0.05519534 -0.09390932 0 0 0 0
-0.05774854 -0.06047273 -0.01815184 0 0 0 0
0.03315043 -0.08036648 0.04697687 0 0 0 0
0.09480111 -0.00680220 -0.05645981 0 0 0 0
-0.02068339 -0.07541297 -0.08199061 0 0 0 0
0.01497828 0.08720400 -0.06828883 0 0 0 0
-0.08911136 0.02249618 0.03178184 0 0 0 0
0.07703002 -0.03149744 0.06701463 0 0 0 0
-0.08869913 0.02111911 0.04430212 0 0 0 0
0.05281677 0.06452108 -0.04339691 0 0 0 0
0.05435759 0.03438215 -0.09035826 0 0 0 0
-0.03023661 0.08390617 -0.01484169 0 0 0 0
0.01312808 0.00078026 0.09976868 0 0 0 0
0.00341079 0.08409020 -0.08234721 0 0 0 0
0.03530578 -0.04254584 -0.09459531 0 0 0 0
-0.00749878 0.09029636 -0.07015660 0 0 0 0
-0.06476817 0.05351155 -0.01319525 0 0 0 0
-0.03067887 -0.05621061 0.09082386 0 0 0 0
-0.07831321 -0.03758758 0.01460510 0 0 0 0
-0.03921377 0.05369436 -0.08816151 0 0 0 0
-0.04289304 0.06803291 -0.06672592 0 0 0 0
0.02325988 -0.02555603 -0.09899049 0 0 0 0
0.04584878 -0.07122888 -0.02743826 0 0 0 0
0.02365372 -0.08799499 0.03795213 0 0 0 0
-0.05468937 0.02726149 -0.09281932 0 0 0 0
0.03871397 -0.07671767 -0.04356971 0 0 0 0
-0.06736840 -0.05057741 0.03062500 0 0 0 0
-0.02532743 -0.05712152 0.09246483 0 0 0 0
-0.08350439 -0.02848796 0.05007880 0 0 0 0
0.05502253 -0.05219875 -0.07535741 0 0 0 0
0.00540250 0.09671774 -0.04811532 0 0 0 0
-0.01341802 -0.06893093 0.09058271 0 0 0 0
-0.01547692 -0.09189577 -0.04719698 0 0 0 0
0.08560164 0.02335223 -0.05626052 0 0 0 0
-0.01573412 -0.09006923 -0.05688899 0 0 0 0
-0.02868415 -0.08090746 -0.06186467 0 0 0 0
0.01359647 0.09312980 -0.04612774 0 0 0 0
0.07589956 -0.04074964 -0.02071061 0 0 0 0
-0.00850277 -0.09674272 0.00487255 0 0 0 0
0.03583539 -0.07961018 0.01552695 0 0 0 0
0.02079605 -0.02650087 0.09901940 0 0 0 0
0.00085421 0.03012306 -0.09944946 0 0 0 0
-0.03025204 0.08369423 -0.02534916 0 0 0 0
0.03860157 -0.07739767 -0.02834397 0 0 0 0
-0.08817823 -0.01503937 0.06610559 0 0 0 0
-0.01361138 -0.05941448 0.09473713 0 0 0 0
0.00961186 0.08645691 -0.07615115 0 0 0 0
-0.02301801 0.01666006 0.09955326 0 0 0 0
-0.06956068 0.04824526 -0.00251965 0 0 0 0
-0.00405509 -0.01144971 -0.09992813 0 0 0 0
0.06797417 0.00214854 0.09381331 0 0 0 0
-0.06482444 0.05324388 -0.00130175 0 0 0 0
-0.03817412 -0.07777766 0.01576305 0 0 0 0
-0.03569566 -0.07364459 -0.06759317 0 0 0 0
-0.06099442 -0.05756774 -0.02793473 0 0 0 0
0.01951379 0.09088798 -0.01456623 0 0 0 0
0.09196361 0.00905536 -0.06371878 0 0 0 0
-0.09905125 0.00008902 0.03124125 0 0 0 0
0.06708413 -0.04443387 -0.06627454 0 0 0 0
0.08177690 0.03123238 0.04521389 0 0 0 0
-0.02461877 -0.08790846 -0.00924264 0 0 0 0
0.08876436 -0.01966496 -0.05219518 0 0 0 0
-0.00381281 -0.03786314 -0.09907023 0 0 0 0
-0.04504748 0.07241745 -0.00695280 0 0 0 0
-0.06072951 -0.05270417 -0.06253780 0 0 0 0
-0.03967690 -0.07105073 0.06549615 0 0 0 0
0.03460826 0.01221065 0.09894231 0 0 0 0
-0.04503275 0.00455562 -0.09846280 0 0 0 0
0.08039276 0.00634798 0.08491097 0 0 0 0
-0.04179649 0.07405957 0.04162500 0 0 0 0
-0.09826625 0.00314874 -0.03400488 0 0 0 0
-0.04419707 0.07303228 0.02251042 0 0 0 0
-0.01323434 0.00459885 0.09976868 0 0 0 0
0.04904582 -0.05448828 -0.07986242 0 0 0 0
-0.01672031 0.02983189 -0.09935971 0 0 0 0
0.05341111 -0.05074759 -0.07903782 0 0 0 0
-0.02818214 -0.07038157 -0.08179171 0 0 0 0
0.07084062 -0.04364856 0.05530099 0 0 0 0
0.09598145 0.00960732 -0.03087228 0 0 0 0
-0.02263390 -0.08689974 0.05326492 0 0 0 0
-0.03628056 0.06789563 -0.07729516 0 0 0 0
-0.08480899 -0.02875552 0.00561667 0 0 0 0
-0.04781623 0.02730940 -0.09542224 0 0 0 0
-0.07552771 0.04141597 -0.01158603 0 0 0 0
-0.06485751 -0.04673237 0.06639989 0 0 0 0
-0.05664270 0.05873613 -0.05558671 0 0 0 0
0.02178454 -0.08967977 -0.00804555 0 0 0 0
0.05805619 -0.06004459 0.02188417 0 0 0 0
-0.02668095 0.06096137 -0.09039204 0 0 0 0
0.07274254 0.04445013 0.00151765 0 0 0 0
0.03602526 -0.03287829 -0.09666735 0 0 0 0
0.05500263 -0.03730564 -0.08847301 0 0 0 0
0.03222677 -0.07698138 -0.06564691 0 0 0 0
-0.02734013 -0.08583353 -0.02994348 0 0 0 0
-0.04430097 0.07331539 -0.00059334 0 0 0 0
-0.02596300 0.08469091 0.05232497 0 0 0 0
-0.00683493 -0.09709262 0.03888705 0 0 0 0
-0.00286947 0.01002945 -0.09990549 0 0 0 0
0.04483517 0.05317550 -0.08512621 0 0 0 0
0.04019843 -0.07348219 0.05654892 0 0 0 0
-0.00495761 0.09831587 -0.01728738 0 0 0 0
-0.06187238 -0.04388552 -0.07732677 0 0 0 0
-0.04481224 0.05888204 -0.07947416 0 0 0 0
0.08528623 -0.02774327 -0.02296952 0 0 0 0
-0.06280808 -0.00180495 0.09533794 0 0 0 0
0.04988933 0.06788506 -0.02849237 0 0 0 0
0.03438124 0.07932805 0.04736214 0 0 0 0
-0.07869234 -0.02405100 -0.07485898 0 0 0 0
-0.03671510 0.07887888 0.01934719 0 0 0 0
0.06100052 0.00745270 -0.09519447 0 0 0 0
0.09163193 -0.01821007 -0.00792982 0 0 0 0
-0.03056999 0.08193164 0.04852283 0 0 0 0
0.01168247 -0.01108488 -0.09958022 0 0 0 0
0.06452648 0.05249811 -0.04138939 0 0 0 0
0.02112900 -0.08095102 -0.07405943 0 0 0 0
-0.04188727 -0.04647210 -0.09108432 0 0 0 0
-0.01836401 0.02065704 0.09960774 0 0 0 0
0.08623341 0.02708446 -0.00800600 0 0 0 0
-0.07076456 0.03522504 -0.07410552 0 0 0 0
0.09921804 0.00055085 -0.02834228 0 0 0 0
0.08515507 0.02743225 -0.03698274 0 0 0 0
-0.08271866 -0.03160764 0.03535268 0 0 0 0
-0.07218605 0.03494207 0.07226494 0 0 0 0
-0.05199113 -0.01154595 -0.09682782 0 0 0 0
-0.08239685 0.03116278 -0.04152627 0 0 0 0
0.04807498 0.06879903 -0.04247757 0 0 0 0
0.02815354 0.08537550 0.00288856 0 0 0 0
0.03061407 0.07080321 -0.07928170 0 0 0 0
-0.05062104 0.06329532 -0.06097819 0 0 0 0
0.08449516 0.02926528 0.00068330 0 0 0 0
0.02430568 0.08773348 0.02850407 0 0 0 0
-0.05798374 0.04217914 0.08279230 0 0 0 0
0.04725910 0.00637657 0.09820209 0 0 0 0
-0.06292482 -0.05516263 -0.03042354 0 0 0 0
-0.03298075 0.08208368 -0.01512844 0 0 0 0
-0.00582694 -0.01906473 0.09976868 0 0 0 0
0.02183291 0.08946903 0.02533485 0 0 0 0
-0.09363976 -0.01460579 -0.00914725 0 0 0 0
0.00934862 -0.09366894 0.05703626 0 0 0 0
0.07930941 -0.02980333 0.06393464 0 0 0 0
-0.01365094 -0.09435720 -0.00862826 0 0 0 0
-0.02844536 0.00781525 -0.09936800 0 0 0 0
0.07560867 0.03490868 0.06348460 0 0 0 0
0.01663626 0.09093572 0.05002363 0 0 0 0
-0.05434781 -0.02417618 -0.09384312 0 0 0 0
-0.07487257 -0.04060221 -0.04534579 0 0 0 0
0.06950490 -0.04788307 0.03151721 0 0 0 0
-0.04373128 0.06569536 -0.07011243 0 0 0 0
0.05890306 0.05940060 -0.01871424 0 0 0 0
-0.04829479 -0.06356127 -0.06680462 0 0 0 0
-0.01461765 -0.09399668 -0.02253837 0 0 0 0
-0.00750913 0.09416763 -0.05793263 0 0 0 0
-0.05756549 -0.06011301 -0.03958084 0 0 0 0
0.00388962 -0.00021986 0.09976868 0 0 0 0
0.00574643 -0.08953897 0.07362038 0 0 0 0
0.03712436 0.07850094 0.02788342 0 0 0 0
0.02659967 0.05659436 -0.09222091 0 0 0 0
-0.02699744 0.03087702 0.09828478 0 0 0 0
-0.02796278 -0.08563692 -0.01900185 0 0 0 0
-0.04467758 -0.06704679 -0.06518431 0 0 0 0
-0.08872287 -0.01388628 -0.06654871 0 0 0 0
0.05940753 0.05779243 -0.04667197 0 0 0 0
-0.01154920 -0.02643912 0.09961656 0 0 0 0
-0.03280120 0.07237212 -0.07463632 0 0 0 0
0.01013089 -0.09572859 -0.01959720 0 0 0 0
-0.00757327 -0.01726233 -0.09955563 0 0 0 0
-0.04401620 0.07340118 -0.01248962 0 0 0 0
0.00144485 -0.00500445 0.09976868 0 0 0 0
-0.01504022 -0.09380720 -0.02234599 0 0 0 0
0.02864609 0.06293558 -0.08804058 0 0 0 0
0.07508631 -0.04125500 -0.03096504 0 0 0 0
0.00862349 0.07070721 -0.09121830 0 0 0 0
-0.05691472 -0.06066658 -0.04223060 0 0 0 0
-0.00095757 -0.08239464 -0.08480971 0 0 0 0
0.03877879 0.07722034 0.01794698 0 0 0 0
0.01617500 -0.09281181 -0.01045920 0 0 0 0
-0.04112628 -0.06646208 -0.07403652 0 0 0 0
0.03560741 -0.07962526 0.03072877 0 0 0 0
-0.08934666 0.01680305 -0.05987087 0 0 0 0
0.06463742 -0.03631999 0.08150123 0 0 0 0
0.04404409 0.07343224 -0.02233203 0 0 0 0
-0.03461992 -0.05782701 -0.08822183 0 0 0 0
0.01886012 -0.01519906 -0.09951466 0 0 0 0
0.06556565 -0.05245925 0.00538662 0 0 0 0
0.02005837 0.09054748 -0.00859404 0 0 0 0
-0.01047150 0.04219716 -0.09841245 0 0 0 0
0.08798041 -0.02375664 -0.03140195 0 0 0 0
0.07772505 0.02569100 -0.07426245 0 0 0 0
-0.01183972 -0.09492027 0.02250189 0 0 0 0
0.06629802 -0.04431184 0.06884269 0 0 0 0
0.00914644 0.09512786 0.04721482 0 0 0 0
0.04736609 -0.06776306 -0.05361075 0 0 0 0
-0.02414290 -0.06511781 -0.08873861 0 0 0 0
-0.02913082 -0.08433272 -0.01979584 0 0 0 0
-0.00127645 -0.09862970 -0.03470878 0 0 0 0
-0.00890552 -0.05144822 -0.09722424 0 0 0 0
0.02388027 0.04304186 -0.09707615 0 0 0 0
-0.07795098 0.00005896 0.08894048 0 0 0 0
-0.02867142 0.00796274 -0.09935395 0 0 0 0
0.08888970 0.02202057 -0.04080579 0 0 0 0
-0.07703324 0.03892819 0.03176444 0 0 0 0
-0.09170391 0.00000014 -0.07162561 0 0 0 0
-0.04549183 -0.06776957 -0.06109205 0 0 0 0
0.05808975 -0.04295906 -0.08189328 0 0 0 0
0.06803721 0.02659057 -0.08563554 0 0 0 0
0.01080508 -0.09565101 -0.02606399 0 0 0 0
0.06425913 -0.04659129 -0.06795675 0 0 0 0
0.07870751 -0.03190784 -0.06176518 0 0 0 0
0.02523425 -0.02804806 -0.09869413 0 0 0 0
0.02810880 -0.02801603 0.09841828 0 0 0 0
0.02695853 -0.08606589 0.00881175 0 0 0 0
-0.07232830 -0.04339606 -0.04699962 0 0 0 0
0.00900339 -0.07509732 -0.08821517 0 0 0 0
-0.06134146 0.04959583 -0.06883849 0 0 0 0
-0.02104836 -0.09010716 0.00784430 0 0 0 0
-0.04857143 -0.06896567 -0.02934315 0 0 0 0
0.04233378 0.06825949 -0.06740145 0 0 0 0
-0.01562985 0.09345789 -0.02310050 0 0 0 0
-0.04245300 0.04636077 -0.09084857 0 0 0 0
-0.09790519 0.00229937 0.04326613 0 0 0 0
0.06556781 0.02769296 -0.08647034 0 0 0 0
-0.04468637 0.02897501 -0.09559910 0 0 0 0
0.03679901 -0.00707561 0.09903456 0 0 0 0
-0.00640728 0.09766334 -0.00508748 0 0 0 0
0.01927532 -0.07318012 -0.08514041 0 0 0 0
0.02269899 -0.03476824 0.09829030 0 0 0 0
-0.02758597 0.06944026 -0.08321968 0 0 0 0
-0.07537377 0.03498843 -0.06439421 0 0 0 0
-0.06786518 0.01005934 0.09203829 0 0 0 0
0.00499489 0.08185602 -0.08432559 0 0 0 0
-0.05576751 0.06263535 0.01675663 0 0 0 0
0.01635661 0.09246783 0.03297627 0 0 0 0
0.01806539 -0.09123360 -0.03690130 0 0 0 0
0.07936575 0.01172844 -0.08384867 0 0 0 0
0.04158531 -0.06353495 -0.07767493 0 0 0 0
0.02315516 -0.00911648 -0.09948376 0 0 0 0
0.02598358 0.01452245 0.09947182 0 0 0 0
0.02038385 0.04228856 -0.09751136 0 0 0 0
0.04179239 0.06911143 -0.06722899 0 0 0 0
-0.01881528 0.09119879 -0.02905389 0 0 0 0
-0.05623932 -0.05715547 0.06273966 0 0 0 0
0.08209186 -0.02298614 -0.06902383 0 0 0 0
-0.06514711 -0.03118792 -0.08489276 0 0 0 0
0.04911312 -0.05480603 -0.07942235 0 0 0 0
0.05416263 0.03001242 0.09206851 0 0 0 0
0.08254091 0.01251192 0.07973744 0 0 0 0
-0.07659291 -0.03386572 -0.06336949 0 0 0 0
-0.05945139 0.05398437 0.06259917 0 0 0 0
-0.05701166 0.03541892 -0.08816366 0 0 0 0
-0.01303798 -0.03152033 -0.09909964 0 0 0 0
0.04255911 -0.06077167 0.07993393 0 0 0 0
-0.01872702 0.04700385 -0.09708263 0 0 0 0
-0.04653860 -0.06237435 -0.07207219 0 0 0 0
0.05077918 -0.04187493 -0.08847792 0 0 0 0
0.07564193 0.04085489 -0.02432945 0 0 0 0
-0.00643782 -0.08908819 -0.07440808 0 0 0 0
0.02592028 0.08274408 -0.06124461 0 0 0 0
0.04011268 -0.05957954 -0.08363492 0 0 0 0
-0.05568723 -0.06190012 -0.03520878 0 0 0 0
0.00565058 -0.04171873 -0.09882798 0 0 0 0
-0.07911353 0.03695549 -0.00270196 0 0 0 0
-0.02806907 -0.08139566 0.06108985 0 0 0 0
-0.07355468 0.04343176 0.01865754 0 0 0 0
-0.01513559 0.08718956 0.06882381 0 0 0 0
-0.09009044 -0.01006485 -0.06767070 0 0 0 0
-0.05733877 -0.05015750 -0.07467752 0 0 0 0
-0.07595357 -0.02468803 -0.07793941 0 0 0 0
0.03085734 -0.07552683 -0.07175215 0 0 0 0
0.01111166 -0.09375143 0.04987995 0 0 0 0
0.03021080 -0.08043148 0.06000399 0 0 0 0
0.02956562 0.08446504 -0.00026678 0 0 0 0
0.00803166 0.03980467 -0.09889989 0 0 0 0
0.03159989 0.08230187 -0.03949108 0 0 0 0
0.00146115 -0.09931031 0.01074456 0 0 0 0
-0.02676296 -0.01163277 -0.09932726 0 0 0 0
0.00164679 0.09723055 0.05154222 0 0 0 0
-0.03007033 -0.00323918 0.09974064 0 0 0 0
0.05226673 -0.06425442 -0.04737603 0 0 0 0
0.06364140 -0.05473783 -0.01415549 0 0 0 0
0.08452161 -0.02926244 -0.01180094 0 0 0 0
0.07767659 0.03721051 -0.04043618 0 0 0 0
-0.06127254 0.05581405 -0.04269642 0 0 0 0
-0.06530315 -0.05226453 -0.03810603 0 0 0 0
-0.00630902 0.04104429 -0.09886281 0 0 0 0
0.02795135 0.07225315 0.08040342 0 0 0 0
0.09272835 0.00586779 0.06511506 0 0 0 0
0.07103677 -0.04664417 0.01202846 0 0 0 0
0.07102474 -0.00927593 -0.09069446 0 0 0 0
0.09107207 0.01897193 0.02553355 0 0 0 0
0.02036910 -0.08772916 -0.05538722 0 0 0 0
0.01046123 -0.05612408 -0.09621330 0 0 0 0
-0.01253321 -0.09487265 -0.01194062 0 0 0 0
0.05950295 0.05217841 -0.06684596 0 0 0 0
-0.07425486 0.04083319 -0.04839598 0 0 0 0
-0.09327678 0.01080143 -0.05412472 0 0 0 0
0.09107909 -0.01155028 0.06214855 0 0 0 0
-0.00604595 -0.09789672 -0.02809788 0 0 0 0
-0.03875548 0.07763447 -0.00167040 0 0 0 0
-0.04704285 0.07044832 0.01515926 0 0 0 0
0.00309153 0.09886286 -0.01967741 0 0 0 0
-0.03108290 -0.08341880 0.01200371 0 0 0 0
-0.09913070 -0.00190775 0.00200773 0 0 0 0
-0.01554267 0.09272800 -0.02845980 0 0 0 0
0.00811340 0.01447080 0.09976868 0 0 0 0
-0.03692546 -0.07294460 0.06719285 0 0 0 0
0.05181151 -0.06033204 0.06546025 0 0 0 0
0.06091332 0.05686371 -0.02936019 0 0 0 0
0.02029859 -0.00255628 0.09976868 0 0 0 0
0.04461620 -0.06868432 -0.06022989 0 0 0 0
0.01555738 0.06704957 0.09085726 0 0 0 0
-0.04558940 -0.07022338 -0.05049878 0 0 0 0
-0.05753139 -0.03532594 -0.08794384 0 0 0 0
0.02502261 0.02230874 -0.09904638 0 0 0 0
0.08264725 0.03152395 0.03283010 0 0 0 0
0.03384733 0.02557256 0.09816468 0 0 0 0
0.06726788 -0.04312593 0.06827275 0 0 0 0
-0.00335001 -0.09335068 0.06626335 0 0 0 0
0.04894928 0.06394207 0.06292970 0 0 0 0
-0.05406823 -0.00130554 0.09759931 0 0 0 0
-0.01215375 -0.08994268 -0.06620805 0 0 0 0
0.03199925 -0.02919019 -0.09781425 0 0 0 0
-0.06743795 -0.04962883 -0.04053874 0 0 0 0
-0.04546619 0.07092698 -0.03985968 0 0 0 0
-0.09313257 -0.00778869 0.06106837 0 0 0 0
0.09724586 0.00676445 0.02233404 0 0 0 0
-0.09542704 -0.01072785 0.02896434 0 0 0 0
-0.01878804 0.09105594 -0.03379156 0 0 0 0
0.05681982 -0.06119899 -0.03318677 0 0 0 0
-0.04193925 0.07427298 -0.03231465 0 0 0 0
-0.00691334 -0.09331845 0.06244287 0 0 0 0
-0.00336984 0.00639638 0.09976868 0 0 0 0
0.08784191 0.00556135 -0.07653078 0 0 0 0
0.01500222 -0.03097280 -0.09905937 0 0 0 0
0.02354643 -0.08679445 -0.04840437 0 0 0 0
0.03855241 0.07708079 0.03844052 0 0 0 0
0.07027321 -0.03784719 -0.07175320 0 0 0 0
-0.09937035 0.00163234 0.01692330 0 0 0 0
-0.04647713 -0.05913816 0.07718511 0 0 0 0
0.04656423 0.06684376 0.06046978 0 0 0 0
0.00875773 -0.09363823 -0.05836377 0 0 0 0
-0.04237536 0.07000378 -0.06226256 0 0 0 0
0.05161970 -0.06637622 0.02235813 0 0 0 0
-0.08850273 -0.01996320 -0.05283178 0 0 0 0
0.00705123 0.04416331 -0.09874527 0 0 0 0
-0.00185471 -0.00544348 -0.09971488 0 0 0 0
-0.05523943 0.06027650 -0.05516868 0 0 0 0
-0.01331673 -0.08357776 0.07714952 0 0 0 0
-0.06043803 -0.05798517 -0.00467989 0 0 0 0
-0.09744269 0.00250024 -0.05030993 0 0 0 0
-0.00077811 0.09937952 -0.00883974 0 0 0 0
0.01403669 -0.00798354 -0.09958275 0 0 0 0
0.06449243 0.02851393 -0.08682740 0 0 0 0
0.04688144 0.00627435 -0.09831270 0 0 0 0
0.02105641 0.02896485 0.09882378 0 0 0 0
-0.09229230 0.01518138 -0.04542794 0 0 0 0
-0.08367875 0.03057051 0.00746939 0 0 0 0
0.01086982 -0.09165040 0.06199489 0 0 0 0
-0.06426328 0.05363672 0.03640576 0 0 0 0
-0.09201521 -0.01719587 0.03112713 0 0 0 0
-0.06944498 0.04241678 -0.06384801 0 0 0 0
0.00062127 0.03735410 -0.09914200 0 0 0 0
-0.00054460 0.09405733 -0.06693585 0 0 0 0
-0.02705388 -0.08467311 -0.04894989 0 0 0 0
-0.05095718 -0.06650205 -0.03335999 0 0 0 0
0.01546729 -0.05069224 -0.09659342 0 0 0 0
0.01684491 -0.00257388 -0.09959240 0 0 0 0
-0.01679787 0.08725683 -0.06530017 0 0 0 0
-0.01532402 0.08872095 -0.06495045 0 0 0 0
0.07830157 -0.03699251 -0.03619557 0 0 0 0
0.09183342 0.01680047 -0.03908782 0 0 0 0
-0.06951463 0.04812243 -0.00773495 0 0 0 0
0.04300947 0.07392828 -0.00456476 0 0 0 0
0.03277835 -0.06870325 0.08028012 0 0 0 0
0.01883044 -0.09115993 -0.01708096 0 0 0 0
-0.00510919 0.06667243 -0.09364951 0 0 0 0
0.00690927 -0.09249494 -0.06562305 0 0 0 0
0.02759028 0.08231997 -0.05987545 0 0 0 0
0.08831508 -0.02339390 0.02345129 0 0 0 0
-0.00518891 -0.09770480 -0.02431554 0 0 0 0
-0.00591631 0.08000917 -0.08593889 0 0 0 0
-0.05764814 -0.03917395 0.08552283 0 0 0 0
0.05139811 -0.05889736 0.07047398 0 0 0 0
-0.04688006 -0.06939311 0.04601010 0 0 0 0
0.00983963 0.09407873 0.05212139 0 0 0 0
-0.00715449 0.07564147 0.08879067 0 0 0 0
0.08199609 -0.00855978 -0.08288024 0 0 0 0
-0.07581321 -0.01252205 -0.08655842 0 0 0 0
-0.09541703 -0.01176977 -0.02034786 0 0 0 0
-0.09814531 0.00297397 -0.04097761 0 0 0 0
0.03195560 -0.08238032 0.03528207 0 0 0 0
0.02343490 -0.08857507 -0.00951245 0 0 0 0
-0.05444633 0.05905123 -0.06192479 0 0 0 0
0.05606531 0.04220954 -0.08467996 0 0 0 0
-0.06307154 0.01807344 -0.09243588 0 0 0 0
0.05964661 0.05720915 -0.04684038 0 0 0 0
-0.03949221 0.07525902 0.04830800 0 0 0 0
-0.00215790 -0.00936213 -0.09989303 0 0 0 0
-0.03432968 0.01383378 -0.09910266 0 0 0 0
-0.00644654 0.09731629 -0.03402884 0 0 0 0
0.07452055 -0.04188181 0.03649633 0 0 0 0
0.09217357 0.01624299 -0.03514070 0 0 0 0
0.03136650 0.07461607 -0.07247994 0 0 0 0
-0.09127340 0.00078008 0.07254546 0 0 0 0
0.04042818 -0.05940222 -0.08342186 0 0 0 0
-0.00476159 -0.04417565 -0.09857602 0 0 0 0
0.03549572 0.03819779 -0.09575783 0 0 0 0
-0.01588845 0.09207517 -0.04455065 0 0 0 0
0.03413060 -0.08098357 -0.00721877 0 0 0 0
-0.09820779 -0.00421781 0.03405213 0 0 0 0
0.08938849 0.02210410 0.01961810 0 0 0 0
0.01861018 -0.05246147 -0.09588089 0 0 0 0
-0.00126321 -0.02734618 -0.09955922 0 0 0 0
0.09735294 -0.00595997 -0.03507126 0 0 0 0
-0.01566516 -0.00804148 -0.09956627 0 0 0 0
-0.06163617 0.05546938 -0.04565641 0 0 0 0
-0.06671470 0.04582461 -0.06323124 0 0 0 0
0.01192965 0.09389333 -0.04735505 0 0 0 0
-0.04340665 0.06767522 -0.06640851 0 0 0 0
-0.05862248 0.05521066 -0.06188921 0 0 0 0
0.06360567 -0.05330816 -0.04674562 0 0 0 0
0.09728502 0.00136835 -0.05210969 0 0 0 0
0.00550690 0.09789138 -0.01346339 0 0 0 0
-0.08142985 0.01145126 -0.08152448 0 0 0 0
-0.00288643 0.09292548 -0.06768766 0 0 0 0
-0.00625456 -0.00226500 0.09976868 0 0 0 0
0.07791805 -0.02889181 -0.06948467 0 0 0 0
0.04626692 0.07139127 -0.02414961 0 0 0 0
-0.03793811 0.05692232 0.08688179 0 0 0 0
0.03341609 -0.08023068 -0.04569416 0 0 0 0
-0.03366698 -0.05127499 -0.09205493 0 0 0 0
-0.06252073 -0.05591478 -0.00199605 0 0 0 0
-0.00347343 -0.03733346 -0.09909880 0 0 0 0
0.05512620 -0.03710708 -0.08846357 0 0 0 0
0.04146976 -0.01779337 -0.09785609 0 0 0 0
-0.07111129 0.04497392 -0.04568497 0 0 0 0
-0.04469200 0.07282021 -0.02575568 0 0 0 0
-0.00397570 0.09837589 0.02236263 0 0 0 0
0.09103513 0.01593835 -0.05206977 0 0 0 0
-0.08664529 -0.01155770 -0.07354264 0 0 0 0
0.08815231 -0.02407752 0.01050059 0 0 0 0
0.00310374 0.05909450 0.09618340 0 0 0 0
0.00362557 0.09405772 -0.06444211 0 0 0 0
0.05924562 0.05689671 -0.05067062 0 0 0 0
0.03397293 0.01041461 -0.09936497 0 0 0 0
0.06275360 -0.05545293 0.02956154 0 0 0 0
-0.05855360 0.05816526 -0.04746411 0 0 0 0
0.00049979 -0.05869242 -0.09648059 0 0 0 0
0.03011445 0.08341208 -0.03324205 0 0 0 0
-0.09870085 0.00315929 -0.01219492 0 0 0 0
-0.02244551 0.08918334 -0.00784490 0 0 0 0
-0.01264302 0.08776785 -0.06996830 0 0 0 0
0.03373329 0.08063623 -0.03576358 0 0 0 0
-0.02427078 0.08795917 -0.01562557 0 0 0 0
-0.01625285 0.07081144 0.08882926 0 0 0 0
0.03791146 0.07314440 -0.06493481 0 0 0 0
0.00412259 0.01602552 -0.09959225 0 0 0 0
-0.05158159 0.02592644 -0.09428535 0 0 0 0
0.00257654 0.00906294 -0.09989248 0 0 0 0
-0.00022921 -0.09949289 -0.00250801 0 0 0 0
-0.03602298 0.00750451 -0.09906856 0 0 0 0
-0.00652851 0.07021355 -0.09209790 0 0 0 0
-0.08901733 0.02310570 -0.02576213 0 0 0 0
-0.00777687 -0.09703746 -0.01510738 0 0 0 0
0.01843785 -0.00546027 -0.09955767 0 0 0 0
-0.03625558 -0.02880722 -0.09728616 0 0 0 0
-0.00880837 0.07844923 -0.08567505 0 0 0 0
-0.01285388 0.05836330 0.09515776 0 0 0 0
0.00689349 -0.09642310 -0.04256048 0 0 0 0
-0.09629457 0.00958563 -0.01740151 0 0 0 0
-0.03696617 0.07603688 -0.05552132 0 0 0 0
0.00261790 -0.01412321 0.09976868 0 0 0 0
0.09316453 0.01269914 -0.05176678 0 0 0 0
0.09299264 -0.01508344 -0.03383016 0 0 0 0
-0.04947682 0.02041692 -0.09629302 0 0 0 0
0.04017197 0.03207625 0.09597720 0 0 0 0
-0.01415436 -0.04073067 -0.09828196 0 0 0 0
0.09024031 0.00245102 -0.07409541 0 0 0 0
0.08354420 -0.03029412 0.03143329 0 0 0 0
0.02051764 -0.02037947 0.09948336 0 0 0 0
0.03719088 0.02501414 -0.09765942 0 0 0 0
-0.05681367 0.06123035 0.02812368 0 0 0 0
-0.04130355 0.04997243 0.08941181 0 0 0 0
-0.00359692 -0.09806152 -0.03517967 0 0 0 0
0.06817777 -0.02967137 -0.08317065 0 0 0 0
-0.02719066 0.08352493 -0.05459933 0 0 0 0
-0.09477398 -0.00726724 -0.05566938 0 0 0 0
0.00584454 -0.00127060 -0.09971829 0 0 0 0
0.09568433 0.00558763 0.05423881 0 0 0 0
-0.02569611 -0.00374661 -0.09949253 0 0 0 0
0.03182465 0.08236787 -0.03140739 0 0 0 0
-0.04979048 0.06724290 0.04258144 0 0 0 0
-0.04237169 -0.01821286 -0.09776263 0 0 0 0
-0.05062948 -0.06741124 -0.02838114 0 0 0 0
0.05882536 0.05947297 0.03270844 0 0 0 0
-0.09860136 -0.00284077 -0.02027379 0 0 0 0
0.02454583 0.02302442 -0.09934734 0 0 0 0
0.01136287 -0.06852696 0.09134780 0 0 0 0
0.01675831 0.09242371 -0.00341698 0 0 0 0
-0.08540806 0.01821462 0.06861842 0 0 0 0
-0.02680250 -0.08606000 0.02895860 0 0 0 0
0.05147842 0.06667896 -0.01622178 0 0 0 0
-0.01246475 0.00033407 0.09976868 0 0 0 0
-0.04886368 -0.02638130 -0.09528529 0 0 0 0
0.08298731 -0.03144237 0.01142407 0 0 0 0
0.01943324 -0.06523238 0.09050988 0 0 0 0
-0.02644085 0.08555523 -0.04126381 0 0 0 0
0.05629032 0.06200712 -0.01593198 0 0 0 0
0.08832082 0.01246012 0.06982329 0 0 0 0
-0.03980391 -0.07620703 -0.03085924 0 0 0 0
0.01071639 -0.07909540 -0.08451232 0 0 0 0
-0.01064278 0.07044449 -0.09089435 0 0 0 0
0.05270071 -0.06534749 -0.01480852 0 0 0 0
-0.00561620 0.06813429 -0.09285682 0 0 0 0
-0.03061852 -0.06049716 -0.08855896 0 0 0 0
0.04571386 0.07081932 0.04182950 0 0 0 0
0.03477325 -0.06517791 -0.08194619 0 0 0 0
0.07794839 -0.03835553 -0.00249246 0 0 0 0
-0.04441892 -0.07275879 0.00115706 0 0 0 0
-0.08333037 -0.03119443 -0.02232925 0 0 0 0
-0.02678417 -0.08384062 -0.05321871 0 0 0 0
0.06621825 -0.05109309 -0.03645672 0 0 0 0
0.04367616 -0.06354044 -0.07435793 0 0 0 0
0.09112697 -0.01467141 -0.05536345 0 0 0 0
-0.05688883 0.05965178 0.04884231 0 0 0 0
0.09030448 -0.01383741 -0.06128383 0 0 0 0
-0.00650850 -0.04327242 -0.09856368 0 0 0 0
-0.02681367 0.08619898 -0.01967064 0 0 0 0
-0.06753916 0.04866350 -0.04846903 0 0 0 0
-0.01664899 0.08551525 -0.07040763 0 0 0 0
-0.06651755 -0.00628597 0.09372357 0 0 0 0
-0.08769864 -0.00245180 0.07857608 0 0 0 0
-0.06076664 0.03378058 0.08667253 0 0 0 0
-0.00594180 -0.05554070 0.09676489 0 0 0 0
-0.04155868 0.04274843 0.09256453 0 0 0 0
0.02372496 0.07183442 0.08365911 0 0 0 0
-0.07372637 -0.04344788 -0.00903216 0 0 0 0
-0.07268043 0.04450344 0.00406097 0 0 0 0
0.06329760 0.03238023 -0.08609278 0 0 0 0
0.08201841 -0.03274946 0.02995063 0 0 0 0
0.01388256 0.03910575 -0.09850792 0 0 0 0
0.04984001 0.06846619 -0.00263181 0 0 0 0
0.00884667 -0.05898582 -0.09583075 0 0 0 0
-0.00451577 -0.08884643 0.07537542 0 0 0 0
-0.01806639 0.09054555 0.04595038 0 0 0 0
-0.00338368 -0.09876932 -0.02460052 0 0 0 0
-0.04382393 -0.05251017 -0.08646128 0 0 0 0
-0.00479735 -0.09698772 0.04596425 0 0 0 0
-0.05315702 0.05563635 -0.07247784 0 0 0 0
0.04011773 -0.07530771 -0.04578766 0 0 0 0
-0.01115660 0.07283431 0.08917621 0 0 0 0
-0.09184102 -0.01340197 -0.05490311 0 0 0 0
-0.01045834 -0.09508820 0.04016735 0 0 0 0
-0.08804644 -0.02448532 -0.02484764 0 0 0 0
-0.04646550 -0.06914899 -0.05155044 0 0 0 0
0.05396082 0.00330099 -0.09723528 0 0 0 0
0.04225958 0.00234119 -0.09891193 0 0 0 0
0.07105625 -0.04606812 -0.02164733 0 0 0 0
0.03581937 0.01802250 0.09849988 0 0 0 0
-0.07297272 0.04158355 0.05183309 0 0 0 0
-0.06632441 -0.02398791 -0.08794327 0 0 0 0
0.00643278 0.06834279 -0.09293257 0 0 0 0
-0.02268936 0.08081111 -0.07214845 0 0 0 0
0.06865236 -0.04777881 -0.04659620 0 0 0 0
0.01388032 0.02462688 -0.09934417 0 0 0 0
0.07434557 0.03349349 -0.06955187 0 0 0 0
-0.08895861 0.02142503 -0.03929983 0 0 0 0
0.03043287 0.08239486 -0.04845070 0 0 0 0
0.00460170 -0.00069457 -0.09983177 0 0 0 0
-0.09395194 -0.01361579 0.03547973 0 0 0 0
0.09936011 0.00175890 0.00874328 0 0 0 0
0.00187729 -0.09912073 -0.01521529 0 0 0 0
-0.00128187 -0.01545301 -0.09995319 0 0 0 0
-0.01896050 0.08952110 -0.04923347 0 0 0 0
-0.09292488 -0.01636786 -0.01283411 0 0 0 0
0.04876379 0.06890402 0.00754456 0 0 0 0
-0.04418235 0.06850503 0.06207085 0 0 0 0
-0.00523676 -0.02769367 -0.09946296 0 0 0 0
0.04509023 0.06635268 -0.06631846 0 0 0 0
-0.09435469 -0.00000618 0.06481875 0 0 0 0
-0.07481702 0.02175342 0.08215987 0 0 0 0
0.05088784 -0.03044197 0.09352648 0 0 0 0
-0.06335895 0.05500748 -0.00867758 0 0 0 0
0.05304599 -0.05021510 0.08065151 0 0 0 0
-0.08650573 0.01471818 -0.07061910 0 0 0 0
-0.07143639 0.01669809 -0.08782005 0 0 0 0
-0.09743110 0.00698007 -0.01017801 0 0 0 0
0.03290159 0.08056988 -0.04736065 0 0 0 0
0.07212032 0.04522551 -0.01085254 0 0 0 0
0.00897084 0.05046759 -0.09745257 0 0 0 0
0.00953123 -0.09437541 -0.05196164 0 0 0 0
0.08786727 -0.01813876 -0.06150372 0 0 0 0
-0.06126741 -0.00318597 -0.09586614 0 0 0 0
0.09720535 -0.00683596 0.02456103 0 0 0 0
0.07579126 -0.04052442 0.03140097 0 0 0 0
0.03983895 0.05732838 0.08512814 0 0 0 0
-0.01109543 -0.09579898 -0.02289034 0 0 0 0
-0.02294371 -0.08847827 -0.01974147 0 0 0 0
0.00003048 0.09498078 -0.06260058 0 0 0 0
0.02973859 0.02520812 -0.09851541 0 0 0 0
-0.05972079 0.04488630 -0.07869819 0 0 0 0
-0.09639937 -0.00659521 -0.04678458 0 0 0 0
-0.09428139 -0.00014054 0.06500188 0 0 0 0
-0.05209131 0.01515142 -0.09639055 0 0 0 0
-0.07516160 -0.01452986 -0.08586183 0 0 0 0
0.07926448 0.03644402 0.01539852 0 0 0 0
-0.00912157 -0.09280635 -0.06129213 0 0 0 0
-0.04500983 0.04593492 -0.08947641 0 0 0 0
-0.09106563 -0.01920320 -0.01521532 0 0 0 0
-0.08544216 0.02771373 -0.01696976 0 0 0 0
-0.06912152 -0.04816372 -0.03278192 0 0 0 0
0.02866425 0.08199559 -0.05669942 0 0 0 0
-0.03720499 -0.07863566 -0.00890488 0 0 0 0
-0.08382156 -0.01939184 -0.07035960 0 0 0 0
0.01517333 -0.01679857 -0.09959076 0 0 0 0
-0.04273683 0.07366531 -0.03433942 0 0 0 0
-0.06469716 -0.03479515 -0.08310275 0 0 0 0
0.00863037 0.09582235 -0.04191493 0 0 0 0
-0.00953905 0.09607480 0.02844578 0 0 0 0
0.08954010 0.02221052 -0.02117300 0 0 0 0
-0.01994088 -0.03315851 0.09858280 0 0 0 0
-0.01752942 -0.08547191 -0.06903627 0 0 0 0
0.03594995 -0.07979131 -0.01088266 0 0 0 0
-0.04027363 -0.07644949 -0.00363341 0 0 0 0
-0.06449320 -0.04616002 -0.06857096 0 0 0 0
-0.05321557 -0.05713512 -0.07010737 0 0 0 0
-0.01981405 -0.07815011 0.07998949 0 0 0 0
-0.07632782 0.04017778 -0.01751851 0 0 0 0
0.01095482 -0.03257143 -0.09911695 0 0 0 0
0.00292724 0.00550454 0.09976868 0 0 0 0
0.01881824 -0.09119688 0.00348000 0 0 0 0
-0.06621508 -0.04909556 -0.05352113 0 0 0 0
-0.03650920 0.07913379 0.00322757 0 0 0 0
-0.00354986 -0.02846063 0.09976868 0 0 0 0
-0.00767757 0.03398139 -0.09938382 0 0 0 0
-0.06426751 0.04891486 -0.06270732 0 0 0 0
-0.02567434 0.06449021 0.08871584 0 0 0 0
0.02774686 0.03543881 -0.09756660 0 0 0 0
-0.01724085 -0.01049122 0.09976868 0 0 0 0
0.04846891 0.06584083 -0.05821381 0 0 0 0
0.07950504 -0.03154967 -0.05899994 0 0 0 0
0.08944656 -0.00225787 -0.07573085 0 0 0 0
0.00323816 -0.00499103 -0.09985749 0 0 0 0
0.02741946 0.01737047 -0.09937684 0 0 0 0
0.05580420 -0.06197030 -0.03418891 0 0 0 0
0.03406414 0.04602576 -0.09385574 0 0 0 0
-0.04513883 0.07164156 -0.02892770 0 0 0 0
-0.05491810 -0.05420589 0.07264635 0 0 0 0
0.01287903 0.07107646 0.08958839 0 0 0 0
-0.01392396 0.02325274 -0.09939252 0 0 0 0
-0.04000865 -0.07646477 -0.02521485 0 0 0 0
0.03984107 0.06703997 0.07388267 0 0 0 0
-0.09290342 -0.01518436 -0.02816294 0 0 0 0
-0.03438785 -0.07968651 -0.04491311 0 0 0 0
0.01207565 0.09518357 -0.01349167 0 0 0 0
-0.09863708 0.00332184 0.01801793 0 0 0 0
-0.01084818 0.08594619 -0.07561516 0 0 0 0
-0.01874364 -0.06676165 -0.08991447 0 0 0 0
-0.01569135 -0.07358012 -0.08653598 0 0 0 0
-0.05763678 0.06072143 -0.02256721 0 0 0 0
0.07394962 0.03630415 -0.06643474 0 0 0 0
0.05818619 0.05780317 -0.05257745 0 0 0 0
-0.04223089 0.07341145 -0.04439805 0 0 0 0
0.08782152 -0.01862067 -0.06030969 0 0 0 0
-0.02924353 0.08094747 -0.06028567 0 0 0 0
-0.01382907 -0.04084141 -0.09829848 0 0 0 0
-0.02057806 0.01082499 -0.09949608 0 0 0 0
-0.06195530 0.05654763 -0.00198144 0 0 0 0
-0.06401995 -0.04104181 -0.07735051 0 0 0 0
-0.06452937 0.04610648 -0.06858749 0 0 0 0
0.03693910 0.07865544 0.02504480 0 0 0 0
0.00643675 -0.09466912 0.05786467 0 0 0 0
0.01776347 -0.09171151 -0.03152796 0 0 0 0
0.08074854 0.02503617 0.06993768 0 0 0 0
-0.04603796 0.07005073 0.04567894 0 0 0 0
-0.00325436 -0.00965462 -0.09966503 0 0 0 0
-0.00617443 0.04654989 0.09826732 0 0 0 0
-0.02752295 -0.07955377 0.06829234 0 0 0 0
-0.06432359 0.05325068 -0.03072113 0 0 0 0
-0.08376217 0.03022284 0.01865653 0 0 0 0
-0.07082908 0.04563897 0.04120366 0 0 0 0
0.00493689 -0.08227292 -0.08401558 0 0 0 0
0.00629211 -0.09545722 -0.05481271 0 0 0 0
-0.02130710 -0.00209050 -0.09954766 0 0 0 0
-0.04515291 0.07161404 -0.03380106 0 0 0 0
-0.08885492 0.02321055 -0.00362784 0 0 0 0
-0.06977274 0.04791643 -0.02074245 0 0 0 0
0.00114166 0.07340983 -0.09130359 0 0 0 0
0.03487454 -0.06155314 -0.08557687 0 0 0 0
0.02787151 0.02917819 -0.09855460 0 0 0 0
-0.04936967 -0.06874082 -0.00293060 0 0 0 0
-0.00032487 -0.09826944 -0.04943086 0 0 0 0
0.00116058 0.06611024 -0.09443437 0 0 0 0
0.00060092 0.00661157 -0.09971695 0 0 0 0
-0.02627653 0.08446993 -0.05301971 0 0 0 0
0.02587727 -0.01052042 -0.09944598 0 0 0 0
-0.07412261 0.04181543 -0.03825784 0 0 0 0
0.05914938 -0.05893190 -0.01758457 0 0 0 0
-0.01460725 0.08790737 0.06727390 0 0 0 0
-0.01160890 0.08110060 -0.08203097 0 0 0 0
-0.09438215 -0.01284403 -0.03258616 0 0 0 0
0.03999387 0.07641021 0.01844678 0 0 0 0
-0.09696464 -0.00844528 -0.00014130 0 0 0 0
0.08249553 -0.02472353 -0.06609310 0 0 0 0
0.09159149 0.01241912 -0.05905109 0 0 0 0
0.06589671 0.04806440 -0.06067750 0 0 0 0
0.08824016 0.02380806 0.03051179 0 0 0 0
-0.01237107 -0.01254781 0.09976868 0 0 0 0
-0.04431072 -0.07146834 -0.04798396 0 0 0 0
0.05019442 0.06764384 -0.02816510 0 0 0 0
-0.09654536 -0.00366649 -0.05279475 0 0 0 0
0.08300315 0.03054850 -0.04300238 0 0 0 0
-0.04436078 0.07312128 -0.01909440 0 0 0 0
0.09567659 0.00325262 -0.05883684 0 0 0 0
-0.04687054 0.06198827 0.07225797 0 0 0 0
0.06869029 -0.04926446 -0.00760393 0 0 0 0
0.07681023 -0.03944985 -0.02722604 0 0 0 0
0.07593048 -0.04016944 0.03675049 0 0 0 0
0.06365383 0.04116558 0.07782008 0 0 0 0
0.05395469 -0.06266116 -0.04874357 0 0 0 0
-0.02670879 -0.04231636 0.09653034 0 0 0 0
-0.03560603 -0.06577573 -0.08066409 0 0 0 0
0.08034138 -0.03527277 -0.00223879 0 0 0 0
-0.03857629 -0.07759767 0.02516124 0 0 0 0
-0.08668569 -0.02598702 0.02649895 0 0 0 0
0.05701090 -0.03261924 -0.08959408 0 0 0 0
0.04360289 -0.00667004 0.09848757 0 0 0 0
-0.00377405 -0.09878954 -0.01381215 0 0 0 0
0.03751587 0.07650281 0.05037390 0 0 0 0
0.09090959 0.01950278 -0.00605642 0 0 0 0
-0.05992473 0.05818038 0.03195050 0 0 0 0
0.01082076 -0.05206107 -0.09688894 0 0 0 0
0.00375216 -0.07140127 -0.09185989 0 0 0 0
-0.02635651 0.06040561 -0.09082235 0 0 0 0
0.08508007 -0.02384368 -0.05760011 0 0 0 0
-0.04029030 0.05094143 -0.08923455 0 0 0 0
-0.00085493 -0.09955433 0.00670919 0 0 0 0
0.07127921 0.04547433 0.03870454 0 0 0 0
0.00201891 -0.03011611 -0.09945443 0 0 0 0
-0.06701405 -0.01785532 -0.09010625 0 0 0 0
0.09775484 -0.00038469 -0.05087946 0 0 0 0
0.01381221 0.01191393 -0.09981416 0 0 0 0
0.00390963 0.06141393 0.09549940 0 0 0 0
-0.01524434 -0.08297192 0.07662517 0 0 0 0
-0.08654830 -0.01009425 -0.07520036 0 0 0 0
-0.08195247 0.00439983 0.08413988 0 0 0 0
-0.09667361 0.00924893 -0.00395849 0 0 0 0
-0.05582793 0.06238578 -0.03123859 0 0 0 0
-0.01825336 0.06791059 0.08953850 0 0 0 0
0.02291929 -0.08896394 -0.02331333 0 0 0 0
0.02762189 0.07369201 -0.07857654 0 0 0 0
0.04289945 -0.04352526 0.09166406 0 0 0 0
-0.00449764 0.03991653 0.09888176 0 0 0 0
-0.02822839 0.08409073 0.04361000 0 0 0 0
-0.03180040 0.07240152 -0.07634985 0 0 0 0
0.06868624 -0.04930628 -0.01988937 0 0 0 0
-0.04047184 0.06329425 -0.07864438 0 0 0 0
-0.09835807 0.00224853 0.04198391 0 0 0 0
0.03098224 0.08329051 -0.00456060 0 0 0 0
-0.05792139 -0.01321996 0.09518139 0 0 0 0
0.04809279 0.02564594 -0.09574451 0 0 0 0
0.03105776 -0.08305670 0.02542080 0 0 0 0
0.09146187 0.01875105 0.00870314 0 0 0 0
-0.05122665 -0.06647569 -0.01910587 0 0 0 0
-0.07942791 0.02908589 0.06511317 0 0 0 0
-0.08860187 -0.02314319 -0.00237294 0 0 0 0
-0.02084864 0.09025016 0.00705524 0 0 0 0
-0.02267709 -0.08887018 -0.00528157 0 0 0 0
-0.06166808 -0.05528128 0.04384914 0 0 0 0
0.00492347 -0.01580877 -0.09958877 0 0 0 0
-0.08754502 0.02416275 -0.03659546 0 0 0 0
-0.04597428 0.02483441 -0.09630907 0 0 0 0
-0.02417015 -0.05631341 0.09325416 0 0 0 0
0.09680274 0.00766185 -0.02248873 0 0 0 0
-0.01543022 0.00081058 0.09976868 0 0 0 0
0.02892933 -0.04769339 0.09489523 0 0 0 0
-0.00537043 0.09795932 -0.02679231 0 0 0 0
0.03565570 0.07971526 0.00732348 0 0 0 0
-0.08322472 -0.02506631 0.06203080 0 0 0 0
0.02040761 -0.04449365 0.09723199 0 0 0 0
0.00355011 -0.08998953 -0.07382238 0 0 0 0
0.03921863 0.06910197 -0.07090671 0 0 0 0
-0.09276106 0.01498107 -0.04419809 0 0 0 0
-0.08497629 0.01490539 0.07341550 0 0 0 0
0.00144994 0.00007720 0.09976868 0 0 0 0
0.07553215 0.03711173 0.05859152 0 0 0 0
-0.08272953 0.01812046 -0.07431243 0 0 0 0
0.05598606 0.06242727 -0.02515478 0 0 0 0
0.06629079 -0.04995228 -0.05122412 0 0 0 0
0.01711794 -0.08407970 -0.07283036 0 0 0 0
0.00955330 0.04107532 -0.09880747 0 0 0 0
0.01435825 0.09396101 -0.02797676 0 0 0 0
0.01407470 0.00962630 0.09976868 0 0 0 0
-0.00083187 -0.01273033 -0.09964553 0 0 0 0
-0.02845359 -0.08517611 -0.02710851 0 0 0 0
-0.02003522 0.02314794 -0.09939431 0 0 0 0
-0.07075550 0.03691361 -0.07177868 0 0 0 0
0.06401074 -0.05397998 0.01785266 0 0 0 0
-0.02640945 0.07146945 -0.08235295 0 0 0 0
-0.01622833 -0.09265782 0.01057680 0 0 0 0
0.08013551 -0.03548255 0.00325602 0 0 0 0
-0.06617363 0.02856341 0.08570351 0 0 0 0
-0.05485832 0.04956369 -0.07864463 0 0 0 0
-0.08773797 0.02462832 -0.02848853 0 0 0 0
0.00058189 -0.08688896 -0.08027137 0 0 0 0
-0.07106174 -0.01719459 0.08817492 0 0 0 0
-0.01117186 0.08660623 -0.07470684 0 0 0 0
-0.09452340 0.01283498 0.00745313 0 0 0 0
0.03088118 0.07358547 0.07497055 0 0 0 0
0.05137467 0.06635353 -0.03285066 0 0 0 0
0.04050972 -0.07399932 0.05151593 0 0 0 0
-0.00712107 0.01490970 0.09976868 0 0 0 0
0.00440631 0.07164947 -0.09171633 0 0 0 0
0.04264427 0.02188521 0.09742782 0 0 0 0
-0.01825239 0.02649626 -0.09912796 0 0 0 0
-0.01433592 0.01692809 -0.09961570 0 0 0 0
-0.09593313 0.00973447 0.03706373 0 0 0 0
0.06519724 -0.05230500 -0.03184986 0 0 0 0
-0.09217839 0.00744129 0.06566162 0 0 0 0
0.07265464 -0.04358359 -0.04473219 0 0 0 0
0.00549760 -0.09780377 -0.01776710 0 0 0 0
-0.00422319 0.02755392 -0.09949256 0 0 0 0
0.07320680 0.01391882 -0.08763630 0 0 0 0
-0.07924545 -0.03035890 0.06293091 0 0 0 0
-0.07058662 0.04709423 -0.02463710 0 0 0 0
0.07057650 0.01131125 -0.09071012 0 0 0 0
0.07404501 0.03672526 -0.06401027 0 0 0 0
0.08519664 0.02809801 0.01523422 0 0 0 0
-0.02712966 0.08404355 0.05086223 0 0 0 0
-0.09467654 0.00180517 -0.06445517 0 0 0 0
-0.06153737 0.00802817 -0.09493862 0 0 0 0
-0.03154702 0.08290576 -0.00805063 0 0 0 0
-0.07044946 0.04709270 -0.01035655 0 0 0 0
