ply
format ascii 1.0
comment https://github.com/mikedh/trimesh
element vertex 1119
property float x
property float y
property float z
property uchar red
property uchar green
property uchar blue
property uchar alpha
end_header
-0.00915861 0.02489189 0.09976868 0 0 0 0
0.08121831 -0.08391321 -0.04740905 0 0 0 0
0.07517334 0.08981162 -0.02104315 0 0 0 0
0.07320957 -0.01312779 0.09128930 0 0 0 0
-0.04681676 -0.05379160 -0.09622385 0 0 0 0
-0.09969972 -0.00748836 -0.00668461 0 0 0 0
0.08107426 0.08279320 0.05264113 0 0 0 0
-0.08924743 -0.03337966 -0.07684553 0 0 0 0
-0.00299229 0.09719136 -0.05479519 0 0 0 0
0.09508017 0.04824148 0.05877280 0 0 0 0
0.01128305 0.00559874 -0.09990425 0 0 0 0
-0.07758407 -0.08891989 -0.01164668 0 0 0 0
-0.08207087 -0.08534731 -0.02356207 0 0 0 0
0.01940929 -0.00690750 0.09976868 0 0 0 0
-0.04445298 0.09848434 0.00705529 0 0 0 0
-0.09899656 0.03624838 -0.00162065 0 0 0 0
-0.04866794 0.02602897 -0.09825059 0 0 0 0
0.05805172 -0.09601722 -0.02902425 0 0 0 0
-0.09942942 -0.01785086 0.00388394 0 0 0 0
0.05464228 0.01005486 -0.09739543 0 0 0 0
0.06041275 -0.08589844 -0.07483651 0 0 0 0
-0.03601428 0.02224034 0.09924380 0 0 0 0
0.09028237 -0.05222454 -0.07053004 0 0 0 0
0.04190471 -0.09456439 -0.06288628 0 0 0 0
-0.09976821 -0.00238078 -0.00855981 0 0 0 0
-0.02666391 0.04411869 -0.09860343 0 0 0 0
0.03149406 -0.07390065 -0.09099939 0 0 0 0
-0.04187124 -0.09000340 0.07356296 0 0 0 0
0.01325266 -0.09935607 -0.02689652 0 0 0 0
-0.09611376 0.02212851 0.05899259 0 0 0 0
0.02036452 -0.00562503 0.09976868 0 0 0 0
-0.09270640 -0.06972180 0.01972413 0 0 0 0
-0.09892625 -0.01471173 -0.03596818 0 0 0 0
-0.06676336 0.00318914 -0.09423007 0 0 0 0
-0.09799001 -0.04608155 -0.03363534 0 0 0 0
0.01608459 -0.09916975 -0.02090278 0 0 0 0
-0.01960524 -0.09396737 0.06651098 0 0 0 0
-0.01162775 0.09394039 -0.06748705 0 0 0 0
0.09564168 -0.01590321 -0.06197107 0 0 0 0
0.08310088 0.00832235 0.08433376 0 0 0 0
-0.09778900 -0.05092495 -0.00604279 0 0 0 0
-0.09950209 -0.02191298 0.02932459 0 0 0 0
-0.04560332 0.03231630 0.09832504 0 0 0 0
-0.00942899 0.04618632 -0.09877554 0 0 0 0
-0.08787242 -0.07893550 -0.01187385 0 0 0 0
0.09866220 0.00243748 -0.04182772 0 0 0 0
0.07016260 0.09210368 -0.03374243 0 0 0 0
-0.09757961 -0.00523539 0.05226237 0 0 0 0
0.08922743 -0.03706502 -0.07575607 0 0 0 0
0.03029791 -0.08973815 0.07518743 0 0 0 0
0.09794693 -0.04921768 -0.00953843 0 0 0 0
-0.07543154 0.03582395 0.08963607 0 0 0 0
0.08044954 0.02892487 0.08641919 0 0 0 0
-0.08011858 0.08703588 -0.01558629 0 0 0 0
0.07861846 -0.08624242 -0.04845335 0 0 0 0
-0.00673421 0.00411420 0.09976868 0 0 0 0
0.06999400 0.01183060 -0.09305756 0 0 0 0
0.06881405 0.09338395 -0.02025585 0 0 0 0
-0.08814760 0.00202186 0.07865496 0 0 0 0
0.09050085 -0.00422344 -0.07500695 0 0 0 0
-0.09687437 0.04647327 -0.04745639 0 0 0 0
0.09566924 0.04860676 -0.05409952 0 0 0 0
0.09960499 0.00132773 -0.01438526 0 0 0 0
-0.03651847 -0.01953153 -0.09915401 0 0 0 0
0.01395570 0.09947929 0.01175738 0 0 0 0
0.01732637 -0.05236372 0.09797554 0 0 0 0
-0.09811313 -0.03333045 -0.04277819 0 0 0 0
-0.03348021 -0.07699610 -0.08874816 0 0 0 0
-0.09875582 0.03509376 -0.02501507 0 0 0 0
0.02583150 0.05991689 -0.09629048 0 0 0 0
0.05701826 0.08763605 -0.07381365 0 0 0 0
0.09942998 -0.02966532 -0.00691634 0 0 0 0
-0.05184831 0.08614475 0.07733327 0 0 0 0
-0.02596737 -0.00171591 -0.09963089 0 0 0 0
0.08724690 0.04362099 -0.07835070 0 0 0 0
0.09462206 -0.01239859 0.06479093 0 0 0 0
-0.03226964 -0.09911179 0.01924234 0 0 0 0
0.02138468 0.08508987 -0.08198269 0 0 0 0
0.09864309 0.04390819 0.02915509 0 0 0 0
0.08265265 -0.02724909 0.08445723 0 0 0 0
-0.05897005 -0.01710674 -0.09674333 0 0 0 0
-0.09233100 -0.07063740 0.02499757 0 0 0 0
0.09728023 -0.00790586 0.05586928 0 0 0 0
-0.09844522 0.03277050 -0.04061279 0 0 0 0
-0.06727000 0.00553488 -0.09401117 0 0 0 0
-0.08780981 -0.02465201 0.07900489 0 0 0 0
-0.09957571 -0.00307048 -0.00989366 0 0 0 0
0.06773208 0.03780589 -0.09330571 0 0 0 0
-0.08203980 -0.01976414 0.08508877 0 0 0 0
-0.09775068 0.00709405 0.05056352 0 0 0 0
0.08578006 -0.05966784 -0.07543929 0 0 0 0
-0.09735571 -0.05293795 0.03130928 0 0 0 0
0.05415251 -0.02135931 -0.09742372 0 0 0 0
0.09726085 -0.02182636 0.05447422 0 0 0 0
-0.08551216 0.08166341 0.01669360 0 0 0 0
-0.07738988 -0.08855084 0.01888726 0 0 0 0
0.09914817 0.02089480 -0.01931024 0 0 0 0
0.06471048 -0.05608030 -0.09222727 0 0 0 0
0.01678934 0.09897869 -0.03737313 0 0 0 0
0.00298333 -0.06767399 -0.09386983 0 0 0 0
-0.04408284 0.02249184 0.09860863 0 0 0 0
0.02859815 -0.03647004 -0.09906103 0 0 0 0
0.09957282 -0.02428934 0.01767259 0 0 0 0
0.09940471 0.01200451 0.02182706 0 0 0 0
0.09898867 0.03730657 -0.00193219 0 0 0 0
0.01657988 -0.09899192 -0.03362472 0 0 0 0
0.03832674 0.09768654 -0.05055671 0 0 0 0
-0.02947024 0.09905245 -0.02030911 0 0 0 0
0.09839834 -0.02812286 -0.04481434 0 0 0 0
-0.09880587 -0.03878041 -0.01210276 0 0 0 0
-0.08450740 -0.06991456 0.07003265 0 0 0 0
-0.07874131 0.03906985 -0.08700022 0 0 0 0
-0.08160929 -0.08562910 -0.02231641 0 0 0 0
-0.05272647 -0.00293599 -0.09766334 0 0 0 0
0.01690667 -0.06876274 -0.09348051 0 0 0 0
0.07879467 -0.08319007 -0.05889119 0 0 0 0
-0.09724684 0.05324440 0.01182723 0 0 0 0
-0.00814786 0.05990797 -0.09630169 0 0 0 0
-0.01289117 0.01514414 -0.09960350 0 0 0 0
0.06092437 -0.05092136 -0.09399621 0 0 0 0
-0.09473339 -0.06474694 -0.00680773 0 0 0 0
0.00061962 0.01730058 0.09976868 0 0 0 0
-0.02563624 -0.05997289 -0.09628087 0 0 0 0
0.05708900 0.07000077 -0.08963478 0 0 0 0
0.05585071 0.01252932 -0.09704564 0 0 0 0
-0.05853245 0.06399510 -0.09157328 0 0 0 0
0.04422684 0.03863893 -0.09807844 0 0 0 0
-0.06032305 -0.07548656 0.08503941 0 0 0 0
-0.05195381 -0.06025814 -0.09397094 0 0 0 0
-0.06513923 0.04044345 0.09426102 0 0 0 0
0.04904818 -0.00799389 -0.09836956 0 0 0 0
0.03518384 0.00723201 -0.09940740 0 0 0 0
-0.00283880 0.03690250 0.09927018 0 0 0 0
-0.07709706 0.00407250 -0.08906404 0 0 0 0
0.08003803 0.00308581 -0.08705889 0 0 0 0
-0.03508466 0.09887490 0.02781668 0 0 0 0
-0.04207005 -0.09752177 -0.04668370 0 0 0 0
-0.00730504 0.09943714 -0.01268604 0 0 0 0
-0.01141357 -0.02964420 -0.09946434 0 0 0 0
0.07436050 0.07943339 0.07287633 0 0 0 0
0.04155015 -0.08887970 0.07542796 0 0 0 0
-0.06996649 -0.08715868 -0.06360494 0 0 0 0
-0.08877675 -0.03891959 -0.07660362 0 0 0 0
-0.09688036 -0.01199635 -0.05572303 0 0 0 0
-0.05928652 -0.08868377 -0.06970847 0 0 0 0
-0.00083374 0.04813313 0.09833498 0 0 0 0
-0.06648323 0.01570106 0.09446488 0 0 0 0
-0.04725142 0.01043627 0.09840404 0 0 0 0
0.09887681 -0.03190304 -0.03089386 0 0 0 0
-0.09250675 0.06516172 -0.05276694 0 0 0 0
0.08426596 0.06939557 -0.07025024 0 0 0 0
0.09871197 0.03229801 -0.04230126 0 0 0 0
0.05460705 -0.09523533 -0.05244212 0 0 0 0
-0.04872377 0.08444370 0.08088654 0 0 0 0
-0.00082662 0.03397099 -0.09942012 0 0 0 0
0.09745233 0.05294488 0.01356782 0 0 0 0
-0.08048050 -0.07624593 0.06952899 0 0 0 0
-0.03979216 0.06641567 0.09381893 0 0 0 0
-0.08950798 -0.07190867 0.05372412 0 0 0 0
-0.09831682 0.01347702 -0.04834298 0 0 0 0
0.09339519 0.02357975 0.06873274 0 0 0 0
0.09521303 -0.01932712 -0.06310618 0 0 0 0
0.05861995 -0.03670006 -0.09614773 0 0 0 0
0.09937791 -0.02816262 0.00376857 0 0 0 0
0.00597712 -0.09887335 -0.04002450 0 0 0 0
0.08353072 0.03887317 -0.08280726 0 0 0 0
0.04175521 0.08824594 -0.07657623 0 0 0 0
-0.03920624 -0.09795631 -0.04163882 0 0 0 0
0.09498171 0.00475752 0.06411559 0 0 0 0
-0.08318019 0.07819144 -0.06037099 0 0 0 0
-0.05773843 -0.08008020 0.08240204 0 0 0 0
0.08070342 -0.08529352 -0.04232707 0 0 0 0
-0.06552588 -0.06101834 0.09026949 0 0 0 0
-0.09852286 -0.04333717 -0.01218622 0 0 0 0
0.09125158 0.03495956 -0.07247909 0 0 0 0
-0.09661508 0.05454261 -0.03496978 0 0 0 0
-0.09499170 -0.06320477 0.01649163 0 0 0 0
0.06791464 0.02274961 0.09395690 0 0 0 0
-0.04614541 0.09075416 -0.07117505 0 0 0 0
-0.04389925 0.03891190 -0.09828202 0 0 0 0
0.03866456 -0.05348119 -0.09691375 0 0 0 0
-0.09909405 -0.03003143 0.00772006 0 0 0 0
0.01953283 -0.09854383 0.04459331 0 0 0 0
-0.09944881 -0.00967208 0.02287974 0 0 0 0
-0.04398889 -0.02874757 0.09851910 0 0 0 0
-0.01168977 0.02014919 -0.09956197 0 0 0 0
0.07351704 0.00481501 0.09119765 0 0 0 0
-0.08536132 -0.05849887 -0.07634287 0 0 0 0
0.08948606 0.06841668 0.05957038 0 0 0 0
-0.04433924 0.09825977 -0.02803340 0 0 0 0
0.00652912 -0.00115950 -0.09971352 0 0 0 0
-0.00442292 0.08739553 0.08003599 0 0 0 0
-0.00116114 0.09963398 -0.01893007 0 0 0 0
0.09914810 0.03155452 0.02532730 0 0 0 0
0.02724072 -0.09151110 0.07283904 0 0 0 0
0.06824766 -0.09176060 -0.04900671 0 0 0 0
-0.08994944 -0.07574192 -0.01005097 0 0 0 0
-0.03049569 0.06283513 -0.09551983 0 0 0 0
0.02010246 0.06391177 -0.09543208 0 0 0 0
0.05168501 -0.04037357 -0.09706005 0 0 0 0
0.03157832 0.06820670 -0.09340214 0 0 0 0
-0.09468846 0.05244554 -0.05656471 0 0 0 0
0.01105814 0.06270789 -0.09579465 0 0 0 0
-0.08661362 0.05592858 -0.07585242 0 0 0 0
-0.00752496 -0.01344174 -0.09963609 0 0 0 0
0.09752636 0.03379676 -0.05085544 0 0 0 0
-0.04809696 0.09841605 -0.00645959 0 0 0 0
0.04030270 -0.04560747 0.09806310 0 0 0 0
0.08952886 -0.07179774 -0.05224462 0 0 0 0
-0.07344031 0.09091704 0.01489784 0 0 0 0
0.05732679 0.03654951 0.09627231 0 0 0 0
0.07755966 -0.01180949 -0.08881729 0 0 0 0
0.04615288 -0.09252770 -0.06749202 0 0 0 0
-0.05938505 -0.09478332 -0.04662982 0 0 0 0
0.02879215 -0.09131125 -0.07383151 0 0 0 0
-0.06571165 0.07733597 -0.08120059 0 0 0 0
-0.05708962 0.09190042 -0.06438514 0 0 0 0
0.02491084 -0.09461930 -0.06604132 0 0 0 0
-0.06462595 -0.09282883 0.04881833 0 0 0 0
0.07956575 0.02189640 -0.08733375 0 0 0 0
0.09919553 0.02891078 -0.00905920 0 0 0 0
0.09894197 0.01076351 -0.03917408 0 0 0 0
-0.05796789 0.09176491 0.06296022 0 0 0 0
-0.00754557 -0.09958103 0.01043232 0 0 0 0
0.09714833 0.05499896 -0.02201753 0 0 0 0
-0.04191234 0.07869488 -0.08713289 0 0 0 0
-0.06158490 -0.09550975 0.02709205 0 0 0 0
-0.09968551 0.00240941 0.00648715 0 0 0 0
-0.07974306 -0.08725706 -0.00266498 0 0 0 0
-0.07983896 0.08282770 0.05743236 0 0 0 0
0.05155498 -0.09369860 -0.06182829 0 0 0 0
0.03011950 -0.05332233 -0.09729093 0 0 0 0
-0.07959986 0.08713657 0.01766905 0 0 0 0
-0.09743754 0.00628294 -0.05276682 0 0 0 0
-0.01826617 -0.01313908 -0.09991015 0 0 0 0
0.09437186 -0.06035417 0.04684510 0 0 0 0
0.09773051 0.04710168 -0.03677417 0 0 0 0
0.05957387 0.09572759 -0.03587940 0 0 0 0
0.08637541 -0.08084407 0.01630081 0 0 0 0
0.03790393 0.09339164 -0.06721694 0 0 0 0
0.03094665 -0.09475596 -0.06368444 0 0 0 0
-0.02265424 0.07803264 0.08870670 0 0 0 0
-0.09280507 -0.07012764 -0.02192448 0 0 0 0
0.08312411 0.07234447 -0.06959291 0 0 0 0
0.06330256 -0.01281166 -0.09527610 0 0 0 0
0.09102370 -0.04693417 0.07130586 0 0 0 0
-0.07292291 -0.01720187 -0.09167291 0 0 0 0
0.03021585 0.01727175 -0.09941766 0 0 0 0
-0.09026398 -0.07539185 -0.01837548 0 0 0 0
0.08912475 -0.07688958 -0.00978231 0 0 0 0
-0.03414618 0.00150046 -0.09928544 0 0 0 0
0.03670258 0.09886274 0.01678139 0 0 0 0
0.01567588 -0.09949635 -0.02148418 0 0 0 0
-0.03436177 0.09794032 -0.04762057 0 0 0 0
-0.07122083 0.06840451 0.08432239 0 0 0 0
0.06081263 0.05431640 0.09368644 0 0 0 0
0.09580146 -0.06185656 -0.00403375 0 0 0 0
-0.09557470 0.06222111 0.01089148 0 0 0 0
0.00032967 -0.09836338 0.04529520 0 0 0 0
0.06916136 -0.00870109 0.09344933 0 0 0 0
0.08563204 0.01385560 -0.08168615 0 0 0 0
-0.07163818 -0.07484645 -0.08003338 0 0 0 0
-0.05416350 -0.00626407 0.09766109 0 0 0 0
0.08991744 0.05512724 0.07050375 0 0 0 0
-0.09798104 0.04952512 -0.01448581 0 0 0 0
-0.07360873 -0.09006921 -0.04482309 0 0 0 0
0.02516055 -0.09286732 -0.06941921 0 0 0 0
-0.03878475 -0.00149957 -0.09908912 0 0 0 0
0.07240655 -0.04486346 -0.09077647 0 0 0 0
-0.09205742 0.05609678 0.06356036 0 0 0 0
-0.00586765 -0.09481721 -0.06568454 0 0 0 0
-0.03397129 0.09660009 -0.05580665 0 0 0 0
-0.01519320 -0.01094748 -0.09961087 0 0 0 0
0.01000584 0.00764620 0.09976868 0 0 0 0
-0.09774245 0.00636880 -0.05194759 0 0 0 0
0.00544447 0.05955710 -0.09638092 0 0 0 0
0.01771430 0.02307833 -0.09951711 0 0 0 0
0.07431067 0.08539803 -0.06162082 0 0 0 0
0.09114473 -0.06215904 -0.06107559 0 0 0 0
0.03828321 -0.09896518 -0.00748057 0 0 0 0
0.08414017 0.03634094 0.08275266 0 0 0 0
-0.03391057 -0.09903546 -0.02787639 0 0 0 0
-0.01450548 -0.08176680 0.08572651 0 0 0 0
0.09108053 -0.05147542 0.06923091 0 0 0 0
0.05227575 0.00573673 -0.09771498 0 0 0 0
0.07186358 -0.09178440 0.00861726 0 0 0 0
0.00531850 -0.00101555 -0.09972814 0 0 0 0
-0.09614657 -0.05463713 -0.04177028 0 0 0 0
-0.09244119 0.07097050 -0.01297822 0 0 0 0
-0.09907939 -0.00331210 -0.03343096 0 0 0 0
-0.07999880 0.07465506 -0.07164750 0 0 0 0
-0.09950512 0.01684613 -0.01012614 0 0 0 0
0.08599100 -0.04487266 0.07992601 0 0 0 0
0.05707712 0.04172384 -0.09615789 0 0 0 0
0.05080610 -0.09800752 -0.02347794 0 0 0 0
-0.08868747 -0.07764639 -0.00845508 0 0 0 0
0.05947753 0.09401046 0.05282491 0 0 0 0
-0.04479006 0.02473135 -0.09879199 0 0 0 0
0.01799787 0.02071690 -0.09974772 0 0 0 0
0.08138063 -0.08529754 -0.03787068 0 0 0 0
-0.07461290 -0.01922373 0.09064936 0 0 0 0
0.09776793 -0.03885572 0.04387060 0 0 0 0
-0.09831712 -0.04652768 0.01201733 0 0 0 0
0.05187673 -0.01049811 -0.09783538 0 0 0 0
0.09902053 0.00935588 0.03939090 0 0 0 0
0.00679308 -0.00821763 0.09976868 0 0 0 0
-0.02444802 0.09908412 0.03761990 0 0 0 0
-0.01854651 -0.00101814 -0.09994554 0 0 0 0
0.09876954 0.03629167 -0.02093765 0 0 0 0
0.03410044 0.08819702 -0.07778786 0 0 0 0
0.01408709 -0.05496604 -0.09735929 0 0 0 0
0.09846009 -0.01482800 -0.04369341 0 0 0 0
0.09346427 -0.05392835 -0.05987776 0 0 0 0
-0.07545236 0.07184733 0.07929425 0 0 0 0
0.08891539 0.07343150 0.05104060 0 0 0 0
0.09566315 -0.02232100 0.06099122 0 0 0 0
-0.02917017 -0.05972796 -0.09617268 0 0 0 0
-0.04794331 0.09643932 -0.04907904 0 0 0 0
-0.05903941 -0.08192270 0.08054137 0 0 0 0
-0.08305135 -0.08391888 0.02751155 0 0 0 0
0.03313845 0.08675210 0.08045418 0 0 0 0
-0.08631824 0.04310739 -0.07927013 0 0 0 0
-0.09821157 -0.01537238 0.04729306 0 0 0 0
-0.04616338 0.08390681 -0.08163494 0 0 0 0
-0.00491883 -0.09730951 0.05468841 0 0 0 0
0.09259955 -0.05085732 0.06450571 0 0 0 0
0.09458502 0.04315510 0.06149606 0 0 0 0
-0.00395646 -0.08965506 -0.07622791 0 0 0 0
0.09182782 0.03200014 0.07158335 0 0 0 0
-0.06838270 -0.00196706 -0.09354897 0 0 0 0
-0.03362487 -0.04238820 -0.09853340 0 0 0 0
-0.08661298 -0.08110566 -0.00070185 0 0 0 0
-0.02858405 0.03900746 -0.09912990 0 0 0 0
-0.09858577 -0.03091371 -0.03594952 0 0 0 0
-0.03095015 0.08006369 -0.08684473 0 0 0 0
0.04946325 0.09791990 0.02510205 0 0 0 0
0.09592663 0.02267726 -0.06044037 0 0 0 0
-0.02860102 -0.03146862 -0.09921309 0 0 0 0
0.04768265 -0.07991419 -0.08509474 0 0 0 0
0.02189485 -0.08060014 -0.08672206 0 0 0 0
0.05258887 0.08118258 -0.08330087 0 0 0 0
-0.09386593 -0.06694929 -0.00002107 0 0 0 0
-0.07364877 0.07092499 -0.08122758 0 0 0 0
0.03801803 0.05994185 -0.09586606 0 0 0 0
-0.06362292 -0.06913760 0.08809298 0 0 0 0
0.08630551 0.07153220 -0.06454401 0 0 0 0
0.09231167 0.06360675 0.05598391 0 0 0 0
0.09116903 0.06949605 -0.05133291 0 0 0 0
0.02207836 -0.05471233 0.09742282 0 0 0 0
0.02281548 -0.00931641 0.09976868 0 0 0 0
0.09321467 0.01599474 -0.06905885 0 0 0 0
0.03577679 -0.09057321 -0.07406183 0 0 0 0
-0.00698121 -0.04892760 -0.09815773 0 0 0 0
0.02205970 -0.07226537 0.09172394 0 0 0 0
-0.06494532 -0.09023909 0.06172320 0 0 0 0
-0.09483780 0.06301125 -0.03078772 0 0 0 0
-0.04374954 -0.09141698 -0.07021229 0 0 0 0
0.00606087 0.09953218 0.01697986 0 0 0 0
-0.01112480 -0.09516822 -0.06434911 0 0 0 0
0.00951759 -0.04391477 -0.09887168 0 0 0 0
0.02116304 -0.06343851 0.09523566 0 0 0 0
-0.01571999 -0.09803912 -0.04924617 0 0 0 0
-0.08331480 0.01611796 0.08416707 0 0 0 0
-0.01185542 -0.04233770 -0.09893333 0 0 0 0
0.04054827 -0.08435321 -0.08239660 0 0 0 0
-0.08191236 0.08513372 -0.01590899 0 0 0 0
-0.07211627 -0.03494379 -0.09166267 0 0 0 0
0.07173853 0.04535481 0.09066287 0 0 0 0
-0.06762530 -0.03315735 0.09373589 0 0 0 0
-0.09610810 -0.06007258 0.02109559 0 0 0 0
-0.08486903 0.00449418 -0.08246280 0 0 0 0
-0.09680505 -0.02965577 -0.05560040 0 0 0 0
0.00532138 -0.09922677 -0.03176173 0 0 0 0
0.01273153 -0.09958309 -0.00883594 0 0 0 0
0.09957846 0.00964987 -0.00268965 0 0 0 0
-0.01060170 -0.09842445 -0.04636137 0 0 0 0
0.08792242 -0.07931445 -0.00124004 0 0 0 0
0.00686692 -0.00223117 -0.09985595 0 0 0 0
-0.09958739 -0.00916663 -0.01079838 0 0 0 0
-0.06103813 0.01399118 -0.09607396 0 0 0 0
-0.08652133 0.08047195 -0.00135569 0 0 0 0
0.03243100 0.07605775 -0.08953464 0 0 0 0
-0.09730174 -0.04921168 -0.03734187 0 0 0 0
0.06124320 0.09280355 -0.05551877 0 0 0 0
0.04117235 0.04979672 -0.09728684 0 0 0 0
-0.00116632 -0.00785037 -0.09986696 0 0 0 0
0.09355057 0.01150966 -0.06844229 0 0 0 0
-0.04754930 -0.09640994 -0.05166800 0 0 0 0
0.09337146 0.01018572 -0.06859029 0 0 0 0
-0.03150865 -0.09905007 0.02306481 0 0 0 0
0.09844880 -0.03304124 -0.03743856 0 0 0 0
-0.05720031 0.09297002 0.05959851 0 0 0 0
0.06680040 0.08290807 -0.07505332 0 0 0 0
0.02940472 -0.04362632 0.09853198 0 0 0 0
-0.06654499 -0.03232226 -0.09393323 0 0 0 0
0.01089741 0.09944316 -0.02158808 0 0 0 0
0.09085003 0.07005005 0.04757393 0 0 0 0
0.08737814 0.07399640 -0.05508477 0 0 0 0
-0.08669673 -0.04493954 -0.07812695 0 0 0 0
0.02661194 -0.09814025 -0.04723438 0 0 0 0
-0.09043377 0.00607394 -0.07502100 0 0 0 0
-0.09477426 -0.05088465 -0.05636473 0 0 0 0
-0.02457010 0.06797101 -0.09356691 0 0 0 0
-0.08576296 0.08147628 -0.02307418 0 0 0 0
0.09376617 0.03205998 0.06629131 0 0 0 0
-0.08052476 -0.07180189 -0.07377590 0 0 0 0
-0.00167571 0.00212209 -0.09980164 0 0 0 0
0.01272419 0.04521414 -0.09881243 0 0 0 0
0.06901533 -0.09291608 0.03708234 0 0 0 0
-0.08209984 -0.08043008 -0.05788354 0 0 0 0
0.09801726 -0.05008786 0.02280464 0 0 0 0
-0.00106091 0.09151636 0.07287256 0 0 0 0
-0.02769846 0.09576663 -0.05993257 0 0 0 0
-0.00690736 -0.01789374 -0.09996795 0 0 0 0
-0.09496474 0.03643177 -0.06217732 0 0 0 0
-0.05878618 0.04761809 -0.09526243 0 0 0 0
0.04769050 -0.09836207 0.00549591 0 0 0 0
-0.02170124 -0.09934676 -0.00969549 0 0 0 0
0.08781240 -0.05863000 0.07228386 0 0 0 0
0.05305797 0.09551757 -0.05290388 0 0 0 0
-0.00055973 -0.01634476 -0.09995808 0 0 0 0
0.02525770 -0.01607138 0.09976868 0 0 0 0
-0.00490112 0.09940311 -0.01729497 0 0 0 0
-0.02359946 -0.09853278 -0.03986436 0 0 0 0
-0.03428323 0.07299871 -0.09111488 0 0 0 0
0.03650813 -0.06553353 -0.09409803 0 0 0 0
-0.09134017 -0.05611924 -0.06620760 0 0 0 0
-0.00963452 0.00285150 0.09976868 0 0 0 0
-0.06735243 -0.09184772 0.04882161 0 0 0 0
-0.03021580 -0.09867825 -0.03635579 0 0 0 0
0.09201847 -0.07099827 -0.01825589 0 0 0 0
0.07052635 -0.03487518 -0.09225048 0 0 0 0
0.01425059 0.09639701 0.05839100 0 0 0 0
0.06189836 0.04109732 -0.09507225 0 0 0 0
-0.05239348 0.06003196 -0.09395731 0 0 0 0
0.00535492 -0.01845944 0.09976868 0 0 0 0
0.07416943 0.05550340 -0.08741718 0 0 0 0
0.09320863 -0.06863958 0.00378336 0 0 0 0
0.07480497 0.01452905 -0.09050902 0 0 0 0
0.00601376 0.06589803 -0.09447696 0 0 0 0
-0.07514828 -0.05909910 -0.08624224 0 0 0 0
-0.00540572 -0.09854141 0.04345059 0 0 0 0
-0.05109803 -0.06728972 0.09182201 0 0 0 0
-0.01734895 0.05447095 -0.09742014 0 0 0 0
0.01085426 0.08462757 -0.08331160 0 0 0 0
0.02480718 0.01287087 -0.09951315 0 0 0 0
-0.01479838 -0.06629618 0.09456208 0 0 0 0
0.05385274 0.01403628 0.09776046 0 0 0 0
0.00776705 -0.02402284 -0.09971251 0 0 0 0
0.07627566 -0.06195141 -0.08419143 0 0 0 0
0.02567394 0.05630217 -0.09711172 0 0 0 0
-0.08695746 -0.08009095 -0.01931270 0 0 0 0
-0.09109160 -0.01328558 -0.07340422 0 0 0 0
-0.02361194 -0.09152587 0.07240250 0 0 0 0
0.09758292 0.03963066 -0.04780385 0 0 0 0
-0.05439756 0.09495528 0.05297013 0 0 0 0
0.09930722 -0.00260014 0.03637041 0 0 0 0
0.07094149 -0.06779670 -0.08490667 0 0 0 0
0.00262197 -0.00442716 -0.09973522 0 0 0 0
0.09679870 -0.05671743 -0.01920779 0 0 0 0
-0.09921289 -0.02376030 -0.01339022 0 0 0 0
0.03180274 0.00287776 -0.09938483 0 0 0 0
0.09313148 -0.00532008 0.07022364 0 0 0 0
0.04589366 0.09403963 -0.06364837 0 0 0 0
0.07919924 -0.07606851 -0.07107939 0 0 0 0
-0.09337208 0.06342227 0.04768150 0 0 0 0
-0.08869065 -0.06988470 -0.05938820 0 0 0 0
-0.08857907 0.00706142 0.07798855 0 0 0 0
-0.04506182 -0.09373285 -0.06439929 0 0 0 0
0.08460984 0.05168932 -0.07955199 0 0 0 0
-0.03532215 0.08536398 -0.08135965 0 0 0 0
-0.02378558 -0.09949486 -0.00025441 0 0 0 0
0.04860473 0.08872896 -0.07433875 0 0 0 0
-0.00990271 0.06845278 -0.09348302 0 0 0 0
-0.04196312 0.03218256 -0.09881939 0 0 0 0
0.02367556 0.08569615 -0.08153013 0 0 0 0
-0.08866851 0.07791336 -0.00072083 0 0 0 0
0.01302496 0.09907486 -0.03282348 0 0 0 0
-0.08717293 -0.07947724 -0.02880346 0 0 0 0
0.04470639 0.09528248 -0.05768830 0 0 0 0
0.00372244 -0.07866811 -0.08804499 0 0 0 0
0.04808555 0.03353181 -0.09804099 0 0 0 0
-0.09020412 -0.01177502 -0.07531799 0 0 0 0
0.08893284 -0.04328115 -0.07553284 0 0 0 0
0.08997907 -0.06723510 0.05988960 0 0 0 0
0.07757805 0.00552456 -0.08878494 0 0 0 0
-0.05409096 -0.03539166 0.09710624 0 0 0 0
0.04152717 -0.00294761 -0.09897337 0 0 0 0
0.09920723 0.03241277 -0.02466715 0 0 0 0
-0.04627306 0.09777845 -0.03358214 0 0 0 0
-0.08783823 -0.07821949 -0.03318266 0 0 0 0
0.02779662 -0.06448656 -0.09496708 0 0 0 0
0.08934559 -0.04810037 -0.07342350 0 0 0 0
-0.02302052 -0.00732973 0.09976868 0 0 0 0
0.00867068 0.05203335 -0.09779554 0 0 0 0
-0.05195259 -0.04845656 0.09624519 0 0 0 0
0.01105159 -0.09954019 0.02595284 0 0 0 0
0.01434931 -0.06065997 -0.09615503 0 0 0 0
-0.03957165 -0.06468105 -0.09425986 0 0 0 0
-0.09689511 -0.05721869 -0.00114990 0 0 0 0
0.01624514 -0.08740540 -0.07972928 0 0 0 0
-0.01222827 0.09712942 -0.05434031 0 0 0 0
-0.00630473 0.05436077 0.09760333 0 0 0 0
-0.09183274 0.07147847 0.02456526 0 0 0 0
0.02881313 0.09918712 -0.01529908 0 0 0 0
0.03974066 -0.06723337 -0.09338149 0 0 0 0
0.07644425 -0.08758394 -0.04732183 0 0 0 0
-0.01374752 -0.09940763 0.02597299 0 0 0 0
0.00090388 -0.09960604 -0.02636828 0 0 0 0
0.02964398 0.01311764 -0.09946263 0 0 0 0
0.01981827 -0.09897270 -0.02833912 0 0 0 0
-0.09844635 -0.04542670 -0.02399950 0 0 0 0
0.09789471 0.04886739 -0.02553062 0 0 0 0
-0.01060877 -0.07702418 0.08940806 0 0 0 0
-0.02948596 -0.08082522 -0.08610711 0 0 0 0
-0.07737749 0.08843007 -0.01976821 0 0 0 0
-0.06411751 -0.09463950 -0.02999138 0 0 0 0
0.09950628 -0.01159394 -0.00509198 0 0 0 0
-0.04193866 -0.01619816 -0.09894492 0 0 0 0
0.06894819 0.09302628 0.01178151 0 0 0 0
-0.09798293 -0.02364500 -0.04821309 0 0 0 0
0.09905959 0.03160395 0.00794596 0 0 0 0
-0.06877957 -0.09290273 -0.02603135 0 0 0 0
-0.05150591 0.08728344 -0.07649689 0 0 0 0
-0.08756322 -0.07166975 -0.06158656 0 0 0 0
0.07186145 0.09204439 0.02825324 0 0 0 0
-0.08562927 0.01392676 -0.08152674 0 0 0 0
-0.02826180 -0.00578455 0.09976868 0 0 0 0
0.01015901 0.03990087 0.09901684 0 0 0 0
0.08593562 -0.08046336 -0.02994983 0 0 0 0
0.03921989 0.09810532 -0.04394453 0 0 0 0
-0.07889440 -0.08101200 0.06325684 0 0 0 0
-0.05211993 0.01417289 0.09799707 0 0 0 0
-0.09538709 0.04217640 -0.06116683 0 0 0 0
-0.09599864 -0.04568782 -0.05327377 0 0 0 0
0.01584282 -0.01565808 -0.09958455 0 0 0 0
0.05943613 -0.09533311 0.04047969 0 0 0 0
-0.06406574 -0.09482127 0.00386699 0 0 0 0
-0.00073907 -0.06268956 0.09548755 0 0 0 0
-0.00250130 -0.09529889 -0.06315683 0 0 0 0
-0.07560073 0.08977962 0.00792131 0 0 0 0
0.01896147 0.09943890 0.01976867 0 0 0 0
-0.05390348 -0.04531199 0.09624553 0 0 0 0
0.05938681 0.09622367 -0.02055084 0 0 0 0
0.03625949 -0.09822096 -0.03938320 0 0 0 0
-0.09940676 -0.00099408 0.02726959 0 0 0 0
0.05301830 -0.03638690 -0.09726949 0 0 0 0
-0.07647688 -0.07347850 0.07679410 0 0 0 0
0.03708801 -0.09381773 0.06544833 0 0 0 0
0.01984889 -0.02900410 -0.09945731 0 0 0 0
0.03611942 0.09370595 -0.06677647 0 0 0 0
0.09471364 0.03213134 -0.06372357 0 0 0 0
-0.09806876 0.03142418 -0.04682420 0 0 0 0
0.04654655 -0.01527927 -0.09875388 0 0 0 0
0.09971923 0.00626812 -0.01637005 0 0 0 0
0.02197409 0.04857602 -0.09834561 0 0 0 0
-0.01281730 0.01385687 0.09976868 0 0 0 0
-0.09753890 -0.05128150 -0.01813429 0 0 0 0
-0.01888520 -0.09937950 -0.02592722 0 0 0 0
-0.09050860 0.06077915 0.06435342 0 0 0 0
0.00799137 -0.09496798 -0.06396836 0 0 0 0
0.00064632 0.03299315 -0.09933382 0 0 0 0
-0.02870337 0.09905078 -0.03396256 0 0 0 0
-0.06042513 0.09601239 -0.00368875 0 0 0 0
0.04970102 0.09793971 -0.02088214 0 0 0 0
-0.09879444 0.01621378 -0.04455508 0 0 0 0
-0.09483723 0.06351259 -0.02348766 0 0 0 0
0.09762453 -0.04152346 0.04594525 0 0 0 0
0.09923402 -0.01140593 -0.02474736 0 0 0 0
-0.07846172 0.07713701 -0.07033315 0 0 0 0
-0.02568378 0.08876302 0.07712574 0 0 0 0
-0.05782483 0.09253100 -0.06098884 0 0 0 0
-0.02198956 -0.00361703 -0.09979884 0 0 0 0
0.01934933 0.02860216 -0.09946217 0 0 0 0
0.06920963 -0.00685617 0.09345480 0 0 0 0
0.00439152 -0.03900288 -0.09907782 0 0 0 0
0.04254247 -0.09880830 -0.00654926 0 0 0 0
-0.00051948 0.09942882 0.02176959 0 0 0 0
0.07958446 -0.08654330 -0.03560825 0 0 0 0
0.05844837 0.08582399 -0.07556349 0 0 0 0
-0.08256773 0.07725815 0.06287534 0 0 0 0
-0.07475522 -0.00738604 -0.09059902 0 0 0 0
0.00208727 -0.00255342 0.09976868 0 0 0 0
-0.06091265 0.09579080 -0.01521257 0 0 0 0
0.06138206 -0.09455769 -0.04609038 0 0 0 0
-0.03319526 0.07595281 -0.08966798 0 0 0 0
-0.09613493 -0.05878025 0.01824921 0 0 0 0
-0.01560859 -0.09775759 -0.05202196 0 0 0 0
0.00144909 -0.04371647 -0.09888007 0 0 0 0
-0.09969962 -0.00023768 0.01280059 0 0 0 0
0.05502435 0.05479096 -0.09468568 0 0 0 0
0.03649472 0.08141168 0.08519099 0 0 0 0
0.07911362 0.00465387 0.08818220 0 0 0 0
-0.07795545 -0.02695386 -0.08827177 0 0 0 0
-0.02747887 0.09870730 -0.04088501 0 0 0 0
0.01566486 -0.09955510 -0.01010411 0 0 0 0
-0.07673150 0.08886747 -0.03018225 0 0 0 0
0.04264122 0.08464102 -0.08121820 0 0 0 0
-0.03642306 -0.01126568 0.09930371 0 0 0 0
-0.00495642 0.01632145 0.09976868 0 0 0 0
0.00753777 0.09940632 -0.02163497 0 0 0 0
0.04907305 0.09777721 -0.02947431 0 0 0 0
-0.09575646 -0.00564759 -0.06213101 0 0 0 0
0.08170236 0.02261323 0.08535281 0 0 0 0
-0.06600757 0.08938903 0.06263430 0 0 0 0
0.06099778 -0.09575346 -0.01023590 0 0 0 0
-0.09930976 -0.01844200 0.01362594 0 0 0 0
-0.06946186 -0.01346815 -0.09322300 0 0 0 0
-0.09350179 0.06755963 0.02239494 0 0 0 0
-0.09092121 -0.04523718 -0.07081228 0 0 0 0
0.06716761 -0.04485205 -0.09299569 0 0 0 0
0.09889310 -0.03841817 -0.02839327 0 0 0 0
-0.05195282 -0.00772933 -0.09781829 0 0 0 0
-0.01437154 0.05419809 0.09763879 0 0 0 0
-0.09044749 -0.05248048 -0.06955882 0 0 0 0
-0.09309571 0.05838168 -0.05842174 0 0 0 0
-0.08460162 0.07860781 0.05658413 0 0 0 0
0.09516039 -0.05936857 0.04272074 0 0 0 0
0.04865476 0.09165590 -0.06849789 0 0 0 0
-0.02119330 0.04976919 -0.09798503 0 0 0 0
-0.09924828 -0.02909805 -0.01889090 0 0 0 0
-0.01564913 0.06205175 -0.09588321 0 0 0 0
-0.06886712 0.01652793 -0.09343491 0 0 0 0
-0.00366007 -0.09218220 -0.07117668 0 0 0 0
-0.08610961 0.07629694 -0.05476077 0 0 0 0
-0.04017095 0.08666404 -0.07924076 0 0 0 0
-0.06022499 0.02780436 -0.09611183 0 0 0 0
0.09460323 0.02764917 0.06452720 0 0 0 0
-0.04153221 -0.08793014 -0.07760723 0 0 0 0
0.07260125 -0.04728055 -0.09047519 0 0 0 0
-0.07225145 -0.03931313 0.09105939 0 0 0 0
-0.05281816 -0.07921711 -0.08487952 0 0 0 0
-0.05731059 0.05190747 0.09484132 0 0 0 0
-0.09721329 -0.05265004 -0.03031366 0 0 0 0
-0.02084398 -0.09963644 -0.01001280 0 0 0 0
-0.04582264 -0.09821660 0.01615585 0 0 0 0
0.08630960 -0.07968988 -0.03584097 0 0 0 0
-0.03951300 -0.09889778 -0.01420488 0 0 0 0
0.09948717 -0.01482087 0.02517467 0 0 0 0
0.03118018 0.08433562 -0.08327165 0 0 0 0
-0.09798356 0.04760820 0.02013231 0 0 0 0
-0.01079173 0.09556678 -0.06255976 0 0 0 0
-0.07283673 -0.07660725 0.07713522 0 0 0 0
0.06706426 -0.09409194 0.00924175 0 0 0 0
-0.07950585 0.08735940 -0.02341185 0 0 0 0
0.00241449 -0.09917907 0.03744725 0 0 0 0
-0.05607885 -0.03989887 -0.09662602 0 0 0 0
-0.01461989 0.09901036 0.03903563 0 0 0 0
-0.02634993 -0.06105854 -0.09586623 0 0 0 0
0.05519583 0.09703659 -0.01394866 0 0 0 0
0.05886860 -0.02311116 -0.09641889 0 0 0 0
-0.00576467 -0.01290942 -0.09992203 0 0 0 0
-0.01882383 -0.00772508 0.09976868 0 0 0 0
0.09923311 -0.02661428 -0.00547392 0 0 0 0
-0.09933190 -0.01586505 -0.02902573 0 0 0 0
0.05861154 0.08807743 0.07167710 0 0 0 0
-0.03403750 0.04538998 -0.09844713 0 0 0 0
0.00705004 0.05320952 -0.09760252 0 0 0 0
-0.02116674 -0.09149501 -0.07266932 0 0 0 0
0.05306344 0.09120325 -0.06753024 0 0 0 0
0.09555326 0.05738403 -0.04499919 0 0 0 0
-0.07391892 0.09110763 -0.00694131 0 0 0 0
-0.03268632 -0.09025575 -0.07461903 0 0 0 0
0.08124594 0.08249528 0.05486841 0 0 0 0
-0.03680184 0.02211633 0.09918364 0 0 0 0
-0.09933454 -0.01955729 0.02099645 0 0 0 0
0.09452524 0.06499693 0.01216383 0 0 0 0
-0.08814570 -0.02138409 -0.07850760 0 0 0 0
0.00216329 -0.01239386 -0.09991606 0 0 0 0
0.07839657 0.08776169 -0.03057688 0 0 0 0
-0.03138440 0.07400058 0.09066197 0 0 0 0
0.09924853 -0.02707128 0.03052859 0 0 0 0
-0.08862366 0.07487710 0.04723354 0 0 0 0
-0.01273468 -0.05692885 0.09696291 0 0 0 0
0.07869096 -0.03288031 -0.08748610 0 0 0 0
-0.05451560 -0.05448509 -0.09480751 0 0 0 0
0.08595677 -0.03449774 -0.08050714 0 0 0 0
0.06292707 0.07597098 -0.08423062 0 0 0 0
0.03046108 0.09415683 -0.06636345 0 0 0 0
-0.02063838 0.02612091 -0.09947966 0 0 0 0
0.04997050 -0.04283114 -0.09726012 0 0 0 0
-0.08853830 -0.01221093 0.07787105 0 0 0 0
0.00509837 0.01117485 0.09976868 0 0 0 0
-0.04890011 0.09472979 -0.05966637 0 0 0 0
0.09089572 -0.07312222 -0.03674249 0 0 0 0
0.09911679 -0.03516825 -0.01207056 0 0 0 0
0.06180526 -0.09512108 0.03789306 0 0 0 0
-0.01543100 0.01053471 -0.09995637 0 0 0 0
-0.05728177 -0.03898351 0.09615903 0 0 0 0
0.04082317 -0.00506797 -0.09900362 0 0 0 0
0.00124975 -0.09720786 0.05600541 0 0 0 0
0.06986748 -0.04814835 -0.09136000 0 0 0 0
0.09482618 -0.06488816 -0.00349418 0 0 0 0
0.01666152 0.09799061 -0.04806081 0 0 0 0
0.06527761 -0.08486575 -0.07323696 0 0 0 0
0.09498428 -0.01700608 0.06399517 0 0 0 0
0.09737734 0.04959821 -0.03368967 0 0 0 0
-0.06611410 0.01879224 0.09458096 0 0 0 0
-0.00587383 -0.06248193 -0.09581339 0 0 0 0
-0.02353773 -0.07259783 -0.09182516 0 0 0 0
0.09229748 0.06068077 0.05933684 0 0 0 0
0.09508373 -0.06343630 0.01668343 0 0 0 0
-0.08943661 -0.06907497 -0.05844986 0 0 0 0
0.06022708 -0.09556250 -0.03515348 0 0 0 0
-0.09925939 -0.00499376 -0.02293051 0 0 0 0
-0.09910443 0.03749854 -0.00189380 0 0 0 0
0.02870707 0.07769076 -0.08851954 0 0 0 0
-0.00035841 -0.09960347 -0.00868640 0 0 0 0
-0.08420625 0.03070536 -0.08326516 0 0 0 0
0.01190780 0.02902808 0.09976868 0 0 0 0
-0.04467348 0.09853198 0.01564258 0 0 0 0
-0.08531626 0.02887663 -0.08180188 0 0 0 0
-0.09049289 0.05800493 -0.06697880 0 0 0 0
-0.09523573 -0.06044620 -0.03810585 0 0 0 0
-0.08598198 -0.07443053 -0.06036446 0 0 0 0
0.04997976 -0.08229959 -0.08229351 0 0 0 0
0.02611251 0.05744216 0.09668912 0 0 0 0
0.01503575 0.03859766 -0.09908627 0 0 0 0
-0.05683609 -0.09034478 -0.06758364 0 0 0 0
0.07586343 0.08630305 0.05662362 0 0 0 0
-0.03638732 -0.03579535 -0.09891775 0 0 0 0
-0.07703532 0.04573349 -0.08759395 0 0 0 0
0.01390994 0.09925406 0.02987882 0 0 0 0
0.09844527 0.01228764 0.04405427 0 0 0 0
0.06572534 0.09375960 -0.04164246 0 0 0 0
-0.04068853 0.03590357 0.09852447 0 0 0 0
0.09953000 -0.01547915 -0.01369186 0 0 0 0
0.04249055 0.09590141 -0.05680269 0 0 0 0
0.04738655 0.09185722 0.06859954 0 0 0 0
-0.00447923 -0.09942137 0.03561180 0 0 0 0
-0.04007294 -0.06785814 0.09316410 0 0 0 0
-0.09869885 -0.02827488 -0.03986519 0 0 0 0
0.07790979 -0.00140888 -0.08854827 0 0 0 0
-0.09691755 0.03509880 -0.05257751 0 0 0 0
-0.06129656 0.09565301 -0.00946301 0 0 0 0
-0.08183217 -0.05943933 -0.07980751 0 0 0 0
-0.01426705 -0.09390230 -0.06727330 0 0 0 0
0.08338077 -0.08413313 0.00100386 0 0 0 0
0.09840729 -0.04607718 -0.00499697 0 0 0 0
-0.09493131 -0.06356177 0.03416233 0 0 0 0
0.03317657 0.09946749 -0.02257662 0 0 0 0
0.02165275 0.07754041 0.08907159 0 0 0 0
-0.08222429 0.08411394 -0.03851511 0 0 0 0
-0.08788627 -0.07208841 -0.05834639 0 0 0 0
-0.09530964 -0.06289209 0.00292951 0 0 0 0
-0.08373305 0.03361965 0.08319554 0 0 0 0
0.09937979 0.02378687 0.00777905 0 0 0 0
-0.06621417 -0.05366684 -0.09190687 0 0 0 0
-0.09075649 -0.06534605 -0.05975178 0 0 0 0
0.04750334 0.06792408 0.09211353 0 0 0 0
-0.09770775 -0.05244440 -0.01257871 0 0 0 0
-0.02450004 0.09945001 0.01756479 0 0 0 0
0.00068022 0.00401646 -0.09974082 0 0 0 0
0.05059548 -0.00771031 -0.09794238 0 0 0 0
0.00290634 0.09836512 0.04511023 0 0 0 0
0.09572832 -0.06214719 -0.00999709 0 0 0 0
-0.00753348 0.07049210 0.09273650 0 0 0 0
-0.05183793 0.00965241 -0.09784193 0 0 0 0
0.05405589 -0.07576281 -0.08675983 0 0 0 0
0.02140252 -0.08093648 -0.08659941 0 0 0 0
0.09448565 0.04015803 -0.06328155 0 0 0 0
-0.03007645 0.02872910 0.09942992 0 0 0 0
0.09693567 -0.00688556 -0.05590455 0 0 0 0
0.01930776 0.02950158 -0.09942736 0 0 0 0
-0.05924762 -0.05861536 -0.09304173 0 0 0 0
-0.07886725 0.07397039 -0.07365657 0 0 0 0
-0.04956339 0.08509225 0.07967863 0 0 0 0
0.09962588 -0.00779128 -0.02500679 0 0 0 0
-0.04100894 -0.09794781 -0.03929432 0 0 0 0
-0.09801766 -0.04108483 0.04101761 0 0 0 0
-0.08575325 -0.08168384 -0.01355996 0 0 0 0
-0.00501973 0.01192162 -0.09991192 0 0 0 0
0.07038697 -0.01711631 0.09272400 0 0 0 0
-0.05104442 -0.01122607 -0.09796052 0 0 0 0
-0.09924059 -0.01679612 0.03421732 0 0 0 0
-0.07299647 -0.08268841 0.07034233 0 0 0 0
-0.09829846 0.00387491 -0.04785328 0 0 0 0
-0.04574461 -0.09823576 0.02184629 0 0 0 0
0.05451016 0.02148150 -0.09725069 0 0 0 0
0.04083032 -0.06534810 -0.09386704 0 0 0 0
0.00706237 0.09890450 -0.04088334 0 0 0 0
0.09579499 0.05377344 -0.04924720 0 0 0 0
-0.09733342 -0.03933053 0.04911602 0 0 0 0
-0.01370279 0.06689376 -0.09418163 0 0 0 0
-0.09833770 -0.04594640 0.02547882 0 0 0 0
-0.04642866 -0.09837531 -0.02427478 0 0 0 0
-0.06131247 0.00204784 0.09583899 0 0 0 0
-0.03591963 0.03434888 -0.09896161 0 0 0 0
0.09953014 0.03140108 -0.00381009 0 0 0 0
0.09641470 0.00633388 -0.05879395 0 0 0 0
0.03330062 -0.09923372 -0.00712456 0 0 0 0
-0.08266582 -0.04202347 -0.08339925 0 0 0 0
-0.05908764 -0.01058679 -0.09669360 0 0 0 0
-0.08986375 -0.07589434 -0.01317464 0 0 0 0
0.07667632 0.01751352 -0.08922406 0 0 0 0
-0.06779986 0.09290683 -0.04449667 0 0 0 0
-0.01705033 -0.09758141 0.05433547 0 0 0 0
0.09443361 -0.01186442 0.06538081 0 0 0 0
-0.03713594 -0.03237085 -0.09911898 0 0 0 0
0.00412381 0.09871262 -0.04174759 0 0 0 0
0.09831624 0.02752148 -0.04498809 0 0 0 0
0.08550917 -0.08155435 0.03022737 0 0 0 0
0.04992034 0.09605487 0.05154505 0 0 0 0
0.09838606 -0.04494078 -0.02194950 0 0 0 0
0.07930972 0.08617242 -0.04226453 0 0 0 0
-0.06889960 0.09335410 -0.02001855 0 0 0 0
-0.03034936 -0.01684880 -0.09941760 0 0 0 0
0.07103535 -0.09147608 -0.03956601 0 0 0 0
0.01037530 -0.09942427 0.00359865 0 0 0 0
0.06995621 -0.04994424 0.09090398 0 0 0 0
0.08512969 -0.06586557 -0.07185240 0 0 0 0
-0.02942134 -0.09913470 0.02072639 0 0 0 0
-0.04582335 0.09599856 -0.05532206 0 0 0 0
0.04753819 -0.00805344 -0.09864064 0 0 0 0
-0.09946028 0.02932671 -0.00761085 0 0 0 0
0.07228006 -0.06203957 -0.08694353 0 0 0 0
0.09842809 -0.04237586 -0.03456931 0 0 0 0
0.09535888 0.02684070 0.06228026 0 0 0 0
-0.04194251 -0.01784077 0.09881853 0 0 0 0
0.02634268 0.09890808 -0.03326182 0 0 0 0
-0.04761764 -0.09643141 0.04984499 0 0 0 0
0.00740816 0.03279164 0.09961249 0 0 0 0
-0.03556849 0.09766540 0.04825994 0 0 0 0
-0.05397590 0.09729768 0.03445588 0 0 0 0
-0.09929850 0.02423054 -0.02806530 0 0 0 0
-0.08625918 -0.07846957 -0.04815341 0 0 0 0
-0.09914697 -0.03064778 -0.00533882 0 0 0 0
0.07603919 0.08367486 0.06229591 0 0 0 0
0.02946497 -0.09909502 0.02850507 0 0 0 0
0.08854625 -0.07819039 -0.01557535 0 0 0 0
-0.02624572 -0.09947681 -0.01712025 0 0 0 0
-0.09289116 -0.06685190 -0.04343022 0 0 0 0
0.08464264 -0.07802083 -0.05507895 0 0 0 0
0.05325552 0.04153210 -0.09673984 0 0 0 0
0.08773513 -0.07220608 0.05841730 0 0 0 0
0.09923016 0.02753392 -0.00874485 0 0 0 0
-0.06627659 0.08499759 -0.07201026 0 0 0 0
0.07836122 0.08460834 0.05659548 0 0 0 0
-0.09509367 0.06407370 -0.00962240 0 0 0 0
-0.08669842 -0.03871480 0.07996836 0 0 0 0
-0.07041322 0.00972326 -0.09296373 0 0 0 0
0.09395184 0.06648004 -0.01445201 0 0 0 0
-0.07857691 0.08659527 -0.04283584 0 0 0 0
0.09264258 0.00005980 -0.07070441 0 0 0 0
0.05694536 0.06218861 0.09248608 0 0 0 0
-0.07619599 0.08963493 -0.00977488 0 0 0 0
0.09911044 0.03369466 -0.03158287 0 0 0 0
-0.08040916 0.08654770 0.02734091 0 0 0 0
0.02462259 0.06827311 -0.09348239 0 0 0 0
0.09742179 0.05389110 -0.00037501 0 0 0 0
-0.00415162 0.03953193 -0.09905717 0 0 0 0
0.06604339 -0.03960576 -0.09370027 0 0 0 0
0.00220137 0.00254179 -0.09981371 0 0 0 0
-0.01913262 -0.09941103 -0.01230804 0 0 0 0
-0.06456134 0.06517350 -0.08924659 0 0 0 0
-0.04597505 0.09824196 -0.01298666 0 0 0 0
0.07881583 0.06569406 -0.08006604 0 0 0 0
-0.04166975 0.09238507 -0.06851518 0 0 0 0
0.01025065 0.02539481 0.09976868 0 0 0 0
-0.03255489 -0.03573898 -0.09900578 0 0 0 0
0.09892078 0.02725388 0.03660944 0 0 0 0
-0.09959926 -0.02348141 0.01161835 0 0 0 0
0.09962068 0.01029322 -0.00584786 0 0 0 0
0.02291975 -0.09954584 -0.00144571 0 0 0 0
-0.03232840 0.07253589 0.09133312 0 0 0 0
-0.07010378 -0.07334425 -0.08183552 0 0 0 0
-0.09610883 0.03794115 0.05745002 0 0 0 0
-0.03920460 0.08613436 -0.08003690 0 0 0 0
0.09869092 0.04443837 -0.02774830 0 0 0 0
0.04313473 -0.04543180 0.09794967 0 0 0 0
-0.09597258 0.00701857 0.06019671 0 0 0 0
0.09691834 0.01994088 -0.05536924 0 0 0 0
-0.05883057 0.09554958 -0.04052695 0 0 0 0
-0.09920885 -0.03268421 -0.00465726 0 0 0 0
-0.06579582 0.07372932 0.08398246 0 0 0 0
-0.05318217 -0.05905059 -0.09410702 0 0 0 0
-0.03562766 0.09889690 0.01898935 0 0 0 0
0.02038297 0.01927511 0.09976868 0 0 0 0
0.08472657 0.08299010 -0.01067568 0 0 0 0
-0.05976041 -0.03103825 -0.09614961 0 0 0 0
0.09422103 -0.03829464 -0.06462391 0 0 0 0
0.04665650 -0.09825893 -0.03171031 0 0 0 0
-0.09808592 -0.00001652 0.04774400 0 0 0 0
-0.09953420 -0.00161391 -0.02733301 0 0 0 0
-0.09619981 0.05995805 0.00738874 0 0 0 0
0.08487208 -0.02683922 -0.08223639 0 0 0 0
0.09578426 -0.05927489 -0.02563581 0 0 0 0
0.04379473 -0.09650294 -0.05197731 0 0 0 0
-0.09840953 -0.04383983 0.01539029 0 0 0 0
0.03408774 -0.08002517 0.08659877 0 0 0 0
-0.09904872 -0.01356469 -0.03084827 0 0 0 0
0.02479899 -0.03452571 -0.09939133 0 0 0 0
0.09731100 0.02255516 -0.05456337 0 0 0 0
-0.09316433 0.06897356 -0.00966640 0 0 0 0
0.09756286 0.05139628 0.00785978 0 0 0 0
0.05238305 0.07811387 -0.08596154 0 0 0 0
-0.02223670 0.09942316 -0.02564166 0 0 0 0
-0.00741190 0.09317981 -0.06875975 0 0 0 0
-0.09495750 -0.05563770 0.05152031 0 0 0 0
0.02743191 0.05878929 -0.09640273 0 0 0 0
-0.04094052 0.09814014 0.03992885 0 0 0 0
-0.08779792 -0.01823752 -0.07888357 0 0 0 0
0.09734400 0.03306896 -0.05210519 0 0 0 0
-0.08025698 0.08272469 -0.05561244 0 0 0 0
-0.01387612 0.09949943 -0.01872072 0 0 0 0
0.06812599 -0.00779990 -0.09364492 0 0 0 0
0.09761069 0.04692522 -0.04237220 0 0 0 0
-0.09260704 0.03897103 -0.06844831 0 0 0 0
-0.05168499 -0.09760077 -0.00627590 0 0 0 0
-0.04571981 0.09299599 -0.06659456 0 0 0 0
-0.06396571 0.09371261 -0.04704416 0 0 0 0
0.02385464 0.09525447 -0.06295791 0 0 0 0
0.06174193 0.02855337 -0.09560315 0 0 0 0
-0.03478873 0.03578401 0.09885134 0 0 0 0
0.04232400 -0.09889053 -0.00691621 0 0 0 0
-0.09814157 0.00782331 -0.04789468 0 0 0 0
-0.04881157 0.01004438 0.09827022 0 0 0 0
-0.00040940 -0.09539088 -0.06282318 0 0 0 0
-0.01921084 -0.01003606 -0.09957604 0 0 0 0
-0.02725175 0.05746992 -0.09661974 0 0 0 0
-0.05018715 -0.09361681 0.06252749 0 0 0 0
-0.09758160 0.05206909 -0.01566447 0 0 0 0
0.05700095 -0.09360503 0.05763978 0 0 0 0
-0.05710403 -0.02944469 -0.09666972 0 0 0 0
0.06295167 0.09526347 -0.00890381 0 0 0 0
-0.03459641 -0.09850131 -0.03600291 0 0 0 0
0.07654533 0.06618682 -0.08194649 0 0 0 0
0.05657744 0.06241410 -0.09241329 0 0 0 0
-0.09441057 0.06137591 -0.04652228 0 0 0 0
0.09641375 0.00895189 -0.05871680 0 0 0 0
0.05548506 -0.06809923 0.09064550 0 0 0 0
-0.08966850 0.00471948 0.07620049 0 0 0 0
0.08079589 -0.07992381 0.06233609 0 0 0 0
-0.09424292 -0.06656673 0.00911504 0 0 0 0
0.00453017 0.00768413 -0.09986597 0 0 0 0
-0.04001111 -0.04128476 0.09832124 0 0 0 0
0.08629887 -0.05864147 -0.07445709 0 0 0 0
0.06645301 -0.05346478 0.09167577 0 0 0 0
-0.07640135 -0.08885286 -0.03308276 0 0 0 0
0.09868418 0.04110492 -0.02100012 0 0 0 0
-0.08950903 0.07566035 0.03787956 0 0 0 0
-0.02837942 -0.02749667 -0.09942771 0 0 0 0
0.09944703 0.00793688 -0.01816293 0 0 0 0
0.09932809 -0.03543947 0.00635582 0 0 0 0
0.04695236 -0.06850759 -0.09204797 0 0 0 0
-0.06364163 0.04382763 -0.09414332 0 0 0 0
0.02236305 0.09115558 -0.07327870 0 0 0 0
0.05282808 0.02567468 0.09783771 0 0 0 0
0.09830686 -0.02839662 -0.04506867 0 0 0 0
0.07407330 -0.00140942 -0.09121007 0 0 0 0
0.04113672 0.09394443 -0.06556091 0 0 0 0
0.05599863 0.09687854 0.02269891 0 0 0 0
-0.00981839 0.06827934 -0.09369679 0 0 0 0
-0.09906162 -0.01237552 0.03914765 0 0 0 0
-0.09839510 -0.04301196 0.03502376 0 0 0 0
-0.09509608 -0.05668350 0.04973749 0 0 0 0
0.01402266 0.02531150 0.09976868 0 0 0 0
0.09867967 0.04236602 -0.00938884 0 0 0 0
0.01739372 0.09946515 -0.01936346 0 0 0 0
0.05952463 0.09561010 -0.04105883 0 0 0 0
-0.02035514 0.04457474 -0.09866357 0 0 0 0
0.06989907 -0.09282762 -0.02085723 0 0 0 0
0.09198971 0.06131782 -0.05945609 0 0 0 0
-0.09842960 -0.00080762 0.04447079 0 0 0 0
-0.09411896 -0.05264577 -0.05879187 0 0 0 0
0.00009739 -0.03316505 -0.09942859 0 0 0 0
-0.08620119 0.00590886 -0.08103129 0 0 0 0
-0.05200209 -0.07044802 0.09026817 0 0 0 0
0.00545228 0.00933769 0.09976868 0 0 0 0
-0.08309703 0.02421355 0.08418044 0 0 0 0
-0.09341641 0.00631028 -0.06852351 0 0 0 0
0.04158096 0.09556334 0.05900233 0 0 0 0
-0.08268907 -0.08468859 -0.01428577 0 0 0 0
-0.04215912 0.06248689 -0.09481432 0 0 0 0
0.04613009 0.09848333 0.01311585 0 0 0 0
-0.06245112 0.09401532 -0.04671493 0 0 0 0
0.02266367 0.03674247 0.09918322 0 0 0 0
0.08299295 0.07844807 -0.06093473 0 0 0 0
-0.05986397 -0.03164165 0.09591264 0 0 0 0
0.08488120 -0.07246582 0.06530167 0 0 0 0
0.09499844 0.04835480 -0.05939833 0 0 0 0
-0.09728117 0.01178582 -0.05317577 0 0 0 0
0.03124971 -0.04063642 0.09870156 0 0 0 0
0.09815179 0.04609717 -0.03103623 0 0 0 0
-0.03621279 0.04699678 -0.09791933 0 0 0 0
0.05274767 0.07180895 -0.08941563 0 0 0 0
-0.03751358 0.03837179 -0.09866409 0 0 0 0
-0.08677831 0.00378479 -0.08041619 0 0 0 0
-0.07364333 0.05906670 -0.08710856 0 0 0 0
-0.01819416 0.08630814 0.08105648 0 0 0 0
-0.09232703 -0.06148190 -0.05733404 0 0 0 0
0.07782867 0.05154162 -0.08596615 0 0 0 0
-0.00203288 0.09198335 0.07202508 0 0 0 0
-0.06512891 -0.09049688 -0.06092627 0 0 0 0
0.05115378 -0.08164241 0.08291379 0 0 0 0
0.03967040 0.09631713 -0.05495629 0 0 0 0
-0.00236963 -0.09203384 0.07200483 0 0 0 0
0.00308952 -0.09884803 -0.04355438 0 0 0 0
0.08625510 0.08082369 0.03263011 0 0 0 0
0.06203247 -0.09536362 -0.01723721 0 0 0 0
-0.01744349 0.01152543 0.09976868 0 0 0 0
-0.09809542 0.02662756 -0.04536634 0 0 0 0
0.06261984 -0.09544455 -0.00603632 0 0 0 0
0.06843200 -0.09356875 0.01070927 0 0 0 0
0.06096141 -0.05400323 0.09372606 0 0 0 0
0.09661671 0.05685977 0.00799487 0 0 0 0
0.07852170 0.08211797 0.06230881 0 0 0 0
-0.06136646 0.07269321 0.08668879 0 0 0 0
-0.08353518 0.04415471 -0.08276292 0 0 0 0
0.09542232 -0.05744986 0.04484324 0 0 0 0
-0.09925816 0.03171849 -0.02753850 0 0 0 0
0.00972988 0.09938014 -0.01415867 0 0 0 0
-0.05106876 0.09759389 0.01040333 0 0 0 0
0.08734778 0.07918252 0.01111859 0 0 0 0
-0.08124878 -0.02124388 0.08612383 0 0 0 0
0.09625892 0.02248841 -0.05838206 0 0 0 0
0.09824691 -0.03875928 -0.03816593 0 0 0 0
0.05213419 0.09779625 -0.00994314 0 0 0 0
-0.09943967 0.00984257 -0.01794801 0 0 0 0
0.01982280 0.06350283 -0.09524813 0 0 0 0
-0.09533213 -0.06244179 0.01687907 0 0 0 0
0.09723591 0.01793353 -0.05479767 0 0 0 0
0.09707822 -0.05621002 0.00982565 0 0 0 0
-0.00757073 -0.00700939 0.09976868 0 0 0 0
-0.02395916 -0.09310983 -0.06901471 0 0 0 0
-0.05321454 -0.08292866 -0.08097142 0 0 0 0
-0.03763921 0.04669443 0.09809844 0 0 0 0
-0.00414493 0.09939386 0.02870452 0 0 0 0
0.02824985 0.09932843 -0.00979246 0 0 0 0
-0.08882915 -0.05389713 -0.07232784 0 0 0 0
-0.08202504 0.08468763 -0.03434714 0 0 0 0
0.08718924 0.03208112 -0.07903091 0 0 0 0
-0.08201785 0.02658927 -0.08511413 0 0 0 0
-0.00832518 -0.00629761 -0.09987891 0 0 0 0
0.09800408 -0.04734668 0.02153443 0 0 0 0
-0.09974761 0.01673324 -0.02457351 0 0 0 0
-0.00811068 -0.00166519 -0.09987012 0 0 0 0
-0.09098433 0.02823655 -0.07295913 0 0 0 0
0.01012098 0.09844212 0.04438527 0 0 0 0
-0.03179661 0.09328221 -0.06840166 0 0 0 0
-0.09866044 -0.03973587 0.02196364 0 0 0 0
0.05791554 -0.04527782 -0.09553111 0 0 0 0
-0.01001921 0.05965328 -0.09637193 0 0 0 0
-0.03015901 -0.06786616 -0.09358214 0 0 0 0
-0.01868439 0.07931767 -0.08762838 0 0 0 0
0.09734195 0.05484509 -0.00453364 0 0 0 0
-0.07987090 0.08494466 0.04855088 0 0 0 0
-0.05434366 0.09098272 -0.06778331 0 0 0 0
-0.07059031 0.09123659 0.04304585 0 0 0 0
0.04368665 -0.09497726 0.06057248 0 0 0 0
0.04438456 0.07857841 -0.08681744 0 0 0 0
-0.00315851 0.09597979 0.06022399 0 0 0 0
0.06410704 -0.09508239 0.00906345 0 0 0 0
-0.00592079 -0.08857184 -0.07828643 0 0 0 0
0.02930802 -0.09125691 -0.07386090 0 0 0 0
-0.09592561 0.03387549 -0.05824739 0 0 0 0
0.05469630 -0.09517159 -0.05133749 0 0 0 0
0.03996257 -0.05472722 -0.09660338 0 0 0 0
-0.06882413 -0.09343724 -0.00056848 0 0 0 0
0.02962807 0.02237101 -0.09944424 0 0 0 0
0.05849128 0.08592060 -0.07566771 0 0 0 0
0.09941509 0.03211154 -0.00908304 0 0 0 0
-0.04655526 -0.05746862 0.09545106 0 0 0 0
-0.08664562 -0.08001187 0.02553466 0 0 0 0
0.07426833 0.00133103 -0.09106532 0 0 0 0
-0.02570298 -0.09042200 -0.07497946 0 0 0 0
0.09650192 0.05715714 0.03699562 0 0 0 0
-0.03165719 0.09935458 0.02367152 0 0 0 0
0.02551861 -0.00636086 -0.09950957 0 0 0 0
0.07550321 0.07155740 -0.07946356 0 0 0 0
0.05864199 0.02933110 -0.09655251 0 0 0 0
-0.09353826 -0.02825255 -0.06696014 0 0 0 0
-0.05329657 -0.07295921 -0.08878677 0 0 0 0
-0.03280757 0.08275148 -0.08437195 0 0 0 0
0.09903370 0.02655671 0.03423493 0 0 0 0
-0.05460674 0.01607775 -0.09739810 0 0 0 0
0.01854748 -0.08267168 0.08471592 0 0 0 0
-0.03939914 -0.09927980 -0.00393090 0 0 0 0
-0.04938505 -0.07440335 -0.08887719 0 0 0 0
0.07250598 -0.05485394 0.08899464 0 0 0 0
0.09821193 0.04073020 -0.03869008 0 0 0 0
0.02103667 -0.09179815 -0.07262447 0 0 0 0
-0.09833624 0.04766106 -0.01020540 0 0 0 0
0.01819489 -0.01511669 -0.09956998 0 0 0 0
-0.08799221 0.07621448 -0.04793858 0 0 0 0
0.01789345 0.09982055 -0.01536557 0 0 0 0
0.05825026 0.09667762 -0.01196486 0 0 0 0
-0.01326202 -0.07590024 -0.09011716 0 0 0 0
-0.00152899 -0.09937783 0.03153159 0 0 0 0
0.02863579 0.02561758 0.09964129 0 0 0 0
0.08427896 -0.03384557 -0.08306944 0 0 0 0
0.00553444 -0.03010534 -0.09946200 0 0 0 0
-0.08171879 -0.05337578 -0.08208011 0 0 0 0
0.03536208 0.09839072 -0.03965885 0 0 0 0
-0.01393065 0.08208257 0.08541911 0 0 0 0
-0.03459924 0.09927320 -0.01770574 0 0 0 0
0.06663112 -0.09423687 0.00318385 0 0 0 0
0.08949990 0.07217677 0.05016968 0 0 0 0
0.09627525 -0.00418517 -0.06071106 0 0 0 0
-0.09761967 -0.05217535 0.01410663 0 0 0 0
0.09175186 0.05582194 -0.06516086 0 0 0 0
-0.03132845 0.09000297 -0.07491130 0 0 0 0
-0.06626344 -0.09447344 -0.02210146 0 0 0 0
0.09382750 0.06294069 -0.04787784 0 0 0 0
0.07673587 0.02120024 0.08948998 0 0 0 0
0.04294968 0.09798373 -0.04371741 0 0 0 0
0.02195837 0.07002508 -0.09307095 0 0 0 0
-0.07299986 0.03871254 -0.09076132 0 0 0 0
-0.04220535 0.09872067 0.01843955 0 0 0 0
0.08787918 -0.03612671 -0.07794054 0 0 0 0
-0.01364694 -0.07714753 -0.08936191 0 0 0 0
-0.07111286 0.09198698 -0.01987961 0 0 0 0
0.04748110 0.09851125 -0.01464164 0 0 0 0
-0.01613931 0.01321147 0.09976868 0 0 0 0
0.06253105 -0.04528240 -0.09428082 0 0 0 0
0.09865065 -0.02418145 -0.03950597 0 0 0 0
0.00940190 -0.09906296 -0.03881687 0 0 0 0
0.07414643 0.09091326 -0.00061770 0 0 0 0
-0.01315184 -0.07683513 -0.08938272 0 0 0 0
