ply
format ascii 1.0
comment https://github.com/mikedh/trimesh
element vertex 1120
property float x
property float y
property float z
property uchar red
property uchar green
property uchar blue
property uchar alpha
end_header
0.06346010 -0.03338685 0.05808980 0 0 0 0
-0.07216923 -0.02140386 -0.06846227 0 0 0 0
0.05363881 0.04555534 -0.03803528 0 0 0 0
-0.00147947 -0.09740815 0.04234462 0 0 0 0
-0.00579994 -0.08558132 0.07342718 0 0 0 0
-0.09302597 -0.00674965 -0.01059023 0 0 0 0
0.00378633 -0.04591108 -0.09826048 0 0 0 0
-0.07765301 0.01033901 -0.07910588 0 0 0 0
-0.09030443 -0.00938037 0.01673004 0 0 0 0
-0.00531788 -0.04625959 0.09805810 0 0 0 0
-0.00446743 -0.09306217 -0.05407611 0 0 0 0
-0.07749172 -0.01040695 -0.07898912 0 0 0 0
0.04034888 -0.05587126 -0.05999265 0 0 0 0
0.00250919 0.00113835 -0.09976865 0 0 0 0
-0.03093734 0.06692095 -0.05259103 0 0 0 0
0.03048969 -0.06289859 -0.06895468 0 0 0 0
-0.05167484 -0.04802898 -0.01397937 0 0 0 0
0.06174494 -0.03773967 -0.02432610 0 0 0 0
0.02676020 0.07249972 -0.03563865 0 0 0 0
-0.08632132 0.01354712 -0.01961629 0 0 0 0
-0.02519805 0.03157930 0.09703264 0 0 0 0
-0.02651957 0.06918637 -0.06231593 0 0 0 0
-0.00128268 -0.02774166 -0.09947360 0 0 0 0
0.06585103 0.03343638 -0.03363356 0 0 0 0
-0.04985735 0.02198485 0.09215151 0 0 0 0
0.03365632 -0.02945996 -0.09542833 0 0 0 0
0.03034287 -0.01355506 -0.09887669 0 0 0 0
-0.05876852 0.04098412 0.00330433 0 0 0 0
0.01887487 0.08073784 0.03099976 0 0 0 0
0.06594487 -0.03296077 0.04217545 0 0 0 0
-0.00572102 -0.04595660 -0.09788570 0 0 0 0
0.00567794 -0.03515921 0.09895040 0 0 0 0
-0.03564855 0.06102908 -0.05874421 0 0 0 0
-0.07453430 -0.02522486 0.00201270 0 0 0 0
-0.04990190 0.04974341 0.02454707 0 0 0 0
-0.05402611 0.04587035 -0.00488708 0 0 0 0
-0.03371779 0.06339641 0.05717711 0 0 0 0
0.02321925 -0.01776559 -0.09899969 0 0 0 0
0.00506762 0.08283643 0.07940660 0 0 0 0
-0.08205185 -0.01725235 -0.03284079 0 0 0 0
-0.08217294 -0.01757467 0.00429846 0 0 0 0
-0.01466480 0.06521623 -0.08723342 0 0 0 0
0.01885790 0.07659970 0.06283459 0 0 0 0
0.05805079 0.04173793 -0.00997187 0 0 0 0
-0.01366949 -0.06641134 -0.08707661 0 0 0 0
-0.09503250 0.00455743 0.03550771 0 0 0 0
-0.05413650 -0.03843407 -0.07113345 0 0 0 0
-0.02685248 0.07283302 0.01659317 0 0 0 0
-0.04887052 -0.05088346 0.00303629 0 0 0 0
-0.00040017 -0.03162016 -0.09944128 0 0 0 0
0.02580230 0.06951564 -0.06381314 0 0 0 0
0.08129933 -0.01632756 0.05418652 0 0 0 0
0.01040098 -0.00922957 0.09976868 0 0 0 0
-0.05253115 0.04476859 -0.05484371 0 0 0 0
0.05244131 0.04715761 0.03372898 0 0 0 0
-0.07348029 0.02633182 -0.00846785 0 0 0 0
-0.04886234 0.01291914 0.09575263 0 0 0 0
-0.03545857 -0.02361191 0.09644608 0 0 0 0
-0.01615390 -0.04080701 -0.09711294 0 0 0 0
-0.05771429 -0.04174245 -0.02564112 0 0 0 0
0.07311507 0.02686691 -0.00085073 0 0 0 0
-0.08189492 0.00152800 0.08416981 0 0 0 0
0.07099862 -0.02207291 -0.06979573 0 0 0 0
0.00294515 -0.04048524 0.09873496 0 0 0 0
0.08624773 0.01036899 0.05887610 0 0 0 0
0.02101434 0.07657001 0.05458597 0 0 0 0
0.01789435 -0.04734998 0.09486688 0 0 0 0
-0.08173682 -0.01808643 -0.01067146 0 0 0 0
0.03363783 -0.06096900 -0.06653390 0 0 0 0
-0.06370878 0.03597457 0.01701671 0 0 0 0
-0.04324053 -0.05647469 0.01071011 0 0 0 0
-0.03753812 0.06205834 0.03421515 0 0 0 0
-0.04798196 -0.05166594 -0.02935196 0 0 0 0
-0.06933592 0.02281671 -0.07224702 0 0 0 0
0.02632434 -0.04899620 -0.09069726 0 0 0 0
-0.00602149 -0.09354778 -0.02033002 0 0 0 0
0.04640351 -0.05244290 -0.04233916 0 0 0 0
0.05886838 0.03734810 -0.06000916 0 0 0 0
-0.01078809 -0.00955019 0.09976868 0 0 0 0
0.00954956 -0.09010388 0.02293792 0 0 0 0
-0.05620865 -0.03878623 0.06441483 0 0 0 0
0.00285115 -0.09693607 -0.00354216 0 0 0 0
-0.04362508 0.04821599 -0.07240993 0 0 0 0
-0.04319001 -0.02166799 0.09496570 0 0 0 0
0.02388829 -0.06680441 -0.07484974 0 0 0 0
-0.05623786 0.02776135 -0.08400118 0 0 0 0
-0.04092075 -0.05377463 -0.06547194 0 0 0 0
-0.03007450 0.06968085 0.00276652 0 0 0 0
0.04848014 0.04809998 -0.05836616 0 0 0 0
-0.00334669 -0.00539344 0.09976868 0 0 0 0
-0.01452312 0.04969082 -0.09537582 0 0 0 0
0.04146375 -0.05720716 -0.04518289 0 0 0 0
0.07053930 -0.02917028 -0.01370737 0 0 0 0
0.03278512 -0.01228037 0.09859911 0 0 0 0
-0.03682704 -0.06184731 -0.04622526 0 0 0 0
-0.04773698 -0.03802456 -0.08199336 0 0 0 0
0.00814758 0.07631747 -0.08318292 0 0 0 0
0.05931626 0.03972733 0.04087964 0 0 0 0
-0.02628050 0.06714208 0.06978444 0 0 0 0
0.02361783 0.01997149 0.09872176 0 0 0 0
-0.01795186 0.07561967 0.06927576 0 0 0 0
0.06878541 -0.03009479 -0.04179145 0 0 0 0
-0.07195012 -0.02757733 -0.02230425 0 0 0 0
-0.01365838 0.08620967 -0.01953883 0 0 0 0
-0.00491348 0.08158271 0.08124129 0 0 0 0
0.04137681 0.05843638 -0.00868132 0 0 0 0
0.06339046 0.01801389 -0.08603781 0 0 0 0
-0.09371417 0.00440469 -0.04970807 0 0 0 0
0.08881465 0.00714057 0.06113514 0 0 0 0
0.08172358 0.01272299 -0.06613489 0 0 0 0
-0.02714392 -0.07246687 -0.01837085 0 0 0 0
-0.04367983 0.05481823 -0.04798370 0 0 0 0
0.01736512 -0.08125699 -0.04597368 0 0 0 0
0.08314328 0.00823961 -0.07338339 0 0 0 0
0.06218116 0.00515933 -0.09402344 0 0 0 0
-0.07313247 -0.02060330 0.06871483 0 0 0 0
-0.04075554 -0.05327845 0.06769636 0 0 0 0
0.00953669 0.03711169 0.09846761 0 0 0 0
-0.03144412 0.06025793 0.07287554 0 0 0 0
0.08845101 -0.01140951 -0.00658370 0 0 0 0
0.01516713 0.08446632 0.02689398 0 0 0 0
0.02226355 0.02973683 0.09802298 0 0 0 0
0.02186011 0.03747048 0.09637955 0 0 0 0
0.00073397 0.04193667 0.09879579 0 0 0 0
0.02919918 -0.05779361 0.08076809 0 0 0 0
-0.00083665 0.08354242 0.08325870 0 0 0 0
0.02288884 -0.07583861 0.04384908 0 0 0 0
-0.03555723 -0.05635570 0.07251291 0 0 0 0
0.07442944 -0.02285497 -0.05493978 0 0 0 0
-0.00391339 -0.09576558 0.01788459 0 0 0 0
-0.07111567 -0.02864295 -0.01139282 0 0 0 0
-0.05138459 -0.04804789 0.03722681 0 0 0 0
0.05316953 -0.04209321 -0.06431845 0 0 0 0
-0.05105511 -0.01690345 -0.09381787 0 0 0 0
0.08632958 -0.01274953 -0.04346478 0 0 0 0
0.05272633 0.03908634 -0.07247029 0 0 0 0
-0.08954148 0.01024560 -0.00351486 0 0 0 0
0.04625254 -0.05361875 -0.02018236 0 0 0 0
-0.08550593 -0.01291230 0.04675354 0 0 0 0
-0.08824627 -0.01161564 -0.00651753 0 0 0 0
0.07547252 0.00976700 -0.08272716 0 0 0 0
0.05937363 -0.04029898 0.01914365 0 0 0 0
0.03178558 -0.00466861 -0.09919100 0 0 0 0
0.04237417 0.05696904 -0.03099993 0 0 0 0
0.07156398 -0.01818056 0.07624168 0 0 0 0
-0.07878428 -0.02081864 0.03293677 0 0 0 0
0.02154912 -0.02782262 -0.09832212 0 0 0 0
-0.05474546 -0.04219466 0.05777162 0 0 0 0
-0.01841223 0.08129397 0.01249523 0 0 0 0
-0.09758107 0.00226093 -0.00745743 0 0 0 0
0.07890838 0.01781929 -0.05843044 0 0 0 0
-0.05786744 0.04180226 0.01971841 0 0 0 0
-0.01691267 0.08149683 0.04683548 0 0 0 0
-0.06232534 -0.03732210 -0.01664037 0 0 0 0
-0.02615425 0.02977507 0.09724955 0 0 0 0
0.02050506 -0.07630087 -0.05734587 0 0 0 0
-0.03314486 0.05894711 0.07220502 0 0 0 0
0.01982247 -0.01102413 -0.09942777 0 0 0 0
0.07500268 0.02193237 0.05778893 0 0 0 0
-0.00008376 -0.01512024 0.09976868 0 0 0 0
0.02504063 -0.01205071 -0.09938752 0 0 0 0
-0.05157702 0.04822110 -0.00952813 0 0 0 0
-0.03715988 -0.05337751 -0.07527979 0 0 0 0
-0.09415484 0.00561227 0.00043983 0 0 0 0
-0.01938826 0.03487115 -0.09746931 0 0 0 0
0.08339284 -0.01239085 0.06172096 0 0 0 0
0.07978767 0.00455750 -0.08372964 0 0 0 0
-0.04848365 0.00863198 -0.09685647 0 0 0 0
0.00105221 0.00092657 -0.09976217 0 0 0 0
-0.05277698 -0.02383309 0.08965326 0 0 0 0
0.03699692 0.06216227 -0.03968506 0 0 0 0
0.00007489 0.00071014 -0.09979006 0 0 0 0
0.07807549 -0.02126859 -0.03095832 0 0 0 0
0.06190619 -0.02472682 -0.08076830 0 0 0 0
0.08715817 0.00661763 0.06857814 0 0 0 0
-0.02778524 -0.02525255 -0.09762827 0 0 0 0
-0.02879277 -0.04609165 0.09055746 0 0 0 0
-0.04772850 0.05136773 -0.04265635 0 0 0 0
-0.05694119 -0.04271116 0.02315424 0 0 0 0
0.06943552 0.02925664 -0.04483841 0 0 0 0
-0.08582278 -0.01393853 0.00158988 0 0 0 0
-0.00935779 -0.08972608 -0.04324051 0 0 0 0
0.08141117 0.01837685 -0.00370048 0 0 0 0
-0.00071163 -0.01449879 -0.09994558 0 0 0 0
0.03333695 0.00324417 -0.09918563 0 0 0 0
-0.05308720 0.04614967 0.03906419 0 0 0 0
0.06721185 -0.02560622 -0.07047401 0 0 0 0
-0.06887067 0.02996021 -0.04524394 0 0 0 0
0.09306036 0.00612431 -0.03848284 0 0 0 0
0.01501741 -0.05383169 -0.09342330 0 0 0 0
-0.01103515 0.01856367 -0.09946747 0 0 0 0
-0.06926979 0.03041366 0.01699774 0 0 0 0
0.03206733 -0.06604603 0.04961709 0 0 0 0
0.03824725 -0.05937545 0.05422587 0 0 0 0
0.06030524 0.03954248 -0.01551527 0 0 0 0
-0.01256656 -0.01797850 -0.09945737 0 0 0 0
0.00091650 -0.07689417 -0.08867935 0 0 0 0
0.00791427 0.09177421 -0.01470318 0 0 0 0
-0.01521971 0.07756615 0.07101179 0 0 0 0
-0.08845317 -0.00775832 0.06025998 0 0 0 0
0.01084274 0.01878732 -0.09947914 0 0 0 0
-0.09077135 0.00707652 -0.05263809 0 0 0 0
-0.00263651 0.09709530 0.00742482 0 0 0 0
-0.07601561 0.02357540 -0.01930385 0 0 0 0
0.08436526 0.01378465 0.04927382 0 0 0 0
-0.08637028 0.01359043 -0.00185399 0 0 0 0
0.01881691 0.05259546 -0.09266920 0 0 0 0
0.03983136 0.05995848 -0.00991955 0 0 0 0
-0.01465536 -0.08278265 -0.05397681 0 0 0 0
-0.07136601 0.02763978 0.04123469 0 0 0 0
-0.07839186 0.01629057 -0.06550644 0 0 0 0
0.01073832 -0.07046004 0.08628960 0 0 0 0
0.06834763 -0.03000875 0.04733443 0 0 0 0
0.07043262 -0.01783791 0.07877640 0 0 0 0
-0.06657915 -0.01831671 -0.08268492 0 0 0 0
-0.03345291 -0.06633644 -0.00994245 0 0 0 0
-0.01713669 0.07656176 -0.06846382 0 0 0 0
0.01886481 0.05196717 -0.09286223 0 0 0 0
0.00773685 -0.09142976 -0.03933500 0 0 0 0
0.01981030 -0.03135685 -0.09798232 0 0 0 0
-0.01251871 0.08736690 -0.02301579 0 0 0 0
-0.07407718 0.02572166 -0.00584192 0 0 0 0
-0.00704432 -0.04651795 0.09785502 0 0 0 0
0.03300257 0.03471697 0.09423374 0 0 0 0
-0.03577323 -0.02579103 -0.09594451 0 0 0 0
0.07843676 -0.00746282 -0.08179931 0 0 0 0
0.05168696 -0.04807383 0.00168963 0 0 0 0
-0.02763209 0.06104616 -0.07789323 0 0 0 0
0.04953754 0.03855160 0.07908833 0 0 0 0
0.00901904 -0.07970101 0.07800342 0 0 0 0
0.06480781 -0.02540027 -0.07587937 0 0 0 0
-0.09110586 -0.00849545 0.03325655 0 0 0 0
0.02036982 0.07845526 -0.04528023 0 0 0 0
-0.08496188 0.01244736 -0.05415717 0 0 0 0
-0.06433477 -0.03326154 0.05447379 0 0 0 0
0.00988778 0.07664971 -0.08090257 0 0 0 0
-0.06301668 -0.01671447 0.08768772 0 0 0 0
0.03758184 -0.06211340 -0.01438409 0 0 0 0
-0.04132257 -0.00189370 0.09875274 0 0 0 0
-0.02786516 -0.02920970 -0.09686419 0 0 0 0
-0.00177299 -0.01375169 -0.09961764 0 0 0 0
-0.09168004 -0.00772945 -0.03321510 0 0 0 0
-0.04540793 0.05403108 -0.02647817 0 0 0 0
0.03744572 0.06209321 -0.02176195 0 0 0 0
0.02063139 0.07862837 -0.03493834 0 0 0 0
-0.02225724 -0.06074268 0.08457290 0 0 0 0
-0.09277611 -0.00559711 -0.05000647 0 0 0 0
0.02848136 0.07071965 -0.03771093 0 0 0 0
-0.00920922 0.03570888 -0.09870163 0 0 0 0
0.02962295 0.04908512 -0.08815405 0 0 0 0
-0.05204995 -0.04757424 0.02872502 0 0 0 0
-0.08984548 0.00993442 -0.00209121 0 0 0 0
0.04464848 0.05310782 -0.05305181 0 0 0 0
-0.00077271 0.08830559 0.07738736 0 0 0 0
-0.03825713 -0.06162900 -0.02311731 0 0 0 0
-0.01981802 -0.02782280 -0.09864973 0 0 0 0
-0.08394525 -0.00836070 -0.07142227 0 0 0 0
0.09012660 0.00827964 -0.04947140 0 0 0 0
0.01312824 0.08654009 0.01999081 0 0 0 0
-0.04661036 0.05315720 0.00035010 0 0 0 0
-0.04235873 -0.05747051 -0.01185625 0 0 0 0
0.05853759 0.02512804 -0.08410700 0 0 0 0
0.02644997 0.05379459 -0.08716568 0 0 0 0
0.08959501 -0.01011433 0.01187221 0 0 0 0
-0.07076831 -0.00071641 -0.09264512 0 0 0 0
0.03164727 0.06514090 -0.05805112 0 0 0 0
-0.02988285 -0.04946703 0.08805103 0 0 0 0
-0.07638847 -0.02296075 -0.03419169 0 0 0 0
0.03702682 -0.06270584 0.00725593 0 0 0 0
-0.04139241 0.05833680 0.00794077 0 0 0 0
0.06823379 -0.03148076 -0.02827197 0 0 0 0
0.03494161 -0.02736709 -0.09569692 0 0 0 0
-0.00918172 0.08172688 0.07423995 0 0 0 0
-0.04647557 -0.05334102 -0.00935580 0 0 0 0
-0.05014067 0.04965826 -0.00585968 0 0 0 0
-0.06193537 -0.02298217 -0.08265986 0 0 0 0
0.04100025 0.00279470 0.09870467 0 0 0 0
0.00396295 -0.03348523 -0.09938372 0 0 0 0
-0.00056849 0.00022833 -0.09977479 0 0 0 0
-0.07404382 0.01593786 0.07583390 0 0 0 0
-0.00919381 -0.05976058 0.09366465 0 0 0 0
0.00852712 -0.04757117 -0.09704901 0 0 0 0
-0.05598262 -0.04330919 -0.03342549 0 0 0 0
0.03112875 -0.06754223 -0.04518170 0 0 0 0
-0.08219042 -0.00450117 -0.08060911 0 0 0 0
0.01299061 -0.00273194 0.09976868 0 0 0 0
-0.08920843 -0.00987978 -0.04303531 0 0 0 0
0.03349464 -0.05298328 -0.08098631 0 0 0 0
-0.08242057 -0.01720202 0.02904309 0 0 0 0
0.01050891 0.08929905 -0.02675847 0 0 0 0
-0.01314483 -0.08659507 0.00582532 0 0 0 0
0.03229352 -0.01770057 0.09818965 0 0 0 0
-0.06296707 0.03663182 0.03373505 0 0 0 0
-0.00979116 0.08692332 0.05854223 0 0 0 0
-0.00628573 -0.09356375 -0.01586357 0 0 0 0
-0.00580473 0.06551220 -0.09270094 0 0 0 0
-0.06623355 -0.03266966 -0.04141869 0 0 0 0
-0.01840838 -0.08117379 -0.03041719 0 0 0 0
-0.00792456 -0.00171815 -0.09988617 0 0 0 0
0.04911333 -0.01062658 -0.09635978 0 0 0 0
0.07884394 -0.02080450 0.02392820 0 0 0 0
-0.08689898 -0.00614600 -0.06985215 0 0 0 0
0.00169353 -0.09812938 -0.00835885 0 0 0 0
-0.04915493 0.02493456 0.09097398 0 0 0 0
0.07312722 -0.02632645 0.03702782 0 0 0 0
0.06016957 0.03595331 -0.06043211 0 0 0 0
-0.07330304 -0.02665441 -0.00200845 0 0 0 0
0.08126791 -0.00014543 -0.08579233 0 0 0 0
0.07850670 -0.02007579 0.04521064 0 0 0 0
0.01278509 -0.08646540 -0.03537547 0 0 0 0
0.05507031 0.04471015 -0.00220322 0 0 0 0
0.02477889 -0.05016878 0.09052432 0 0 0 0
0.05312468 0.01140984 -0.09495665 0 0 0 0
0.01952483 0.07892129 -0.04765622 0 0 0 0
0.03412182 -0.01165465 0.09854005 0 0 0 0
-0.06442779 -0.02522214 -0.07652731 0 0 0 0
0.02686706 0.07282883 -0.02857434 0 0 0 0
0.02083800 -0.02009257 -0.09900199 0 0 0 0
0.02402671 0.01231285 -0.09939554 0 0 0 0
0.01411775 0.08573372 -0.01625809 0 0 0 0
0.04782255 0.00989538 0.09679204 0 0 0 0
0.08759650 0.01209145 -0.01472832 0 0 0 0
0.01566764 -0.08398347 -0.01646665 0 0 0 0
-0.01549628 0.08352295 -0.03953867 0 0 0 0
0.03583784 0.01458186 0.09815429 0 0 0 0
0.01430152 -0.08279633 -0.05602692 0 0 0 0
-0.03076453 -0.04325580 -0.09124496 0 0 0 0
-0.01618052 -0.08367514 -0.01708617 0 0 0 0
0.01166163 -0.01234865 -0.09971643 0 0 0 0
-0.01813950 -0.08105838 -0.03785896 0 0 0 0
0.02370773 -0.06664403 -0.07557411 0 0 0 0
0.00809853 -0.08912976 -0.05543754 0 0 0 0
0.03659163 -0.06312521 0.01038982 0 0 0 0
-0.01849299 -0.08041583 -0.04132771 0 0 0 0
0.00104783 -0.09725119 -0.04937593 0 0 0 0
-0.05909501 0.00024895 -0.09668295 0 0 0 0
-0.04969897 -0.04692489 0.05885167 0 0 0 0
0.00605516 -0.05457608 -0.09619109 0 0 0 0
0.03068515 -0.06737521 -0.05167802 0 0 0 0
0.07137798 0.02843977 -0.00860190 0 0 0 0
0.00971417 0.03758020 -0.09871530 0 0 0 0
0.03213873 -0.06309036 -0.06447051 0 0 0 0
-0.02818160 0.00006622 -0.09953412 0 0 0 0
-0.06016523 0.03463502 0.06507951 0 0 0 0
-0.02178759 0.07326481 -0.06526885 0 0 0 0
0.02283090 0.07685755 0.01600869 0 0 0 0
-0.01815444 -0.03935089 -0.09704112 0 0 0 0
-0.07706305 0.01279750 -0.07661770 0 0 0 0
0.01566738 -0.03667045 -0.09776074 0 0 0 0
0.08834888 0.00486058 -0.06950273 0 0 0 0
0.08377819 0.01557670 -0.03044858 0 0 0 0
0.03814607 0.06150409 0.02358708 0 0 0 0
-0.01947629 -0.01648034 0.09935586 0 0 0 0
0.04054820 -0.03924310 0.08763040 0 0 0 0
0.02174407 0.00165206 -0.09974237 0 0 0 0
-0.02652014 0.06920958 0.06190528 0 0 0 0
0.01552381 -0.01093069 0.09976868 0 0 0 0
0.01497881 0.02245245 -0.09914974 0 0 0 0
0.05672861 0.04287318 0.03316000 0 0 0 0
0.05704886 0.04013899 -0.05562025 0 0 0 0
0.05825348 0.04084433 0.04037036 0 0 0 0
-0.02223109 0.07737558 0.03219418 0 0 0 0
0.01292282 -0.03610770 -0.09838670 0 0 0 0
0.04437843 -0.04825459 -0.07096705 0 0 0 0
0.04415371 -0.05547776 -0.01739395 0 0 0 0
0.01062789 0.00039806 -0.09990093 0 0 0 0
-0.02352273 -0.04692732 0.09288096 0 0 0 0
0.05732040 -0.04242919 -0.01181898 0 0 0 0
0.09261306 -0.00641432 -0.04401190 0 0 0 0
0.04617752 0.05315072 -0.03170587 0 0 0 0
0.08815281 -0.00082751 -0.07746861 0 0 0 0
0.01446007 -0.01529122 -0.09946584 0 0 0 0
0.00686216 -0.00000401 -0.09971002 0 0 0 0
-0.06609964 0.02804640 -0.06693567 0 0 0 0
0.02795589 0.02439996 -0.09775733 0 0 0 0
0.07939912 -0.01716884 0.05904257 0 0 0 0
0.05684609 -0.00976038 -0.09426755 0 0 0 0
-0.05810234 0.03554820 -0.06856559 0 0 0 0
-0.08975494 -0.00957772 -0.03149775 0 0 0 0
-0.04199851 0.05770692 -0.01390299 0 0 0 0
-0.06141388 -0.00294706 -0.09531390 0 0 0 0
-0.03379347 0.00395805 0.09920675 0 0 0 0
-0.03125358 -0.06469209 0.06116776 0 0 0 0
-0.02004406 -0.03398275 -0.09750001 0 0 0 0
-0.00717285 0.09076281 -0.05224141 0 0 0 0
0.03330050 0.04817650 -0.08598079 0 0 0 0
-0.00812533 -0.09116305 -0.03358771 0 0 0 0
-0.00460412 0.09498992 0.03469469 0 0 0 0
0.00390086 -0.09568919 0.03548232 0 0 0 0
0.02026777 -0.07951341 -0.00234419 0 0 0 0
0.02801141 -0.07174859 -0.01132790 0 0 0 0
0.02500089 -0.07438643 -0.02891775 0 0 0 0
0.03332926 -0.04574847 0.08831036 0 0 0 0
0.05271934 0.04694075 0.02162103 0 0 0 0
-0.05443380 0.03116528 0.08209614 0 0 0 0
0.05459775 -0.00100419 -0.09714296 0 0 0 0
0.08276665 -0.01708582 -0.01645633 0 0 0 0
0.02914689 -0.03107415 -0.09639125 0 0 0 0
-0.09672145 -0.00167821 0.04692796 0 0 0 0
0.02310090 0.07328548 -0.05924151 0 0 0 0
-0.06009443 -0.03960656 0.01352573 0 0 0 0
0.02937232 -0.07022681 -0.03014224 0 0 0 0
0.06816968 0.02956197 0.05320241 0 0 0 0
-0.02171840 -0.05902552 -0.08655617 0 0 0 0
0.05508301 -0.04456609 0.02379649 0 0 0 0
0.07993620 0.01981872 -0.01156745 0 0 0 0
-0.06277135 -0.03253380 -0.06384722 0 0 0 0
-0.06912196 -0.02905804 0.04899120 0 0 0 0
-0.00628797 0.00117493 0.09976868 0 0 0 0
0.04660321 -0.02766902 -0.09101071 0 0 0 0
0.05789639 0.03392496 -0.07245187 0 0 0 0
0.04388312 0.05553432 -0.02749619 0 0 0 0
-0.07116061 0.02849706 0.02209958 0 0 0 0
0.01198462 0.08786736 -0.01635914 0 0 0 0
-0.02393924 0.07167508 0.06229938 0 0 0 0
-0.04843553 0.00526891 -0.09754253 0 0 0 0
0.07109317 -0.02735165 -0.04884629 0 0 0 0
0.06279983 0.03692101 -0.01317586 0 0 0 0
-0.02420975 -0.07437156 0.04522180 0 0 0 0
-0.01712050 -0.08256419 0.01675307 0 0 0 0
0.07745858 0.02226521 -0.02812217 0 0 0 0
-0.01743684 0.01192172 -0.09947003 0 0 0 0
-0.04106252 0.05855458 0.03012886 0 0 0 0
0.02306871 0.03401841 -0.09709629 0 0 0 0
-0.02890543 0.07078626 0.01536581 0 0 0 0
-0.02481876 -0.01250816 -0.09938501 0 0 0 0
0.06899578 0.02966445 -0.04535582 0 0 0 0
0.02284563 -0.03318016 -0.09723630 0 0 0 0
0.06877799 0.03097928 0.00238701 0 0 0 0
0.02972661 0.04198547 0.09221970 0 0 0 0
0.06699562 -0.01281101 -0.08729182 0 0 0 0
-0.04718534 0.05248966 0.01866868 0 0 0 0
0.06828956 -0.03107275 0.03788602 0 0 0 0
0.04702806 0.00533189 0.09799310 0 0 0 0
0.03622095 0.05776411 -0.06785491 0 0 0 0
-0.08636685 -0.01127636 -0.05356277 0 0 0 0
0.08322390 0.01066733 0.06818391 0 0 0 0
0.05035584 0.04894524 -0.03298837 0 0 0 0
-0.07606673 -0.01865316 0.06535394 0 0 0 0
0.07231989 -0.00414727 -0.08959761 0 0 0 0
0.03490263 0.05435347 -0.07708094 0 0 0 0
-0.08817767 0.00403565 0.07199635 0 0 0 0
0.00791526 0.01576147 -0.09953065 0 0 0 0
-0.00045091 -0.00049296 -0.09979336 0 0 0 0
0.04365726 -0.05599448 -0.02928974 0 0 0 0
-0.09372556 -0.00623940 -0.00165376 0 0 0 0
-0.00413451 0.08766462 -0.07318895 0 0 0 0
0.01244584 0.06299154 -0.09064804 0 0 0 0
0.07879475 0.01835030 0.05707176 0 0 0 0
-0.01952320 -0.07914965 0.04436192 0 0 0 0
-0.03739661 -0.06209118 -0.03194636 0 0 0 0
0.04811637 -0.03214588 -0.08693422 0 0 0 0
-0.07213315 -0.02769810 -0.01225588 0 0 0 0
0.01629775 0.07915591 -0.06345585 0 0 0 0
0.06591628 -0.01870011 0.08303255 0 0 0 0
0.07528989 0.02445669 -0.01196087 0 0 0 0
0.03689365 0.05021390 0.08065873 0 0 0 0
-0.09400518 0.00565301 0.02199575 0 0 0 0
0.02912068 0.06600110 -0.06433582 0 0 0 0
-0.05047435 0.01149061 -0.09581125 0 0 0 0
0.01388537 -0.00428721 0.09976868 0 0 0 0
0.05315330 -0.02482275 0.08893753 0 0 0 0
0.09750339 0.00234002 -0.01466201 0 0 0 0
-0.02402266 -0.07585122 -0.02069431 0 0 0 0
0.08967537 -0.01029289 -0.00149833 0 0 0 0
-0.03531114 -0.06454645 -0.02595414 0 0 0 0
-0.00500682 -0.01919746 -0.09970824 0 0 0 0
0.00308640 0.04199278 -0.09882681 0 0 0 0
0.03332288 -0.03511631 -0.09365802 0 0 0 0
-0.09478150 0.00380206 -0.04659824 0 0 0 0
0.05943930 -0.03425627 -0.06813590 0 0 0 0
-0.06049018 -0.03899120 0.03676751 0 0 0 0
0.05044708 -0.01217898 -0.09559138 0 0 0 0
-0.08140816 0.01825469 0.02107667 0 0 0 0
-0.08758904 -0.01097057 -0.04698629 0 0 0 0
-0.01485139 -0.08458126 -0.02677815 0 0 0 0
0.04864740 0.01490963 -0.09563734 0 0 0 0
0.01353681 -0.00357853 -0.09960067 0 0 0 0
-0.05341948 0.04552187 0.04183995 0 0 0 0
0.05714139 -0.04217691 -0.03217549 0 0 0 0
0.09359700 0.00620855 -0.00716773 0 0 0 0
0.09632031 -0.00335753 0.01810884 0 0 0 0
-0.02718318 0.06971177 -0.05738167 0 0 0 0
0.07530699 0.02380660 -0.04183768 0 0 0 0
-0.05746619 -0.04221314 -0.01513541 0 0 0 0
-0.03552455 -0.06379642 -0.03464935 0 0 0 0
-0.07368653 -0.02006814 -0.06834437 0 0 0 0
-0.00226588 0.01650824 0.09976868 0 0 0 0
0.01020530 0.08947661 -0.01501332 0 0 0 0
-0.05388453 0.04593898 -0.00832978 0 0 0 0
-0.05006438 0.04961519 0.01776445 0 0 0 0
0.05725960 0.03855143 0.06162757 0 0 0 0
0.08212917 0.01578638 0.05147506 0 0 0 0
0.05023844 0.02865168 0.08845858 0 0 0 0
0.01478373 -0.08511137 -0.00495083 0 0 0 0
0.04815521 -0.05151536 -0.01554824 0 0 0 0
-0.01118218 -0.08843768 -0.01794215 0 0 0 0
0.00496043 0.08831752 -0.06935719 0 0 0 0
0.02027557 0.06891181 -0.07717755 0 0 0 0
-0.05999910 -0.03616056 -0.06026590 0 0 0 0
-0.05618508 -0.04226269 0.04647610 0 0 0 0
-0.04332270 0.04886898 -0.07166506 0 0 0 0
-0.05370228 0.04602037 0.00923899 0 0 0 0
-0.00829421 0.02083821 -0.09950015 0 0 0 0
0.02064505 0.07548166 -0.06041480 0 0 0 0
0.01818099 0.01900850 0.09925344 0 0 0 0
-0.00524458 -0.02435530 -0.09948041 0 0 0 0
-0.02163238 -0.07809766 -0.01274185 0 0 0 0
0.05551033 0.00916130 -0.09491105 0 0 0 0
-0.09343956 -0.00318052 0.05886458 0 0 0 0
0.00122691 -0.09845357 -0.01026976 0 0 0 0
0.04653870 0.04471776 -0.07426897 0 0 0 0
0.04233716 -0.05732893 0.02043314 0 0 0 0
0.08456398 -0.01529830 -0.01839743 0 0 0 0
0.05791714 -0.02396962 -0.08565919 0 0 0 0
0.01097853 -0.01007202 -0.09955867 0 0 0 0
0.04039733 -0.05846699 -0.04204896 0 0 0 0
0.05328969 -0.04225104 0.06255069 0 0 0 0
0.02159337 0.07833879 -0.00320186 0 0 0 0
-0.05535880 0.04432542 0.01684760 0 0 0 0
0.00516990 -0.09237002 0.05500331 0 0 0 0
0.01423938 -0.06286845 0.08939245 0 0 0 0
0.01007935 0.08977374 -0.01657898 0 0 0 0
-0.05527339 -0.04445871 0.00736938 0 0 0 0
-0.07257034 -0.02719305 0.00117596 0 0 0 0
0.00832820 0.00351323 -0.09990963 0 0 0 0
-0.06775688 -0.03201337 -0.01084416 0 0 0 0
0.06182286 -0.02126359 0.08449044 0 0 0 0
-0.02986644 0.06425224 0.06740716 0 0 0 0
0.02650781 -0.06917196 -0.06284906 0 0 0 0
0.00788918 0.07511993 -0.08477827 0 0 0 0
0.08929376 0.00283831 -0.07230186 0 0 0 0
0.06914365 0.03069171 -0.01306951 0 0 0 0
0.02694651 -0.06999719 -0.05707599 0 0 0 0
0.08966850 -0.00992826 -0.01903259 0 0 0 0
0.08815961 0.00959035 -0.05202094 0 0 0 0
0.01141272 -0.00132351 -0.09964739 0 0 0 0
0.01912046 0.07164820 0.07448062 0 0 0 0
0.01116592 -0.05585916 0.09441138 0 0 0 0
-0.03307404 -0.06658293 -0.01619040 0 0 0 0
0.08250579 0.01182172 0.06669397 0 0 0 0
-0.03939136 0.01844407 0.09676199 0 0 0 0
0.00392872 0.04442525 -0.09851475 0 0 0 0
0.08496787 0.01496468 -0.00318322 0 0 0 0
0.03982234 0.05809605 0.05144843 0 0 0 0
0.02058016 -0.07908285 0.02104383 0 0 0 0
-0.03971172 0.04055705 -0.08715010 0 0 0 0
-0.09153038 -0.00812480 -0.01627499 0 0 0 0
-0.03602510 0.06190284 -0.05227629 0 0 0 0
0.09752832 -0.00236949 -0.00482373 0 0 0 0
-0.00842629 -0.07022980 0.08858120 0 0 0 0
-0.01753607 -0.07135826 -0.07806282 0 0 0 0
0.02417314 0.07488771 0.04071756 0 0 0 0
-0.07064831 0.02918084 -0.01183905 0 0 0 0
0.08234917 -0.00721444 0.07655282 0 0 0 0
0.05423556 -0.01455772 -0.09344681 0 0 0 0
0.05942181 -0.01912777 -0.08825692 0 0 0 0
0.00797970 -0.09173245 0.01131866 0 0 0 0
0.00501464 0.08716471 -0.07217588 0 0 0 0
-0.07513691 -0.02410268 -0.03589031 0 0 0 0
0.04800184 -0.04870828 0.05855709 0 0 0 0
0.05806918 -0.04107543 0.03993067 0 0 0 0
0.09171180 -0.00809358 -0.00713500 0 0 0 0
-0.00021194 0.00547094 -0.09983940 0 0 0 0
0.03168687 0.05312289 -0.08278444 0 0 0 0
0.02296930 -0.07671858 0.01612132 0 0 0 0
-0.01717649 -0.03956679 0.09704135 0 0 0 0
0.05250046 -0.04723025 0.00764499 0 0 0 0
-0.06820738 0.03104154 -0.03544990 0 0 0 0
0.07390351 -0.02593467 -0.01362622 0 0 0 0
0.02981409 -0.05522707 -0.08300601 0 0 0 0
-0.00732896 0.09176943 -0.04255473 0 0 0 0
-0.02142275 -0.07844318 -0.01912049 0 0 0 0
0.07811408 0.02175646 -0.02003019 0 0 0 0
-0.02905816 -0.07076491 -0.01063794 0 0 0 0
-0.02515287 -0.06853603 -0.06815369 0 0 0 0
-0.01262009 -0.08724926 -0.01979841 0 0 0 0
-0.01082035 -0.03309479 -0.09883393 0 0 0 0
0.02197983 -0.07179482 -0.06792523 0 0 0 0
-0.00671804 0.09051503 0.05677112 0 0 0 0
-0.01239622 0.07220924 -0.08302061 0 0 0 0
0.03409088 0.06532227 -0.02769824 0 0 0 0
0.05406870 -0.04547168 -0.02169354 0 0 0 0
0.00314067 -0.09656282 0.01303138 0 0 0 0
0.04119743 0.03883154 -0.08711731 0 0 0 0
-0.00585689 0.09351797 -0.02950584 0 0 0 0
0.02589833 0.07256113 -0.04860906 0 0 0 0
-0.06460916 -0.03497692 -0.03035365 0 0 0 0
0.02229300 -0.02229823 -0.09874474 0 0 0 0
-0.07259430 -0.00484293 0.08921985 0 0 0 0
0.01811092 -0.06987843 0.07925994 0 0 0 0
0.02319783 0.05158288 0.09061180 0 0 0 0
-0.04239575 0.05708782 0.03674698 0 0 0 0
0.04514324 -0.03428426 -0.08758940 0 0 0 0
0.02454638 0.04501640 -0.09328434 0 0 0 0
-0.08115592 -0.00057489 0.08578223 0 0 0 0
0.02388387 -0.07377350 -0.05349883 0 0 0 0
-0.02732469 0.07243489 0.00193148 0 0 0 0
0.05822753 0.04146782 0.01464281 0 0 0 0
-0.04109078 -0.05827890 -0.03386035 0 0 0 0
0.02893743 0.07068095 0.02987724 0 0 0 0
0.05214448 -0.01374520 -0.09450595 0 0 0 0
0.00638106 0.07353657 0.08751001 0 0 0 0
0.05357300 0.04220680 0.06173422 0 0 0 0
-0.02255995 -0.06825142 -0.07489465 0 0 0 0
-0.06909318 -0.03053213 0.02850745 0 0 0 0
-0.00055546 0.00339444 0.09976868 0 0 0 0
-0.06257597 0.01767022 0.08719693 0 0 0 0
-0.05841652 -0.03895392 -0.05479530 0 0 0 0
0.02726682 0.03641895 0.09526554 0 0 0 0
-0.02702343 0.02882956 -0.09709544 0 0 0 0
-0.04795989 -0.05174600 0.01255412 0 0 0 0
0.04390883 -0.03266995 0.08966966 0 0 0 0
0.04268757 -0.00253069 -0.09866203 0 0 0 0
-0.02830268 0.07149639 -0.00948330 0 0 0 0
-0.01243031 0.00039192 0.09976868 0 0 0 0
0.01168940 -0.08310648 -0.06613223 0 0 0 0
0.05243323 -0.04741381 -0.01538260 0 0 0 0
0.03096347 0.06692810 -0.05113310 0 0 0 0
-0.02812717 0.06686819 -0.06467264 0 0 0 0
-0.03106485 -0.04734907 -0.08838493 0 0 0 0
-0.07562818 -0.02088905 -0.05974981 0 0 0 0
0.05059714 -0.03096434 -0.08631784 0 0 0 0
-0.06562747 0.03417303 -0.00941610 0 0 0 0
-0.02992663 -0.07003908 -0.00161820 0 0 0 0
0.06549452 -0.03434037 -0.01297874 0 0 0 0
0.04874306 0.04634984 0.06408008 0 0 0 0
0.01876582 0.08111252 -0.02561807 0 0 0 0
0.05973550 0.03935197 -0.03843307 0 0 0 0
0.03049893 -0.00333045 -0.09942233 0 0 0 0
-0.03277814 0.01780722 0.09814053 0 0 0 0
-0.06443582 0.03528816 0.00897603 0 0 0 0
-0.03152462 -0.06823654 0.00161619 0 0 0 0
0.07622364 -0.00482408 -0.08631772 0 0 0 0
0.04408667 0.00734702 -0.09793187 0 0 0 0
-0.03940357 -0.04679065 -0.08118406 0 0 0 0
0.08077805 -0.01898854 0.00054046 0 0 0 0
-0.00786620 -0.09202412 -0.02394716 0 0 0 0
0.04414053 0.03029269 0.09079388 0 0 0 0
0.03706353 0.06252665 0.03545832 0 0 0 0
0.07253259 -0.02733281 -0.00635320 0 0 0 0
-0.03783745 -0.03146691 -0.09337028 0 0 0 0
-0.02672527 -0.07064812 -0.05438195 0 0 0 0
-0.00697232 -0.08712281 -0.06762104 0 0 0 0
0.09603710 -0.00359962 0.02624655 0 0 0 0
0.04416371 -0.05536525 -0.02223281 0 0 0 0
0.02245580 0.00061248 -0.09953715 0 0 0 0
-0.03633568 -0.06264436 0.04147654 0 0 0 0
0.04216259 -0.05764233 -0.00704523 0 0 0 0
0.06384230 0.03047813 -0.06714238 0 0 0 0
-0.06988346 0.02862236 -0.04785790 0 0 0 0
-0.04580216 0.05393089 0.00718036 0 0 0 0
-0.01990856 -0.03058020 -0.09796675 0 0 0 0
-0.03658669 0.00128517 -0.09937920 0 0 0 0
0.08767395 0.00711481 0.06511877 0 0 0 0
-0.08239791 -0.01644609 -0.04237812 0 0 0 0
0.06379620 -0.01342772 -0.08911039 0 0 0 0
0.00214588 0.00580893 -0.09986816 0 0 0 0
-0.08833542 0.01121258 -0.02133335 0 0 0 0
-0.09066234 -0.00903777 -0.02850593 0 0 0 0
0.02013129 0.05143613 0.09229549 0 0 0 0
-0.05760545 0.02030047 -0.08878364 0 0 0 0
0.07841526 -0.02147651 -0.00510812 0 0 0 0
-0.00811823 0.09056632 -0.04496181 0 0 0 0
0.02107897 0.07442345 0.06268156 0 0 0 0
-0.05663129 0.04258206 -0.03712873 0 0 0 0
-0.03536224 0.06434692 -0.01372736 0 0 0 0
-0.08397293 0.01142145 0.06305049 0 0 0 0
-0.08365621 0.01331429 -0.05660230 0 0 0 0
0.01067179 -0.08889307 -0.03069750 0 0 0 0
-0.01035346 -0.08909290 0.03709646 0 0 0 0
0.07489280 0.02479923 -0.01453596 0 0 0 0
-0.00617488 -0.06558889 -0.09255232 0 0 0 0
0.07908189 -0.01791940 0.05756272 0 0 0 0
-0.01597752 -0.08222732 -0.04916902 0 0 0 0
0.02181280 -0.07795627 0.00004948 0 0 0 0
0.01443057 0.08363234 -0.05005889 0 0 0 0
0.06899761 0.03071111 0.01199810 0 0 0 0
-0.04307518 -0.05667021 0.00473724 0 0 0 0
0.06256498 0.01767181 -0.08717069 0 0 0 0
-0.05107523 0.04863781 0.01114229 0 0 0 0
-0.03180576 0.05356677 -0.08254020 0 0 0 0
-0.04825412 -0.04161573 -0.07659794 0 0 0 0
-0.09423243 -0.00500449 -0.03601695 0 0 0 0
-0.04163910 0.05800151 -0.01696292 0 0 0 0
0.06472524 0.03526271 -0.00056874 0 0 0 0
-0.06545066 -0.03417974 0.02749741 0 0 0 0
0.04226172 0.05738779 0.02371457 0 0 0 0
0.02170814 0.06063326 0.08520041 0 0 0 0
0.04013198 0.05318112 0.07010515 0 0 0 0
-0.03726019 -0.03992921 0.08934970 0 0 0 0
-0.01218366 -0.00941015 0.09976868 0 0 0 0
0.02315693 -0.04479096 0.09417533 0 0 0 0
0.07043304 -0.02943840 -0.02021055 0 0 0 0
0.05409592 0.04570393 -0.00944686 0 0 0 0
-0.02221711 -0.00364118 0.09976868 0 0 0 0
0.06763592 0.02021265 0.07950200 0 0 0 0
0.08240420 0.00953396 0.07246952 0 0 0 0
-0.01713021 0.08282119 -0.00229402 0 0 0 0
0.03034897 -0.06930760 0.02231712 0 0 0 0
-0.00007834 -0.09873770 0.02231533 0 0 0 0
-0.08089079 0.00629460 -0.08003831 0 0 0 0
-0.01317115 0.08463465 0.05250607 0 0 0 0
0.00992147 -0.08984947 -0.00031901 0 0 0 0
0.03505700 0.06023899 0.06338649 0 0 0 0
0.09641574 0.00200340 -0.04926254 0 0 0 0
-0.01119194 -0.01971639 -0.09942517 0 0 0 0
0.01080698 0.08903178 -0.01374267 0 0 0 0
-0.09254337 -0.00721057 0.00304569 0 0 0 0
0.06779920 0.03164485 -0.03265499 0 0 0 0
0.06646489 0.03186930 -0.05044079 0 0 0 0
0.04871738 -0.05028456 0.04127078 0 0 0 0
-0.07040744 -0.02913955 -0.02138195 0 0 0 0
-0.02139169 -0.07807267 0.03692741 0 0 0 0
0.07212961 0.02759337 -0.01307478 0 0 0 0
-0.03931215 -0.06036990 0.01727491 0 0 0 0
0.02019704 0.05196631 -0.09202720 0 0 0 0
-0.07424624 -0.01314791 0.08028346 0 0 0 0
0.02739137 0.07209384 0.03673154 0 0 0 0
0.00032676 -0.06418149 -0.09487542 0 0 0 0
-0.04909338 0.04809106 -0.05563568 0 0 0 0
0.05738813 0.04247624 -0.01881035 0 0 0 0
-0.02859742 -0.03639407 -0.09480467 0 0 0 0
0.02469076 -0.07506133 -0.01170108 0 0 0 0
0.00913536 0.06530865 -0.09106649 0 0 0 0
0.06956477 0.02906354 0.04478020 0 0 0 0
-0.03521955 0.06440206 -0.01785932 0 0 0 0
-0.00575981 0.02006633 -0.09950772 0 0 0 0
0.05642144 -0.04332665 -0.01188959 0 0 0 0
-0.09530301 -0.00434953 0.02311513 0 0 0 0
0.04964729 -0.05003180 0.01785936 0 0 0 0
-0.01068932 -0.06210012 0.09165518 0 0 0 0
0.00322161 -0.09651935 0.00561481 0 0 0 0
-0.00511243 -0.09466235 -0.00107846 0 0 0 0
0.05913169 -0.04041009 -0.02162740 0 0 0 0
0.03489621 -0.05204020 0.08082181 0 0 0 0
0.02504844 -0.07472336 -0.00048907 0 0 0 0
0.08346481 0.01631255 -0.00158857 0 0 0 0
0.08969180 0.00948719 0.03960782 0 0 0 0
0.00263091 0.03728620 -0.09904478 0 0 0 0
0.04830012 -0.00523492 -0.09753416 0 0 0 0
0.06150449 -0.03406843 -0.06291699 0 0 0 0
0.06198315 -0.03737311 -0.03407764 0 0 0 0
0.01252935 0.08729934 -0.01174906 0 0 0 0
0.04013315 -0.05968328 -0.00932264 0 0 0 0
0.07255210 -0.02725742 -0.00795568 0 0 0 0
0.01193799 -0.01129543 0.09976868 0 0 0 0
-0.03758270 0.05137017 0.07760304 0 0 0 0
-0.00179972 0.00335041 0.09976868 0 0 0 0
0.00238101 -0.08566643 0.07916003 0 0 0 0
-0.00435374 -0.09113657 -0.06329024 0 0 0 0
0.06807335 -0.03153268 0.03232261 0 0 0 0
0.06690848 0.03029620 -0.05554425 0 0 0 0
-0.03101293 -0.05506036 -0.08132385 0 0 0 0
0.09192042 -0.00784908 -0.00003455 0 0 0 0
-0.03316121 0.00379620 -0.09938895 0 0 0 0
-0.03455847 -0.06416956 0.04384367 0 0 0 0
0.05898329 -0.04078105 0.00098812 0 0 0 0
-0.05602200 -0.03606451 -0.07188851 0 0 0 0
-0.07028605 -0.02888966 -0.03890552 0 0 0 0
-0.01373981 -0.08595003 -0.02867236 0 0 0 0
0.01017279 -0.01953042 -0.09946635 0 0 0 0
-0.03608514 0.05162845 -0.07924930 0 0 0 0
-0.04818454 0.04836405 -0.05955326 0 0 0 0
0.00552754 -0.09312232 0.04457789 0 0 0 0
0.06390139 0.01686901 -0.08682714 0 0 0 0
-0.00420215 -0.08753407 0.07281676 0 0 0 0
-0.04818022 0.04802731 0.06027348 0 0 0 0
-0.00733157 0.06656806 -0.09125061 0 0 0 0
0.04452205 -0.05519433 0.01047926 0 0 0 0
0.07285786 -0.02683224 0.01568110 0 0 0 0
-0.08570950 -0.00361187 0.07696938 0 0 0 0
-0.01091533 -0.08756765 -0.04822809 0 0 0 0
0.09133177 0.00836151 0.01505226 0 0 0 0
0.02420365 0.07033627 -0.06667604 0 0 0 0
-0.06897516 -0.02947313 -0.04879013 0 0 0 0
0.02258561 -0.03009758 -0.09767725 0 0 0 0
0.05881023 0.04062814 0.03717148 0 0 0 0
-0.00734878 -0.08693431 -0.06722172 0 0 0 0
0.01584801 0.07208543 0.07935609 0 0 0 0
-0.04302918 -0.05656229 0.03520172 0 0 0 0
0.01637963 0.08134405 -0.05319927 0 0 0 0
-0.06086756 -0.03775785 -0.04592003 0 0 0 0
0.01144435 -0.08302356 -0.06607805 0 0 0 0
0.00046875 -0.05720004 0.09680461 0 0 0 0
-0.03100635 -0.06872314 0.00788360 0 0 0 0
0.06532729 -0.03441584 0.00518564 0 0 0 0
0.06086006 0.03874362 -0.03006857 0 0 0 0
0.04272342 0.03875818 -0.08636927 0 0 0 0
0.00758189 0.00413908 0.09976868 0 0 0 0
0.02429557 -0.07344173 0.05314942 0 0 0 0
0.07392354 0.02312357 -0.05642759 0 0 0 0
-0.03814381 0.04512809 -0.08456216 0 0 0 0
-0.08379283 0.00335828 -0.08003999 0 0 0 0
0.00902171 -0.09085648 -0.02154555 0 0 0 0
0.00843516 0.00313961 -0.09965979 0 0 0 0
-0.00453425 -0.09128383 0.06160353 0 0 0 0
-0.03195744 0.06766666 0.02874336 0 0 0 0
0.07606943 -0.02281046 -0.04179656 0 0 0 0
0.01653800 -0.08324758 -0.00321613 0 0 0 0
-0.06538174 0.00893684 0.09085394 0 0 0 0
-0.08421162 -0.01562588 -0.01349099 0 0 0 0
-0.01918249 -0.07730278 -0.05995024 0 0 0 0
-0.09480917 -0.00487531 0.01679512 0 0 0 0
0.00281207 0.09600855 -0.04275694 0 0 0 0
0.06476232 -0.03506125 -0.00832730 0 0 0 0
-0.06533203 -0.03439789 -0.01274753 0 0 0 0
-0.01638161 0.00063064 -0.09996480 0 0 0 0
0.01379102 -0.03926220 -0.09762844 0 0 0 0
-0.02840368 -0.07132770 0.00751190 0 0 0 0
0.03061507 -0.00558459 -0.09920175 0 0 0 0
0.01104893 -0.08753024 -0.04666935 0 0 0 0
0.05738769 0.04228331 -0.02897767 0 0 0 0
-0.06529262 0.03436860 0.02139576 0 0 0 0
-0.00577896 -0.09387417 0.02299810 0 0 0 0
-0.01398007 -0.08576187 0.00541910 0 0 0 0
-0.02585745 0.03529874 -0.09609173 0 0 0 0
0.01492597 -0.05578734 -0.09263802 0 0 0 0
0.07658188 0.02015964 -0.05834359 0 0 0 0
0.08627672 0.01224990 -0.04752093 0 0 0 0
0.08565547 0.01175323 -0.05462238 0 0 0 0
-0.00440279 -0.08060807 -0.08304861 0 0 0 0
-0.08552979 -0.01310908 -0.04570195 0 0 0 0
0.02444558 -0.06948532 -0.06796993 0 0 0 0
0.03740282 -0.04594582 0.08424060 0 0 0 0
-0.09480268 -0.00482295 0.02844162 0 0 0 0
-0.04548877 -0.05424557 0.00692618 0 0 0 0
-0.03480702 -0.06445847 0.03879539 0 0 0 0
0.05095264 0.04857569 -0.02226234 0 0 0 0
0.00775027 0.09215085 -0.00466693 0 0 0 0
-0.05891542 -0.02269505 -0.08587603 0 0 0 0
0.06438509 0.02983956 -0.06734587 0 0 0 0
-0.02896734 0.03237176 -0.09605711 0 0 0 0
0.02009565 -0.07871412 -0.04537619 0 0 0 0
-0.01949047 0.03364288 0.09792884 0 0 0 0
-0.01550838 -0.01151684 0.09976868 0 0 0 0
-0.06288888 0.02440207 -0.07991628 0 0 0 0
-0.07905035 -0.02079003 -0.00753431 0 0 0 0
-0.06688078 0.02796350 -0.06507517 0 0 0 0
-0.06594711 -0.03187917 0.05231358 0 0 0 0
0.02312578 0.07201026 -0.06429783 0 0 0 0
-0.01993544 0.03839490 0.09663540 0 0 0 0
0.08415606 0.01562290 -0.00190619 0 0 0 0
0.01903819 0.07322813 0.07190520 0 0 0 0
-0.01376433 0.00110611 -0.09994195 0 0 0 0
-0.02116615 0.07804343 0.03932048 0 0 0 0
-0.05641114 0.04130496 -0.05223329 0 0 0 0
-0.07802799 0.02168761 0.01063568 0 0 0 0
-0.04655426 0.05110313 0.05389998 0 0 0 0
-0.06087012 -0.03873605 0.03229325 0 0 0 0
0.05387709 0.04601530 -0.02435604 0 0 0 0
0.03815852 -0.04629765 -0.08364251 0 0 0 0
0.03627194 0.05285868 -0.07778969 0 0 0 0
-0.01727439 0.08134297 0.04488319 0 0 0 0
-0.05381970 -0.03644139 -0.07566817 0 0 0 0
0.00588317 0.09374402 0.02813272 0 0 0 0
-0.01304563 -0.06915301 -0.08580281 0 0 0 0
-0.03468392 0.03121459 -0.09466621 0 0 0 0
-0.04314910 -0.05618428 -0.03146363 0 0 0 0
-0.03027045 0.04603555 0.08981259 0 0 0 0
-0.05692127 -0.04290475 -0.01122157 0 0 0 0
0.01450545 0.08441222 0.04206235 0 0 0 0
-0.00347685 -0.08271055 -0.08119195 0 0 0 0
-0.02001748 -0.07915209 -0.03919518 0 0 0 0
-0.05217800 -0.02861487 0.08667599 0 0 0 0
0.03675064 0.00518352 -0.09895961 0 0 0 0
-0.04461249 -0.05077260 0.06308220 0 0 0 0
0.02626556 0.07301114 -0.03413873 0 0 0 0
-0.09869988 -0.00055434 -0.03519976 0 0 0 0
0.02952746 0.05802764 -0.07947208 0 0 0 0
-0.04579554 -0.05405117 -0.00723537 0 0 0 0
-0.08736306 0.01213778 0.03658474 0 0 0 0
-0.01071640 0.07937954 0.07563741 0 0 0 0
-0.08985920 0.00994002 -0.00591592 0 0 0 0
-0.06752241 -0.02849527 0.06092184 0 0 0 0
-0.03011133 -0.02365191 -0.09749097 0 0 0 0
-0.00311774 0.08228562 -0.08209827 0 0 0 0
0.04131538 0.01882138 -0.09628467 0 0 0 0
-0.07042504 0.02919230 -0.01806127 0 0 0 0
-0.01165302 -0.00313060 -0.09962554 0 0 0 0
0.00833406 0.03068629 -0.09908264 0 0 0 0
-0.06813057 0.03057632 -0.04459978 0 0 0 0
0.04371921 0.00670756 -0.09812244 0 0 0 0
0.05037879 -0.04940483 -0.00282787 0 0 0 0
0.09592734 0.00343495 -0.03009940 0 0 0 0
-0.02913261 -0.02187349 0.09810557 0 0 0 0
0.00934599 0.09062182 -0.00151938 0 0 0 0
0.00326694 0.09207357 -0.06396703 0 0 0 0
0.08052386 -0.00092345 0.08589516 0 0 0 0
-0.09758655 0.00229666 -0.02254034 0 0 0 0
0.04250652 0.03952476 -0.08599626 0 0 0 0
0.00382421 -0.00072684 -0.09983184 0 0 0 0
0.05299216 0.04507727 -0.05163702 0 0 0 0
-0.02061272 -0.07900527 -0.01803021 0 0 0 0
-0.00109795 0.02563132 -0.09949809 0 0 0 0
0.08416979 0.01535196 0.03638835 0 0 0 0
0.01797667 0.06719918 -0.08281668 0 0 0 0
-0.01518633 -0.08437395 0.03602645 0 0 0 0
-0.04427489 0.05492867 -0.03655189 0 0 0 0
0.08349497 -0.00922917 0.07111792 0 0 0 0
-0.03769207 -0.04358735 -0.08649944 0 0 0 0
-0.07168479 -0.02792953 0.03067985 0 0 0 0
0.01471759 0.07341387 0.07901556 0 0 0 0
0.06711109 -0.03277606 -0.02331926 0 0 0 0
0.05614121 0.04307255 -0.03710962 0 0 0 0
0.05338072 -0.04623002 0.03138845 0 0 0 0
-0.06079041 -0.01223557 0.09153124 0 0 0 0
0.06191733 -0.03643433 -0.05035582 0 0 0 0
0.00224489 -0.00233834 -0.09983219 0 0 0 0
0.03430820 0.05316395 -0.07970683 0 0 0 0
-0.03754593 -0.06232965 -0.02103096 0 0 0 0
-0.01599955 0.06424763 -0.08716400 0 0 0 0
0.08082338 -0.01847832 -0.03496168 0 0 0 0
0.00584291 0.08941530 0.06351553 0 0 0 0
0.08813579 -0.01171679 -0.00695761 0 0 0 0
0.06060518 0.03467832 -0.06390493 0 0 0 0
0.01426654 0.08570630 -0.00128206 0 0 0 0
0.00383391 0.00002204 -0.09974214 0 0 0 0
-0.09221202 -0.00731976 -0.02209940 0 0 0 0
0.00140743 -0.00109431 -0.09977995 0 0 0 0
0.03662782 -0.06036974 -0.05673830 0 0 0 0
0.07961763 -0.01572244 -0.06375416 0 0 0 0
0.07716042 -0.00698596 0.08348043 0 0 0 0
-0.08102559 0.01735600 -0.04987106 0 0 0 0
-0.01348473 -0.08436152 -0.05264539 0 0 0 0
-0.00539968 -0.09376261 -0.03953889 0 0 0 0
0.06289914 0.03284577 0.06185342 0 0 0 0
-0.04537869 0.04231393 -0.07927878 0 0 0 0
-0.08497708 -0.01473999 0.01034348 0 0 0 0
-0.00696097 -0.04643953 -0.09758262 0 0 0 0
-0.01740914 0.05051395 -0.09381337 0 0 0 0
0.09141575 -0.00648134 0.05164853 0 0 0 0
-0.02721558 -0.06115980 -0.07831900 0 0 0 0
-0.03906998 -0.06010808 -0.03879450 0 0 0 0
-0.09728242 0.00241600 0.01403494 0 0 0 0
0.01068048 0.01086005 -0.09982072 0 0 0 0
-0.04221452 -0.05249400 0.06539277 0 0 0 0
-0.05234978 -0.04750021 -0.01596416 0 0 0 0
-0.01645223 0.06687712 -0.08449574 0 0 0 0
0.06780746 -0.03201681 -0.01087476 0 0 0 0
0.04280135 0.05701510 -0.00866335 0 0 0 0
0.04522261 -0.05361515 0.04281297 0 0 0 0
0.03383429 -0.05432919 -0.07890768 0 0 0 0
0.02072036 0.06151020 -0.08576590 0 0 0 0
-0.07691038 -0.02006253 -0.05659143 0 0 0 0
-0.00962949 -0.08717535 -0.05735078 0 0 0 0
-0.01276169 -0.07384689 0.08113419 0 0 0 0
-0.04239614 0.05472093 -0.05594009 0 0 0 0
-0.03568638 0.03569137 0.09239487 0 0 0 0
-0.00431740 -0.08493204 0.07709306 0 0 0 0
-0.07147661 0.02637110 -0.05263880 0 0 0 0
0.06820227 0.00776325 -0.09030661 0 0 0 0
-0.07832892 -0.01595782 -0.06721394 0 0 0 0
0.07009438 0.02261620 0.07114124 0 0 0 0
0.04288738 -0.04464602 -0.07950260 0 0 0 0
-0.05811518 -0.04137756 -0.03186621 0 0 0 0
-0.08362582 0.01614496 -0.00028712 0 0 0 0
-0.05310386 -0.04540449 0.04590698 0 0 0 0
0.05542883 0.04367203 -0.03821609 0 0 0 0
0.00338996 -0.00271467 -0.09971815 0 0 0 0
-0.00442871 0.09474839 -0.03883947 0 0 0 0
-0.02488224 -0.06173779 -0.08069184 0 0 0 0
0.01214740 -0.07076644 -0.08485305 0 0 0 0
-0.06032352 0.01320767 -0.09148781 0 0 0 0
-0.09203942 0.00514980 -0.05561402 0 0 0 0
0.04793533 -0.02710486 -0.09051629 0 0 0 0
0.03885585 -0.04027833 -0.08788055 0 0 0 0
0.01100946 -0.01729994 -0.09948123 0 0 0 0
-0.03580486 0.06385522 0.02162198 0 0 0 0
-0.06323263 -0.03644171 0.01880113 0 0 0 0
-0.02869050 0.00851469 -0.09938631 0 0 0 0
-0.09296562 -0.00634700 -0.03244337 0 0 0 0
-0.00970616 0.08177785 -0.07394911 0 0 0 0
-0.07609890 -0.02376329 -0.01837892 0 0 0 0
0.08838297 -0.01122365 -0.01856736 0 0 0 0
0.08284041 -0.01622769 -0.03874690 0 0 0 0
0.01873865 -0.08095468 0.01504334 0 0 0 0
0.02057104 -0.04644762 0.09441302 0 0 0 0
-0.00222706 -0.00792384 0.09976868 0 0 0 0
-0.02375315 -0.07613603 -0.02544231 0 0 0 0
-0.05588393 0.03890656 0.06511285 0 0 0 0
-0.00067457 0.09735879 -0.05116023 0 0 0 0
-0.08601590 -0.01373111 0.00441855 0 0 0 0
-0.08515926 -0.01454605 0.01267097 0 0 0 0
0.04930373 0.04319945 0.07149790 0 0 0 0
-0.09105866 -0.00585652 -0.05685227 0 0 0 0
-0.05811244 0.03932063 0.05600698 0 0 0 0
0.05748920 -0.04096350 -0.04871865 0 0 0 0
-0.04113733 0.00935336 0.09814839 0 0 0 0
0.00261962 -0.09735031 -0.00141932 0 0 0 0
-0.02235138 -0.07694351 -0.03328015 0 0 0 0
0.01508860 0.07684276 -0.07283665 0 0 0 0
0.02567052 0.07348926 -0.03965691 0 0 0 0
0.05376674 -0.04438404 0.04926560 0 0 0 0
-0.04859607 -0.05115644 0.00332838 0 0 0 0
0.02392968 0.05816020 -0.08592853 0 0 0 0
-0.02040898 0.05508987 -0.09062214 0 0 0 0
-0.07501150 0.02454568 -0.02090068 0 0 0 0
0.07354589 0.02550215 0.04083791 0 0 0 0
0.00389606 0.09378250 -0.05246862 0 0 0 0
0.01062433 -0.06457143 0.09039432 0 0 0 0
-0.05021798 0.04966261 -0.02202080 0 0 0 0
0.01326213 -0.07214057 -0.08249779 0 0 0 0
-0.00869491 -0.00389590 -0.09964894 0 0 0 0
-0.04877118 0.04420415 -0.07000013 0 0 0 0
-0.06230424 0.03752800 -0.01245169 0 0 0 0
-0.07453399 0.02508196 -0.01812670 0 0 0 0
0.07401235 0.02574343 0.00268328 0 0 0 0
0.08988760 0.00988086 0.00017184 0 0 0 0
-0.07577161 -0.02277694 0.04552937 0 0 0 0
0.04093562 -0.03994305 -0.08675744 0 0 0 0
-0.00620489 0.09343948 0.02473096 0 0 0 0
-0.04909927 -0.04332111 -0.07117918 0 0 0 0
0.04211134 -0.05276934 -0.06595206 0 0 0 0
-0.01568069 -0.07747824 -0.06961003 0 0 0 0
0.00066376 0.09915069 -0.00875732 0 0 0 0
0.02506013 -0.03438755 -0.09641509 0 0 0 0
0.03328709 0.06517018 0.04638682 0 0 0 0
-0.07671999 0.02147067 -0.05108925 0 0 0 0
-0.00179419 -0.09804257 -0.01334780 0 0 0 0
0.08137778 -0.01762639 0.04124988 0 0 0 0
-0.00713853 -0.09231979 -0.02556699 0 0 0 0
0.06043043 -0.03004021 -0.07532153 0 0 0 0
0.03947225 0.02204345 -0.09602369 0 0 0 0
-0.06279927 -0.03487932 0.05370075 0 0 0 0
0.05723662 0.01695446 -0.09106296 0 0 0 0
-0.01292528 0.08193404 -0.06599745 0 0 0 0
-0.00755596 0.03803011 0.09855586 0 0 0 0
0.06503107 0.02149371 -0.08080195 0 0 0 0
0.09222274 -0.00756816 -0.00986981 0 0 0 0
0.01938868 -0.08035185 0.00569984 0 0 0 0
0.08181579 -0.01790216 0.01017006 0 0 0 0
-0.00166402 -0.06596445 0.09425704 0 0 0 0
-0.03988300 0.05993190 -0.00901961 0 0 0 0
0.08515711 -0.01401155 -0.03923792 0 0 0 0
-0.00984925 0.08383352 -0.06817003 0 0 0 0
0.03923701 -0.00845418 0.09838098 0 0 0 0
-0.06122104 0.01464620 -0.08998384 0 0 0 0
-0.05545216 -0.00279017 -0.09694390 0 0 0 0
0.00618024 -0.05942453 0.09477468 0 0 0 0
0.02155043 -0.07390831 0.06283069 0 0 0 0
0.05204941 -0.04253537 0.06581538 0 0 0 0
-0.06320426 0.02860526 0.07269074 0 0 0 0
-0.05851847 0.01408658 -0.09208407 0 0 0 0
-0.00761732 -0.00895386 -0.09996010 0 0 0 0
0.05357874 0.04130418 -0.06497226 0 0 0 0
0.04006511 0.05913331 -0.03663507 0 0 0 0
0.08969660 0.00939358 -0.04294220 0 0 0 0
0.07596614 0.02347030 -0.02659939 0 0 0 0
0.08021007 0.01943191 -0.01689819 0 0 0 0
0.00450415 0.04390580 -0.09850416 0 0 0 0
-0.06509270 -0.00269110 0.09421731 0 0 0 0
0.06850372 -0.02403545 0.07143600 0 0 0 0
-0.09382255 0.00601790 -0.01407607 0 0 0 0
0.00779188 0.08326884 0.07397837 0 0 0 0
-0.00565297 0.09226727 0.05143113 0 0 0 0
-0.02807170 -0.07180374 -0.02100190 0 0 0 0
-0.03861943 0.06110107 0.00966476 0 0 0 0
0.07499149 0.00971013 -0.08290945 0 0 0 0
-0.04718584 0.04994211 -0.05592082 0 0 0 0
0.02396292 -0.07470964 -0.04515620 0 0 0 0
0.07218657 -0.02475160 -0.05674836 0 0 0 0
0.05775998 -0.04076373 -0.04756811 0 0 0 0
0.09057847 0.00920916 -0.00362207 0 0 0 0
-0.00685843 0.01400230 -0.09984942 0 0 0 0
-0.08565650 0.01302671 -0.04498361 0 0 0 0
-0.03813280 0.06153017 0.02105170 0 0 0 0
0.05938280 -0.03679126 -0.06020084 0 0 0 0
-0.00031487 -0.03152157 -0.09938598 0 0 0 0
0.04170994 0.05798246 -0.01451841 0 0 0 0
-0.00839725 -0.06624506 0.09068432 0 0 0 0
0.06591351 0.03168410 0.05446142 0 0 0 0
0.00881368 -0.03851481 -0.09870885 0 0 0 0
0.04144045 0.05777439 -0.03705847 0 0 0 0
-0.09009271 0.00542272 0.06263709 0 0 0 0
0.03108984 -0.06855918 -0.01656545 0 0 0 0
-0.09789943 -0.00171892 0.02988216 0 0 0 0
-0.00422524 0.03918533 -0.09889726 0 0 0 0
-0.07167634 -0.02220112 -0.06765129 0 0 0 0
-0.01010325 0.08337626 -0.06871160 0 0 0 0
0.00663046 -0.00198475 -0.09987520 0 0 0 0
0.07227337 -0.01039358 -0.08504684 0 0 0 0
-0.01373743 -0.08615382 -0.00513256 0 0 0 0
0.08450530 -0.01535282 -0.02594570 0 0 0 0
0.07833873 -0.02046729 -0.04299345 0 0 0 0
0.08683813 0.01298376 -0.01040230 0 0 0 0
-0.00031987 0.00260844 0.09976868 0 0 0 0
-0.01014179 -0.03696010 -0.09841354 0 0 0 0
-0.04668120 -0.04872853 -0.06356855 0 0 0 0
-0.01808202 -0.02906269 -0.09840789 0 0 0 0
-0.07074275 -0.02029184 -0.07458086 0 0 0 0
0.07638843 -0.02329363 0.01727212 0 0 0 0
-0.04093028 0.04727434 0.07888975 0 0 0 0
0.02751740 0.03456863 0.09567474 0 0 0 0
-0.07305334 -0.02678332 -0.01332558 0 0 0 0
-0.02667466 0.00153943 -0.09953893 0 0 0 0
0.01755777 0.07794126 -0.06325083 0 0 0 0
0.06756650 -0.02688625 -0.06611843 0 0 0 0
0.02923696 -0.00308152 0.09965812 0 0 0 0
-0.02012933 0.07802878 0.04919682 0 0 0 0
0.05146677 -0.04584432 0.05650469 0 0 0 0
0.08653896 -0.00986629 -0.06045196 0 0 0 0
-0.02983997 0.06610987 0.06115355 0 0 0 0
0.04108409 -0.05853506 0.02972530 0 0 0 0
0.00583520 -0.04695012 -0.09766378 0 0 0 0
-0.01936580 0.07968251 -0.03906737 0 0 0 0
0.09444019 0.00414098 -0.04663690 0 0 0 0
0.00340492 0.09633283 -0.01237776 0 0 0 0
-0.01342951 0.08632953 0.00203742 0 0 0 0
-0.01889826 -0.06124357 0.08729637 0 0 0 0
-0.06356176 -0.03614194 -0.02844777 0 0 0 0
0.00169362 -0.09563056 -0.05500431 0 0 0 0
0.08056848 0.00478957 0.08232583 0 0 0 0
-0.07220579 0.02708691 -0.03338389 0 0 0 0
0.05781604 -0.03883419 -0.05891599 0 0 0 0
-0.01216350 -0.08701469 0.03961539 0 0 0 0
-0.00732267 0.00668310 0.09976868 0 0 0 0
0.07582359 0.01489328 0.07456966 0 0 0 0
0.08386409 0.01601108 -0.02094911 0 0 0 0
-0.05421975 0.02186201 -0.09021537 0 0 0 0
