ply
format ascii 1.0
comment https://github.com/mikedh/trimesh
element vertex 1120
property float x
property float y
property float z
property uchar red
property uchar green
property uchar blue
property uchar alpha
end_header
-0.10000000 0.07549997 0.03615406 0 0 0 0
-0.05149514 0.03421046 -0.10000000 0 0 0 0
-0.01293445 -0.00513665 -0.10000000 0 0 0 0
0.04159421 -0.02839502 -0.10000000 0 0 0 0
0.05349868 -0.10000000 0.01942129 0 0 0 0
0.02127376 -0.05134258 -0.10000000 0 0 0 0
-0.10000000 -0.08594260 -0.09748517 0 0 0 0
0.00769364 0.10000000 -0.09915260 0 0 0 0
-0.09869070 -0.10000000 0.05762158 0 0 0 0
0.06624845 -0.08518244 0.10000000 0 0 0 0
-0.04987986 -0.02531921 -0.10000000 0 0 0 0
-0.02915351 0.06483223 0.10000000 0 0 0 0
-0.01270457 0.10000000 -0.05373936 0 0 0 0
0.06689550 -0.10000000 -0.03991031 0 0 0 0
-0.08789851 0.03671421 -0.10000000 0 0 0 0
-0.10000000 -0.08518676 0.08555405 0 0 0 0
0.04421682 -0.10000000 0.02749540 0 0 0 0
-0.03484272 -0.10000000 -0.07884922 0 0 0 0
-0.02618702 0.06629409 0.10000000 0 0 0 0
-0.10000000 -0.02321907 -0.05778962 0 0 0 0
-0.08463923 -0.10000000 -0.05711657 0 0 0 0
-0.08272749 -0.04547265 0.10000000 0 0 0 0
0.08672039 -0.02528187 0.10000000 0 0 0 0
-0.08979397 0.02308332 0.10000000 0 0 0 0
-0.01114441 0.04300121 -0.10000000 0 0 0 0
0.10000000 0.07047553 -0.00020536 0 0 0 0
-0.01977763 -0.03430087 -0.10000000 0 0 0 0
0.05172959 -0.09941559 0.10000000 0 0 0 0
-0.10000000 0.08691714 0.05757321 0 0 0 0
0.01058615 0.05347642 -0.10000000 0 0 0 0
-0.05036686 -0.07782678 0.10000000 0 0 0 0
-0.01787449 -0.00201170 0.10000000 0 0 0 0
0.03585205 -0.06792112 0.10000000 0 0 0 0
0.07709598 -0.04055439 -0.10000000 0 0 0 0
-0.02211012 -0.02849139 0.10000000 0 0 0 0
0.09723163 -0.05068967 -0.10000000 0 0 0 0
0.09216306 0.10000000 -0.08140846 0 0 0 0
-0.10000000 -0.05081357 0.02558465 0 0 0 0
0.10000000 -0.05916224 -0.07736440 0 0 0 0
0.09443195 0.05928237 -0.10000000 0 0 0 0
0.10000000 -0.02174651 -0.06886713 0 0 0 0
0.08895136 0.10000000 -0.04393717 0 0 0 0
-0.02235845 -0.10000000 0.09316087 0 0 0 0
0.07313792 0.01879672 -0.10000000 0 0 0 0
-0.04643197 0.09285905 0.10000000 0 0 0 0
-0.02342085 0.09190235 -0.10000000 0 0 0 0
-0.00841395 -0.02916928 -0.10000000 0 0 0 0
-0.04968508 -0.10000000 -0.03855775 0 0 0 0
0.03060765 0.08120565 0.10000000 0 0 0 0
-0.04535008 0.08271385 0.10000000 0 0 0 0
0.09995510 -0.09913258 0.10000000 0 0 0 0
0.02226517 0.09748496 0.10000000 0 0 0 0
0.07492968 -0.04508464 -0.10000000 0 0 0 0
-0.07870622 -0.05759518 -0.10000000 0 0 0 0
-0.04587520 0.06312533 -0.10000000 0 0 0 0
0.06336768 -0.02457313 -0.10000000 0 0 0 0
-0.00937217 0.10000000 -0.07179920 0 0 0 0
0.02423665 0.10000000 -0.07588221 0 0 0 0
0.03233189 0.00718463 -0.10000000 0 0 0 0
0.02813472 -0.10000000 0.08765198 0 0 0 0
0.10000000 -0.02957762 -0.02446404 0 0 0 0
0.02325934 0.08038787 0.10000000 0 0 0 0
0.06429552 0.07960115 0.10000000 0 0 0 0
0.10000000 0.03517597 0.01609017 0 0 0 0
-0.06216213 0.10000000 0.01463425 0 0 0 0
0.09481315 -0.00971466 0.10000000 0 0 0 0
0.04661793 0.10000000 -0.01031765 0 0 0 0
-0.00051964 0.05604201 -0.10000000 0 0 0 0
-0.10000000 -0.09474660 0.06271459 0 0 0 0
-0.00166607 0.02269371 -0.10000000 0 0 0 0
0.03406530 -0.03794062 -0.10000000 0 0 0 0
0.08780147 0.04520731 -0.10000000 0 0 0 0
-0.04062543 0.00876900 -0.10000000 0 0 0 0
-0.10000000 -0.06204129 0.08769157 0 0 0 0
-0.08076227 -0.05067262 -0.10000000 0 0 0 0
-0.07444950 -0.01044646 -0.10000000 0 0 0 0
0.02074030 0.04066940 -0.10000000 0 0 0 0
-0.01998970 -0.01914834 0.10000000 0 0 0 0
0.05254319 -0.00991534 -0.10000000 0 0 0 0
0.04053731 0.05882812 -0.10000000 0 0 0 0
0.06120447 -0.10000000 0.06778485 0 0 0 0
-0.10000000 0.00165442 -0.00381405 0 0 0 0
-0.04090426 0.07041468 -0.10000000 0 0 0 0
-0.10000000 -0.01749313 -0.01845482 0 0 0 0
0.10000000 0.02353668 -0.08569022 0 0 0 0
-0.08087495 -0.07242028 -0.10000000 0 0 0 0
-0.10000000 0.04159998 0.01042947 0 0 0 0
-0.08262613 -0.00289495 -0.10000000 0 0 0 0
0.10000000 0.03840095 -0.08570644 0 0 0 0
0.09327917 -0.09658825 0.10000000 0 0 0 0
-0.10000000 -0.02143124 0.02734281 0 0 0 0
0.00909470 -0.00956203 -0.10000000 0 0 0 0
-0.08553194 -0.10000000 0.04860323 0 0 0 0
0.08164696 -0.10000000 -0.06639264 0 0 0 0
0.07392965 0.10000000 0.04402858 0 0 0 0
-0.05619628 -0.02948267 0.10000000 0 0 0 0
0.02840988 0.02860104 -0.10000000 0 0 0 0
0.00950766 -0.04055755 -0.10000000 0 0 0 0
0.08710345 0.10000000 -0.05754795 0 0 0 0
-0.10000000 0.05506372 0.03328777 0 0 0 0
0.09708194 0.08951291 -0.10000000 0 0 0 0
0.09422632 0.08110119 -0.10000000 0 0 0 0
0.09592739 0.10000000 -0.07729904 0 0 0 0
0.04264832 -0.09990379 -0.10000000 0 0 0 0
-0.08647458 0.07109610 -0.10000000 0 0 0 0
0.07632715 0.01594862 -0.10000000 0 0 0 0
-0.03645311 -0.09446679 -0.10000000 0 0 0 0
0.06699477 0.00816766 -0.10000000 0 0 0 0
0.08914607 0.07054902 -0.10000000 0 0 0 0
-0.01716512 -0.00886540 -0.10000000 0 0 0 0
-0.01219567 -0.08696222 -0.10000000 0 0 0 0
-0.00448921 0.05551147 0.10000000 0 0 0 0
-0.04225664 -0.04935372 0.10000000 0 0 0 0
0.07803185 -0.02413698 0.10000000 0 0 0 0
-0.04582448 0.02428133 -0.10000000 0 0 0 0
0.02782613 0.10000000 -0.05523680 0 0 0 0
0.04617847 0.09644536 -0.10000000 0 0 0 0
-0.01663250 -0.10000000 -0.00685585 0 0 0 0
-0.10000000 -0.06184130 -0.02564247 0 0 0 0
0.00371476 -0.03201097 -0.10000000 0 0 0 0
0.09232102 -0.04980844 -0.10000000 0 0 0 0
-0.00726710 -0.01925671 0.10000000 0 0 0 0
0.09669720 0.10000000 -0.02993227 0 0 0 0
0.03151032 0.07064701 -0.10000000 0 0 0 0
0.09736311 0.07808789 -0.10000000 0 0 0 0
-0.06170276 -0.02639003 -0.10000000 0 0 0 0
-0.08306462 0.02741386 0.10000000 0 0 0 0
0.05176548 -0.00991919 0.10000000 0 0 0 0
-0.10000000 -0.03090275 -0.06801707 0 0 0 0
0.04705210 0.06092567 -0.10000000 0 0 0 0
-0.07828588 -0.10000000 0.08516259 0 0 0 0
-0.06092766 0.02250108 -0.10000000 0 0 0 0
0.09542892 -0.01711581 0.10000000 0 0 0 0
-0.05897494 -0.10000000 0.03058259 0 0 0 0
0.00468772 -0.00460403 -0.10000000 0 0 0 0
0.02678868 0.01407380 0.10000000 0 0 0 0
-0.05667160 -0.10000000 0.09352495 0 0 0 0
0.00525351 0.10000000 0.07780302 0 0 0 0
0.01999444 -0.06706529 -0.10000000 0 0 0 0
-0.03639794 0.10000000 -0.06067290 0 0 0 0
0.06795911 -0.00193198 0.10000000 0 0 0 0
-0.00721762 0.06165774 0.10000000 0 0 0 0
0.10000000 0.05568277 0.01184839 0 0 0 0
0.10000000 0.05782101 0.02018548 0 0 0 0
-0.00531006 0.04684649 -0.10000000 0 0 0 0
0.01757151 0.00964781 -0.10000000 0 0 0 0
-0.09040628 0.10000000 -0.00804550 0 0 0 0
0.06513008 -0.09306720 -0.10000000 0 0 0 0
-0.03786403 0.00021396 0.10000000 0 0 0 0
0.03035572 0.02381313 -0.10000000 0 0 0 0
0.02178897 -0.03113364 -0.10000000 0 0 0 0
0.00405015 -0.06817117 -0.10000000 0 0 0 0
0.04789423 -0.05727345 0.10000000 0 0 0 0
0.06960176 -0.06305026 -0.10000000 0 0 0 0
0.06223314 -0.03973568 -0.10000000 0 0 0 0
0.06067063 -0.10000000 0.02202894 0 0 0 0
0.01523045 0.03609836 -0.10000000 0 0 0 0
0.08879266 -0.05537939 -0.10000000 0 0 0 0
0.09209214 -0.08071722 0.10000000 0 0 0 0
-0.02876012 -0.06085208 -0.10000000 0 0 0 0
-0.10000000 0.06121904 -0.09182478 0 0 0 0
0.06992556 0.07040058 -0.10000000 0 0 0 0
-0.09046663 0.04855888 -0.10000000 0 0 0 0
0.00722705 0.09682524 -0.10000000 0 0 0 0
0.00419618 0.03579509 0.10000000 0 0 0 0
0.02138745 -0.10000000 0.05122713 0 0 0 0
-0.10000000 0.03408063 -0.08778061 0 0 0 0
0.05505338 -0.00078438 -0.10000000 0 0 0 0
0.07582040 0.08461066 -0.10000000 0 0 0 0
0.10000000 0.06417472 0.01531536 0 0 0 0
0.06013433 0.03725698 -0.10000000 0 0 0 0
0.01778807 -0.07153017 -0.10000000 0 0 0 0
0.00960044 -0.10000000 -0.01157387 0 0 0 0
-0.01712637 -0.10000000 0.05792096 0 0 0 0
-0.10000000 -0.03291326 -0.03262809 0 0 0 0
-0.06867015 0.08960216 -0.10000000 0 0 0 0
0.10000000 -0.04531910 -0.02285311 0 0 0 0
-0.01614698 -0.01038415 0.10000000 0 0 0 0
0.05057263 -0.05884033 0.10000000 0 0 0 0
0.10000000 -0.04883603 0.00994603 0 0 0 0
-0.06910977 -0.07936700 0.10000000 0 0 0 0
-0.10000000 0.05076780 -0.03256516 0 0 0 0
0.04663944 0.10000000 -0.06855861 0 0 0 0
0.03128408 -0.06605332 -0.10000000 0 0 0 0
-0.03761589 0.01277860 -0.10000000 0 0 0 0
0.10000000 0.08889352 0.08655205 0 0 0 0
-0.07482778 0.10000000 -0.04746475 0 0 0 0
-0.10000000 -0.03019006 0.02212466 0 0 0 0
-0.05008490 -0.09482584 -0.10000000 0 0 0 0
-0.02444717 0.10000000 0.02352411 0 0 0 0
0.02686305 0.06132854 0.10000000 0 0 0 0
-0.10000000 -0.09997606 0.04033859 0 0 0 0
-0.09890240 0.00683895 -0.10000000 0 0 0 0
-0.05502316 0.01840240 -0.10000000 0 0 0 0
-0.03259661 -0.04422582 -0.10000000 0 0 0 0
-0.07316433 0.05310351 -0.10000000 0 0 0 0
0.01850043 -0.01881216 -0.10000000 0 0 0 0
-0.07885785 0.03454942 0.10000000 0 0 0 0
0.10000000 -0.02674969 0.09298785 0 0 0 0
-0.10000000 -0.06942941 -0.03148444 0 0 0 0
-0.03933101 0.10000000 0.01314722 0 0 0 0
-0.06210958 0.10000000 -0.01957801 0 0 0 0
-0.00875603 0.07570480 0.10000000 0 0 0 0
-0.04338671 -0.00077022 -0.10000000 0 0 0 0
0.00361609 -0.00418886 -0.10000000 0 0 0 0
0.10000000 -0.01715282 -0.00035799 0 0 0 0
0.01511814 0.09866489 -0.10000000 0 0 0 0
0.00609223 0.02446871 -0.10000000 0 0 0 0
0.07195969 0.07843342 0.10000000 0 0 0 0
-0.00742587 0.10000000 -0.00369663 0 0 0 0
-0.04501448 -0.09912048 -0.10000000 0 0 0 0
0.04068802 0.08995164 0.10000000 0 0 0 0
0.10000000 -0.07641374 -0.02221888 0 0 0 0
-0.07246767 -0.04028297 0.10000000 0 0 0 0
-0.09550771 -0.01016741 -0.10000000 0 0 0 0
0.03154092 0.06412046 -0.10000000 0 0 0 0
-0.06904630 -0.00001318 0.10000000 0 0 0 0
0.08627033 0.04834194 -0.10000000 0 0 0 0
-0.03340435 -0.08761477 0.10000000 0 0 0 0
0.01479456 -0.03997390 -0.10000000 0 0 0 0
0.02911593 -0.04102619 0.10000000 0 0 0 0
-0.07129641 0.03727867 -0.10000000 0 0 0 0
-0.01998214 0.10000000 -0.07946645 0 0 0 0
0.06304069 -0.10000000 -0.06611574 0 0 0 0
0.01343074 -0.08234245 -0.10000000 0 0 0 0
0.08840831 -0.04319463 -0.10000000 0 0 0 0
-0.00498274 0.06732294 0.10000000 0 0 0 0
-0.10000000 -0.07262632 -0.02766996 0 0 0 0
-0.07281090 0.08817716 -0.10000000 0 0 0 0
-0.04949537 -0.05723833 -0.10000000 0 0 0 0
-0.08188678 0.07968774 0.10000000 0 0 0 0
0.00995486 0.09642804 -0.10000000 0 0 0 0
0.05051749 -0.02823560 0.10000000 0 0 0 0
-0.04265259 0.03087960 -0.10000000 0 0 0 0
0.06800629 -0.05356992 -0.10000000 0 0 0 0
0.09288977 -0.05052855 -0.10000000 0 0 0 0
0.08433778 0.08482058 0.10000000 0 0 0 0
-0.03327502 -0.07771700 -0.10000000 0 0 0 0
-0.09162740 0.10000000 0.03895844 0 0 0 0
0.10000000 0.04489413 -0.09977400 0 0 0 0
-0.08621515 0.02173386 0.10000000 0 0 0 0
-0.07417773 0.04268903 -0.10000000 0 0 0 0
0.10000000 -0.03341499 -0.04438052 0 0 0 0
-0.07175050 0.07623490 -0.10000000 0 0 0 0
-0.10000000 0.03441214 -0.07875513 0 0 0 0
-0.03962614 0.01793833 -0.10000000 0 0 0 0
0.09838582 -0.08848155 -0.10000000 0 0 0 0
-0.01037590 -0.07691348 0.10000000 0 0 0 0
0.05919302 0.10000000 0.05207540 0 0 0 0
0.10000000 0.03922533 -0.05237133 0 0 0 0
0.00109672 -0.01554566 0.10000000 0 0 0 0
-0.04763236 -0.09438691 0.10000000 0 0 0 0
0.07439664 -0.10000000 -0.05730448 0 0 0 0
0.07705480 -0.05805518 -0.10000000 0 0 0 0
-0.03314210 -0.04865516 0.10000000 0 0 0 0
0.09280753 0.10000000 -0.01671801 0 0 0 0
-0.00598524 0.09318216 -0.10000000 0 0 0 0
0.00951928 0.01541922 -0.10000000 0 0 0 0
-0.00108533 0.05703089 -0.10000000 0 0 0 0
-0.01557547 -0.08601822 -0.10000000 0 0 0 0
0.03232353 0.01772318 -0.10000000 0 0 0 0
0.00893053 0.05666930 -0.10000000 0 0 0 0
0.07835069 -0.00376172 -0.10000000 0 0 0 0
-0.10000000 -0.09282237 0.01807497 0 0 0 0
-0.10000000 0.07278966 -0.09738613 0 0 0 0
0.06683411 0.10000000 -0.07861626 0 0 0 0
0.07250821 -0.07719433 0.10000000 0 0 0 0
0.02734507 -0.09170575 0.10000000 0 0 0 0
-0.08135643 0.10000000 -0.03296218 0 0 0 0
-0.04716609 -0.03472311 -0.10000000 0 0 0 0
0.07607071 0.03838632 -0.10000000 0 0 0 0
0.04611779 -0.01719704 -0.10000000 0 0 0 0
0.00117740 -0.10000000 -0.05073528 0 0 0 0
0.06155270 0.02255754 -0.10000000 0 0 0 0
-0.10000000 -0.08128686 -0.03633295 0 0 0 0
-0.03054199 -0.04868840 0.10000000 0 0 0 0
-0.10000000 0.02475192 -0.09380921 0 0 0 0
-0.06657931 -0.08602122 -0.10000000 0 0 0 0
-0.04752542 0.09012593 -0.10000000 0 0 0 0
0.01857442 0.10000000 -0.06671874 0 0 0 0
0.04919925 -0.10000000 -0.02111934 0 0 0 0
0.02000954 0.08311937 0.10000000 0 0 0 0
-0.07693399 -0.01502005 -0.10000000 0 0 0 0
0.01040728 0.10000000 -0.02710939 0 0 0 0
-0.00751252 -0.03955451 -0.10000000 0 0 0 0
0.04434806 -0.10000000 0.02896339 0 0 0 0
0.06065550 -0.10000000 -0.00627476 0 0 0 0
-0.06518759 -0.10000000 -0.04050345 0 0 0 0
-0.08434920 0.05503360 -0.10000000 0 0 0 0
0.01081595 -0.05221069 -0.10000000 0 0 0 0
-0.09661897 0.01914913 0.10000000 0 0 0 0
0.03141911 0.00558514 -0.10000000 0 0 0 0
0.00782192 0.01632899 -0.10000000 0 0 0 0
0.09164876 -0.00253836 -0.10000000 0 0 0 0
0.07022592 -0.04356932 -0.10000000 0 0 0 0
0.10000000 0.02314099 0.07278612 0 0 0 0
-0.08581753 0.01034004 0.10000000 0 0 0 0
0.10000000 -0.00380444 0.00508977 0 0 0 0
0.09060864 0.06990606 -0.10000000 0 0 0 0
-0.10000000 -0.08998232 -0.06363061 0 0 0 0
-0.10000000 0.02389805 0.03087811 0 0 0 0
-0.07881667 0.02386738 -0.10000000 0 0 0 0
0.02418793 0.07295403 -0.10000000 0 0 0 0
-0.05027947 -0.02227200 0.10000000 0 0 0 0
-0.05935005 -0.10000000 -0.04424701 0 0 0 0
-0.00393046 0.10000000 0.01106618 0 0 0 0
0.10000000 0.07663985 0.00162316 0 0 0 0
-0.09771430 0.08942886 0.10000000 0 0 0 0
-0.07307939 -0.06649955 0.10000000 0 0 0 0
0.10000000 0.02183456 0.00214598 0 0 0 0
-0.04365329 0.05398730 -0.10000000 0 0 0 0
0.05852661 -0.04657665 0.10000000 0 0 0 0
-0.03875487 0.04659997 0.10000000 0 0 0 0
-0.00884737 -0.02120361 -0.10000000 0 0 0 0
-0.07997887 0.02956146 -0.10000000 0 0 0 0
-0.00214591 -0.10000000 -0.07617553 0 0 0 0
-0.01498554 0.06234278 0.10000000 0 0 0 0
-0.02698044 -0.02350793 -0.10000000 0 0 0 0
-0.09046500 -0.09765390 0.10000000 0 0 0 0
0.03636071 -0.10000000 -0.03978656 0 0 0 0
-0.05388390 0.05458425 -0.10000000 0 0 0 0
-0.10000000 -0.00812686 -0.03994328 0 0 0 0
0.01598084 -0.06712173 0.10000000 0 0 0 0
-0.04610819 -0.09173491 -0.10000000 0 0 0 0
0.02499617 -0.08957688 0.10000000 0 0 0 0
-0.09504668 -0.06312174 -0.10000000 0 0 0 0
0.10000000 -0.02083185 0.06530650 0 0 0 0
-0.10000000 -0.05729926 -0.08153348 0 0 0 0
0.02106012 -0.10000000 -0.01062379 0 0 0 0
-0.07613854 0.09811436 0.10000000 0 0 0 0
-0.01757855 0.03115398 0.10000000 0 0 0 0
0.09737219 -0.07563006 0.10000000 0 0 0 0
0.02616809 -0.10000000 0.09962918 0 0 0 0
0.09379640 -0.10000000 -0.09001987 0 0 0 0
0.05271972 -0.05898815 -0.10000000 0 0 0 0
-0.04920284 -0.10000000 0.03447830 0 0 0 0
0.09824307 -0.02865472 0.10000000 0 0 0 0
-0.08071144 0.00011893 -0.10000000 0 0 0 0
0.09573875 -0.03659008 0.10000000 0 0 0 0
-0.02240195 -0.08876376 0.10000000 0 0 0 0
0.06783732 -0.02677917 -0.10000000 0 0 0 0
0.07610513 -0.07853265 -0.10000000 0 0 0 0
-0.06318647 -0.10000000 -0.02748656 0 0 0 0
-0.03846142 0.01945981 -0.10000000 0 0 0 0
-0.09520714 0.09349531 -0.10000000 0 0 0 0
-0.01178895 0.04532032 -0.10000000 0 0 0 0
-0.06953111 -0.03654794 -0.10000000 0 0 0 0
0.07954712 -0.04962783 -0.10000000 0 0 0 0
0.01091618 -0.02082534 -0.10000000 0 0 0 0
-0.05383126 0.10000000 0.06047661 0 0 0 0
-0.02769322 -0.10000000 0.09459049 0 0 0 0
-0.03529555 -0.00353140 -0.10000000 0 0 0 0
0.01169599 -0.03086018 -0.10000000 0 0 0 0
0.01527547 -0.10000000 0.00761261 0 0 0 0
0.07701424 0.10000000 0.03770184 0 0 0 0
-0.10000000 -0.02170108 -0.00356398 0 0 0 0
-0.01731640 -0.00146777 -0.10000000 0 0 0 0
-0.03535046 0.06233193 0.10000000 0 0 0 0
0.07394987 0.10000000 -0.04950915 0 0 0 0
0.02869426 -0.10000000 0.08839869 0 0 0 0
0.07451462 -0.04368873 -0.10000000 0 0 0 0
-0.06091402 0.05985182 0.10000000 0 0 0 0
0.08233709 0.05536776 -0.10000000 0 0 0 0
0.07079978 -0.06003701 -0.10000000 0 0 0 0
0.05339767 0.10000000 0.02715990 0 0 0 0
0.01663481 0.01318149 0.10000000 0 0 0 0
-0.06860997 0.02917824 -0.10000000 0 0 0 0
-0.03863886 -0.02955562 -0.10000000 0 0 0 0
0.03681517 -0.09929511 -0.10000000 0 0 0 0
-0.02675050 0.06209575 -0.10000000 0 0 0 0
-0.03613986 -0.03125981 -0.10000000 0 0 0 0
0.05652206 -0.10000000 0.00318957 0 0 0 0
-0.04888751 -0.02766931 0.10000000 0 0 0 0
0.10000000 0.07550184 -0.04114055 0 0 0 0
-0.08053623 0.03907451 -0.10000000 0 0 0 0
-0.01763301 -0.10000000 0.07202709 0 0 0 0
-0.01223627 0.01417926 -0.10000000 0 0 0 0
-0.08932502 0.10000000 0.05127299 0 0 0 0
-0.04092625 -0.04226661 -0.10000000 0 0 0 0
0.10000000 -0.07336929 0.02536103 0 0 0 0
0.07810922 0.07148200 0.10000000 0 0 0 0
-0.09011047 -0.06060264 0.10000000 0 0 0 0
0.10000000 0.01118647 0.05186572 0 0 0 0
0.02209862 -0.10000000 -0.01135445 0 0 0 0
0.10000000 -0.09411329 0.07552887 0 0 0 0
-0.09029268 0.09248897 -0.10000000 0 0 0 0
-0.08214566 0.00914113 -0.10000000 0 0 0 0
-0.02265330 -0.03792425 -0.10000000 0 0 0 0
-0.09238541 -0.04850883 0.10000000 0 0 0 0
-0.03001711 0.10000000 0.05778955 0 0 0 0
0.03574047 -0.06262265 -0.10000000 0 0 0 0
0.05437700 0.10000000 0.08779572 0 0 0 0
0.04799256 -0.01560936 -0.10000000 0 0 0 0
-0.04610202 -0.02438858 0.10000000 0 0 0 0
0.00380690 -0.09387875 0.10000000 0 0 0 0
0.07644458 -0.10000000 -0.02344285 0 0 0 0
-0.00046728 0.02213079 -0.10000000 0 0 0 0
0.10000000 0.06261493 0.01692721 0 0 0 0
-0.08414468 0.06398945 -0.10000000 0 0 0 0
-0.04713679 -0.02214341 -0.10000000 0 0 0 0
-0.10000000 -0.00926524 -0.09976123 0 0 0 0
-0.04942714 0.03077527 -0.10000000 0 0 0 0
-0.05479841 -0.09093443 -0.10000000 0 0 0 0
-0.10000000 -0.00344425 -0.04555341 0 0 0 0
0.10000000 0.09763220 0.05753859 0 0 0 0
-0.06102331 -0.02562630 0.10000000 0 0 0 0
-0.06478597 -0.08075883 -0.10000000 0 0 0 0
-0.04963331 0.02231176 -0.10000000 0 0 0 0
-0.07001936 0.02867083 -0.10000000 0 0 0 0
0.02944038 0.05763287 -0.10000000 0 0 0 0
0.00638876 -0.04663884 -0.10000000 0 0 0 0
0.04570801 0.10000000 0.09281633 0 0 0 0
-0.06915928 0.08163184 -0.10000000 0 0 0 0
0.02222825 0.02317641 -0.10000000 0 0 0 0
0.00822109 -0.06097857 0.10000000 0 0 0 0
0.04370418 0.00320168 -0.10000000 0 0 0 0
-0.01876891 -0.06672201 -0.10000000 0 0 0 0
0.05713060 0.10000000 0.07083628 0 0 0 0
0.08270745 -0.10000000 0.09341301 0 0 0 0
0.08156111 0.04683123 0.10000000 0 0 0 0
-0.10000000 -0.06617124 0.07793606 0 0 0 0
0.00730606 0.01489009 -0.10000000 0 0 0 0
-0.05825076 0.07884236 0.10000000 0 0 0 0
-0.00381481 0.10000000 -0.07949528 0 0 0 0
0.04598697 -0.07863519 -0.10000000 0 0 0 0
0.08505688 -0.10000000 -0.07635804 0 0 0 0
0.02818619 0.06949329 0.10000000 0 0 0 0
0.04144005 0.00633069 0.10000000 0 0 0 0
-0.02018993 -0.10000000 -0.09462322 0 0 0 0
0.09062509 0.05356928 -0.10000000 0 0 0 0
0.03928831 -0.00649743 -0.10000000 0 0 0 0
-0.05156785 0.07856590 -0.10000000 0 0 0 0
-0.03032165 0.06814860 -0.10000000 0 0 0 0
-0.10000000 0.00867294 -0.03724229 0 0 0 0
0.05022783 -0.10000000 -0.01888164 0 0 0 0
-0.05069809 -0.09953121 -0.10000000 0 0 0 0
0.04774104 -0.05545705 -0.10000000 0 0 0 0
0.04864879 0.07118172 -0.10000000 0 0 0 0
0.07147371 -0.07216576 -0.10000000 0 0 0 0
-0.04268480 -0.08908506 -0.10000000 0 0 0 0
-0.09517214 0.02869415 -0.10000000 0 0 0 0
0.09393080 -0.02805378 0.10000000 0 0 0 0
0.00280258 -0.10000000 0.02116358 0 0 0 0
-0.10000000 -0.02489516 -0.08348449 0 0 0 0
-0.02025212 -0.06301893 -0.10000000 0 0 0 0
0.04842634 -0.02858756 -0.10000000 0 0 0 0
-0.10000000 -0.07274859 -0.04394231 0 0 0 0
-0.02809986 0.00734311 0.10000000 0 0 0 0
-0.02430939 0.08541012 -0.10000000 0 0 0 0
-0.06805832 -0.07508042 -0.10000000 0 0 0 0
0.00137845 -0.10000000 -0.08458139 0 0 0 0
-0.00821794 0.10000000 -0.02889576 0 0 0 0
-0.09833191 0.06496405 -0.10000000 0 0 0 0
0.00034280 0.06180904 -0.10000000 0 0 0 0
0.02650660 -0.01241870 0.10000000 0 0 0 0
0.00348615 0.02633639 -0.10000000 0 0 0 0
-0.08148192 0.08747949 -0.10000000 0 0 0 0
-0.01405455 -0.10000000 0.02278279 0 0 0 0
0.04529162 -0.00650457 -0.10000000 0 0 0 0
0.08101834 -0.10000000 0.06036745 0 0 0 0
0.02566398 0.03571066 0.10000000 0 0 0 0
0.09258755 0.06465547 -0.10000000 0 0 0 0
0.03071690 -0.10000000 -0.05807088 0 0 0 0
-0.03949451 0.00215853 0.10000000 0 0 0 0
0.01690362 0.02369609 -0.10000000 0 0 0 0
-0.03721220 0.06413548 0.10000000 0 0 0 0
-0.09708872 0.10000000 -0.07113260 0 0 0 0
0.09221023 -0.01494217 -0.10000000 0 0 0 0
0.00667382 0.05374662 -0.10000000 0 0 0 0
0.02723273 -0.01455982 -0.10000000 0 0 0 0
0.01979685 0.01053719 -0.10000000 0 0 0 0
-0.05310604 0.10000000 0.08306927 0 0 0 0
-0.01857330 0.10000000 0.04676309 0 0 0 0
0.05326604 0.00239586 -0.10000000 0 0 0 0
0.01038458 0.10000000 -0.09192832 0 0 0 0
-0.04470278 0.10000000 0.00684923 0 0 0 0
-0.02953047 -0.02590835 -0.10000000 0 0 0 0
0.06577750 -0.10000000 0.09190708 0 0 0 0
-0.10000000 -0.03270835 0.08589235 0 0 0 0
-0.07566031 0.05556231 0.10000000 0 0 0 0
0.03054119 -0.04715900 -0.10000000 0 0 0 0
-0.08095846 -0.10000000 -0.04817265 0 0 0 0
-0.04421496 0.10000000 0.03460752 0 0 0 0
-0.03462204 -0.02922546 -0.10000000 0 0 0 0
0.08175112 0.10000000 0.09513151 0 0 0 0
-0.05243218 0.06999351 -0.10000000 0 0 0 0
-0.02336725 -0.10000000 0.08430488 0 0 0 0
0.07726099 0.05973564 -0.10000000 0 0 0 0
-0.00861074 0.03467597 -0.10000000 0 0 0 0
-0.05455598 0.10000000 -0.01812423 0 0 0 0
-0.06338140 -0.08497703 0.10000000 0 0 0 0
-0.04866774 -0.01130787 -0.10000000 0 0 0 0
-0.01858462 -0.05928008 -0.10000000 0 0 0 0
0.10000000 -0.01207068 -0.01304162 0 0 0 0
0.07090586 -0.10000000 -0.06867574 0 0 0 0
0.03608998 -0.10000000 0.08268560 0 0 0 0
0.02874683 -0.09515450 -0.10000000 0 0 0 0
-0.03101057 0.08325687 0.10000000 0 0 0 0
-0.05429982 0.08302848 -0.10000000 0 0 0 0
-0.08041935 0.08057208 0.10000000 0 0 0 0
0.04307119 -0.10000000 0.04752162 0 0 0 0
0.03880405 0.01527499 0.10000000 0 0 0 0
-0.02251821 0.04739846 -0.10000000 0 0 0 0
-0.03237162 -0.03252112 -0.10000000 0 0 0 0
0.06589443 -0.08239862 0.10000000 0 0 0 0
0.05319275 0.00915908 -0.10000000 0 0 0 0
0.01702962 0.05019057 0.10000000 0 0 0 0
0.00844319 0.10000000 -0.08217531 0 0 0 0
0.01808466 0.02060085 0.10000000 0 0 0 0
-0.10000000 -0.05622860 0.00515040 0 0 0 0
-0.08670145 0.04186122 -0.10000000 0 0 0 0
0.10000000 -0.04800710 -0.07321076 0 0 0 0
0.10000000 0.06091921 -0.07755677 0 0 0 0
0.03535786 -0.05970088 -0.10000000 0 0 0 0
0.07420973 -0.08590507 0.10000000 0 0 0 0
-0.03628561 0.10000000 -0.08422971 0 0 0 0
-0.03919658 -0.09874458 -0.10000000 0 0 0 0
-0.02313255 0.03464381 0.10000000 0 0 0 0
0.08058514 -0.02566724 -0.10000000 0 0 0 0
0.06199875 0.08095830 0.10000000 0 0 0 0
0.04021896 0.05095102 0.10000000 0 0 0 0
-0.10000000 -0.05410093 -0.04914549 0 0 0 0
-0.01699623 -0.10000000 -0.08949683 0 0 0 0
-0.09762386 0.07942372 0.10000000 0 0 0 0
0.00073546 -0.08190735 -0.10000000 0 0 0 0
0.08343633 -0.10000000 -0.04709198 0 0 0 0
0.02485335 0.08540946 -0.10000000 0 0 0 0
0.05587139 -0.04003571 -0.10000000 0 0 0 0
-0.01206795 -0.10000000 0.09802438 0 0 0 0
-0.00430234 -0.02333139 -0.10000000 0 0 0 0
-0.10000000 -0.01589319 0.09674238 0 0 0 0
-0.01387133 0.00688466 -0.10000000 0 0 0 0
-0.07230018 0.01362621 -0.10000000 0 0 0 0
-0.03551513 -0.02315951 -0.10000000 0 0 0 0
0.04405969 0.05555016 -0.10000000 0 0 0 0
0.00543775 -0.04553844 -0.10000000 0 0 0 0
-0.00530920 0.05289799 -0.10000000 0 0 0 0
0.07621547 -0.09058671 0.10000000 0 0 0 0
-0.03079583 -0.10000000 -0.07411757 0 0 0 0
0.08602817 -0.02939526 -0.10000000 0 0 0 0
-0.10000000 -0.00724689 0.09949510 0 0 0 0
0.01848291 -0.10000000 0.05217864 0 0 0 0
0.09576999 -0.10000000 0.07697576 0 0 0 0
0.07961350 -0.07132806 -0.10000000 0 0 0 0
-0.05077998 0.04339577 0.10000000 0 0 0 0
-0.09796128 0.03387335 0.10000000 0 0 0 0
-0.10000000 -0.01944375 0.06426794 0 0 0 0
-0.06776874 -0.05536406 -0.10000000 0 0 0 0
-0.06108317 0.10000000 0.09998973 0 0 0 0
0.06587034 -0.10000000 -0.03820828 0 0 0 0
-0.10000000 0.08890369 0.03146460 0 0 0 0
0.01550604 0.09409210 -0.10000000 0 0 0 0
0.09754828 -0.08817148 -0.10000000 0 0 0 0
0.07223092 0.08272579 -0.10000000 0 0 0 0
-0.05740976 -0.04433039 -0.10000000 0 0 0 0
-0.05288108 0.02147481 0.10000000 0 0 0 0
0.09020571 -0.06891752 -0.10000000 0 0 0 0
-0.01113781 -0.06754572 0.10000000 0 0 0 0
-0.10000000 -0.04057822 0.07489274 0 0 0 0
0.08119020 -0.07140386 0.10000000 0 0 0 0
0.01421419 -0.10000000 0.05969192 0 0 0 0
0.02326043 -0.07945269 -0.10000000 0 0 0 0
0.10000000 0.07601090 0.06170319 0 0 0 0
0.04038657 0.01977509 -0.10000000 0 0 0 0
-0.04436155 0.06577282 0.10000000 0 0 0 0
0.04028399 -0.02962301 -0.10000000 0 0 0 0
-0.00749495 0.07304846 -0.10000000 0 0 0 0
0.04786736 0.08091006 0.10000000 0 0 0 0
-0.02299467 0.04484988 0.10000000 0 0 0 0
-0.08313262 0.04736827 -0.10000000 0 0 0 0
-0.07645199 -0.10000000 0.05536722 0 0 0 0
0.01184442 0.05466925 -0.10000000 0 0 0 0
-0.03120612 0.10000000 -0.02968283 0 0 0 0
-0.07603519 0.00497562 -0.10000000 0 0 0 0
-0.02033506 -0.03998195 -0.10000000 0 0 0 0
-0.10000000 0.00724892 -0.07242374 0 0 0 0
-0.08351849 0.10000000 -0.02801880 0 0 0 0
-0.04721379 -0.07456084 -0.10000000 0 0 0 0
0.04468450 -0.07761052 0.10000000 0 0 0 0
-0.04546734 -0.03989609 -0.10000000 0 0 0 0
-0.06623009 0.10000000 0.05756413 0 0 0 0
-0.02980636 0.08108635 0.10000000 0 0 0 0
0.03555834 -0.10000000 0.00332267 0 0 0 0
-0.09510005 0.05188851 -0.10000000 0 0 0 0
0.01220714 0.10000000 0.09636782 0 0 0 0
-0.05834918 -0.03303963 -0.10000000 0 0 0 0
0.05384275 -0.08069281 0.10000000 0 0 0 0
0.07945762 0.08308411 -0.10000000 0 0 0 0
0.07293884 0.09668241 -0.10000000 0 0 0 0
-0.10000000 0.08091991 -0.04508724 0 0 0 0
-0.03849124 0.10000000 0.03512869 0 0 0 0
0.04823813 -0.09270608 -0.10000000 0 0 0 0
-0.05486021 -0.09784725 -0.10000000 0 0 0 0
-0.06727441 -0.10000000 0.03450391 0 0 0 0
-0.10000000 -0.00510465 -0.07372351 0 0 0 0
0.09262506 0.07734561 -0.10000000 0 0 0 0
0.08447303 -0.10000000 0.07117512 0 0 0 0
0.04107482 0.10000000 -0.07167413 0 0 0 0
-0.04814179 0.10000000 0.06203396 0 0 0 0
-0.10000000 0.05858115 0.08172569 0 0 0 0
-0.02390020 0.00744679 -0.10000000 0 0 0 0
0.10000000 0.09883726 -0.08217065 0 0 0 0
0.10000000 -0.07809952 -0.03400599 0 0 0 0
0.07600914 0.04260582 0.10000000 0 0 0 0
0.07035118 -0.03882187 -0.10000000 0 0 0 0
-0.01795917 0.07409484 0.10000000 0 0 0 0
0.07039778 0.01585523 0.10000000 0 0 0 0
0.07600957 -0.05626418 -0.10000000 0 0 0 0
-0.02422846 0.10000000 0.06543075 0 0 0 0
0.00711990 0.06588970 -0.10000000 0 0 0 0
0.02003428 -0.08080333 0.10000000 0 0 0 0
-0.04716422 0.10000000 0.09609623 0 0 0 0
0.06840894 -0.01090088 0.10000000 0 0 0 0
0.06164768 0.10000000 -0.08264606 0 0 0 0
-0.04923477 -0.06692555 -0.10000000 0 0 0 0
-0.04699198 0.04511396 0.10000000 0 0 0 0
0.07367469 0.04374285 -0.10000000 0 0 0 0
0.03800467 0.04581707 0.10000000 0 0 0 0
0.06609818 -0.03495016 -0.10000000 0 0 0 0
-0.00650478 -0.06309305 -0.10000000 0 0 0 0
0.10000000 -0.05036310 -0.07989334 0 0 0 0
0.02748098 -0.10000000 -0.03536269 0 0 0 0
-0.02721749 -0.09205521 -0.10000000 0 0 0 0
-0.06198389 0.10000000 -0.09269860 0 0 0 0
-0.02505827 -0.05153168 -0.10000000 0 0 0 0
-0.05616684 -0.02822839 -0.10000000 0 0 0 0
0.07868631 -0.10000000 0.09963374 0 0 0 0
-0.08820204 -0.08427600 -0.10000000 0 0 0 0
-0.10000000 0.02235130 0.03789802 0 0 0 0
-0.10000000 0.01552963 0.00220862 0 0 0 0
0.07996399 -0.04986598 -0.10000000 0 0 0 0
0.07216192 0.02824527 -0.10000000 0 0 0 0
-0.06332353 -0.00771163 -0.10000000 0 0 0 0
0.05758116 -0.02534782 0.10000000 0 0 0 0
-0.03680118 0.05109126 0.10000000 0 0 0 0
0.03801168 0.10000000 0.09308094 0 0 0 0
0.10000000 -0.06205001 -0.07272322 0 0 0 0
0.05076376 0.10000000 0.08192103 0 0 0 0
0.03539241 -0.10000000 -0.09647980 0 0 0 0
0.06578586 -0.01114291 -0.10000000 0 0 0 0
-0.09890370 -0.06838982 -0.10000000 0 0 0 0
-0.10000000 0.02863421 -0.08889675 0 0 0 0
-0.06197259 -0.03787689 0.10000000 0 0 0 0
0.06991394 0.05439877 -0.10000000 0 0 0 0
-0.00890623 -0.10000000 0.06948637 0 0 0 0
-0.10000000 0.08463540 -0.02501689 0 0 0 0
0.03562170 -0.10000000 -0.04415881 0 0 0 0
-0.02468671 -0.02603186 -0.10000000 0 0 0 0
-0.09159742 0.10000000 0.06238410 0 0 0 0
-0.01192661 -0.07683130 0.10000000 0 0 0 0
-0.04668728 -0.05519034 0.10000000 0 0 0 0
-0.02600240 -0.03157545 -0.10000000 0 0 0 0
0.02820300 0.10000000 -0.08727585 0 0 0 0
0.05003238 0.03050013 0.10000000 0 0 0 0
-0.05564703 -0.01404872 -0.10000000 0 0 0 0
-0.04173531 -0.01399378 -0.10000000 0 0 0 0
-0.06553946 0.00393945 0.10000000 0 0 0 0
0.03792243 -0.10000000 -0.00493525 0 0 0 0
0.10000000 -0.06116227 -0.05725315 0 0 0 0
-0.01142503 -0.10000000 0.01113010 0 0 0 0
-0.05652342 0.08632444 0.10000000 0 0 0 0
0.06763323 -0.10000000 -0.03656555 0 0 0 0
0.07133753 -0.09945311 -0.10000000 0 0 0 0
-0.08243868 -0.05842768 -0.10000000 0 0 0 0
-0.04888472 0.04691007 -0.10000000 0 0 0 0
0.10000000 -0.06511883 0.04556369 0 0 0 0
-0.07146412 0.10000000 0.07872515 0 0 0 0
0.07186044 -0.06440657 0.10000000 0 0 0 0
-0.03805653 -0.05005646 0.10000000 0 0 0 0
-0.09906621 0.05951208 0.10000000 0 0 0 0
-0.01462509 -0.00600546 -0.10000000 0 0 0 0
-0.02224689 0.07955299 -0.10000000 0 0 0 0
0.07333126 0.10000000 -0.03878445 0 0 0 0
-0.08254801 0.05280676 -0.10000000 0 0 0 0
0.01966490 0.10000000 -0.01380611 0 0 0 0
-0.07843183 -0.10000000 -0.08941124 0 0 0 0
0.00269556 0.08079910 -0.10000000 0 0 0 0
0.10000000 0.05847359 0.05657409 0 0 0 0
-0.00343880 -0.08998681 -0.10000000 0 0 0 0
-0.01347187 0.10000000 -0.00227136 0 0 0 0
0.10000000 -0.03578955 0.04672275 0 0 0 0
0.03029768 -0.10000000 0.02956798 0 0 0 0
-0.02618131 -0.09836639 0.10000000 0 0 0 0
-0.00508016 0.01560491 -0.10000000 0 0 0 0
0.02579294 0.08033334 -0.10000000 0 0 0 0
0.03654041 0.09930976 -0.10000000 0 0 0 0
0.06054091 -0.10000000 -0.04969649 0 0 0 0
0.03558668 -0.10000000 -0.06932597 0 0 0 0
-0.04293618 -0.09589939 -0.10000000 0 0 0 0
-0.06725031 -0.10000000 0.08097072 0 0 0 0
0.09277071 -0.07268166 0.10000000 0 0 0 0
-0.03011951 0.10000000 0.09999970 0 0 0 0
-0.00156615 -0.04778468 -0.10000000 0 0 0 0
-0.04480039 -0.10000000 -0.02912677 0 0 0 0
-0.03066223 -0.04733992 -0.10000000 0 0 0 0
0.00195550 -0.01862345 0.10000000 0 0 0 0
0.10000000 0.01895498 0.02731765 0 0 0 0
0.04207984 -0.08611676 0.10000000 0 0 0 0
0.01171892 -0.07024093 -0.10000000 0 0 0 0
0.02362807 -0.07074215 -0.10000000 0 0 0 0
0.02766481 0.00627503 -0.10000000 0 0 0 0
0.08571543 -0.07620605 -0.10000000 0 0 0 0
-0.00919235 -0.08544566 -0.10000000 0 0 0 0
-0.00493008 -0.10000000 0.03561048 0 0 0 0
-0.04715782 -0.09303614 -0.10000000 0 0 0 0
-0.00648258 0.02987632 -0.10000000 0 0 0 0
0.06662969 -0.07401827 0.10000000 0 0 0 0
-0.06715574 0.09638934 -0.10000000 0 0 0 0
0.10000000 0.02373330 -0.05155497 0 0 0 0
0.07317905 0.06089222 0.10000000 0 0 0 0
-0.04579702 -0.02115609 0.10000000 0 0 0 0
-0.02331380 -0.07687575 -0.10000000 0 0 0 0
-0.10000000 0.01198817 0.09891271 0 0 0 0
0.08329725 0.08298947 -0.10000000 0 0 0 0
0.05783166 0.10000000 0.07885923 0 0 0 0
0.06426616 -0.10000000 0.05162504 0 0 0 0
-0.03202410 0.04534570 -0.10000000 0 0 0 0
0.10000000 -0.02700402 0.03691959 0 0 0 0
-0.08772291 -0.06921317 -0.10000000 0 0 0 0
0.04761584 0.10000000 0.03649461 0 0 0 0
-0.09216540 -0.06620885 0.10000000 0 0 0 0
0.09023671 0.05416050 -0.10000000 0 0 0 0
0.03458946 0.01835374 0.10000000 0 0 0 0
-0.05192756 0.03062967 -0.10000000 0 0 0 0
0.04195483 0.09557421 -0.10000000 0 0 0 0
-0.04402923 0.03569660 -0.10000000 0 0 0 0
-0.03051594 0.10000000 -0.01076025 0 0 0 0
0.10000000 0.07534266 -0.03178801 0 0 0 0
0.10000000 0.06190739 0.09454013 0 0 0 0
-0.05852105 -0.06290011 0.10000000 0 0 0 0
-0.06586786 -0.04167955 -0.10000000 0 0 0 0
0.07165617 -0.00867107 -0.10000000 0 0 0 0
-0.01527210 0.10000000 -0.04785434 0 0 0 0
0.01987336 -0.03851203 -0.10000000 0 0 0 0
0.10000000 -0.02464652 0.09080251 0 0 0 0
0.01551695 -0.09978850 0.10000000 0 0 0 0
0.05722194 0.08675168 -0.10000000 0 0 0 0
0.10000000 0.04160593 -0.08666413 0 0 0 0
-0.05106474 -0.10000000 -0.00012528 0 0 0 0
-0.04926313 -0.03079060 -0.10000000 0 0 0 0
0.04837757 -0.01344147 -0.10000000 0 0 0 0
-0.03617233 0.10000000 -0.07088268 0 0 0 0
0.08261733 -0.07353940 0.10000000 0 0 0 0
0.08291266 0.00356413 -0.10000000 0 0 0 0
0.05696843 0.04601484 0.10000000 0 0 0 0
0.02092868 0.08403147 0.10000000 0 0 0 0
0.02812639 -0.03532679 0.10000000 0 0 0 0
0.09822442 -0.05488427 -0.10000000 0 0 0 0
-0.01981768 0.09044566 -0.10000000 0 0 0 0
0.00158141 0.10000000 0.05536259 0 0 0 0
-0.02938345 -0.00545723 -0.10000000 0 0 0 0
0.10000000 0.09916787 -0.05737785 0 0 0 0
-0.05584238 0.05538468 -0.10000000 0 0 0 0
-0.01819984 -0.09822819 0.10000000 0 0 0 0
0.10000000 0.06211231 -0.05680539 0 0 0 0
0.08579646 0.10000000 -0.03827626 0 0 0 0
-0.01522143 0.08968460 -0.10000000 0 0 0 0
0.03803349 -0.00632839 -0.10000000 0 0 0 0
0.06498288 -0.09377869 0.10000000 0 0 0 0
-0.02534185 -0.07998539 0.10000000 0 0 0 0
0.09392235 -0.05433135 -0.10000000 0 0 0 0
0.03852445 -0.07716380 0.10000000 0 0 0 0
-0.02317023 0.10000000 0.08934052 0 0 0 0
0.07193799 0.04880356 0.10000000 0 0 0 0
-0.10000000 -0.05112299 -0.06808731 0 0 0 0
-0.09942432 -0.06130927 -0.10000000 0 0 0 0
-0.03265237 0.10000000 0.02834496 0 0 0 0
0.07869029 -0.06698494 -0.10000000 0 0 0 0
-0.08004569 0.01169589 -0.10000000 0 0 0 0
0.09970215 0.00618361 -0.10000000 0 0 0 0
-0.04275925 -0.01374534 -0.10000000 0 0 0 0
0.06978001 -0.06611901 -0.10000000 0 0 0 0
-0.04521596 0.01404406 0.10000000 0 0 0 0
-0.10000000 0.00249085 0.03699944 0 0 0 0
0.09894497 -0.00730878 -0.10000000 0 0 0 0
0.08657451 0.09698605 -0.10000000 0 0 0 0
0.01958351 0.08388812 -0.10000000 0 0 0 0
-0.00343125 -0.06069474 0.10000000 0 0 0 0
-0.00420728 -0.04043352 -0.10000000 0 0 0 0
0.10000000 -0.01660254 -0.09316362 0 0 0 0
0.08447220 0.09525862 0.10000000 0 0 0 0
0.03250822 0.10000000 0.03599388 0 0 0 0
0.09472669 0.01941008 -0.10000000 0 0 0 0
-0.00609562 -0.10000000 0.06870186 0 0 0 0
-0.10000000 0.06538460 0.08774251 0 0 0 0
0.03184233 0.10000000 0.02836661 0 0 0 0
-0.10000000 -0.09454839 -0.07063077 0 0 0 0
-0.07267370 0.09487359 0.10000000 0 0 0 0
0.03668105 -0.08452035 -0.10000000 0 0 0 0
0.05388091 0.04955802 -0.10000000 0 0 0 0
0.03293512 0.01262473 0.10000000 0 0 0 0
0.04852973 -0.03344188 0.10000000 0 0 0 0
0.01489664 0.07125118 -0.10000000 0 0 0 0
-0.07658808 0.10000000 -0.06364803 0 0 0 0
-0.08600012 0.04381675 -0.10000000 0 0 0 0
-0.03667236 -0.10000000 -0.09074792 0 0 0 0
-0.00904716 -0.08117424 0.10000000 0 0 0 0
0.06740399 0.10000000 0.07925011 0 0 0 0
-0.06732675 0.10000000 -0.04415805 0 0 0 0
0.10000000 -0.07156648 -0.04531419 0 0 0 0
0.00998618 -0.10000000 -0.08652355 0 0 0 0
0.08151127 0.05768780 -0.10000000 0 0 0 0
-0.10000000 -0.08343510 -0.05553275 0 0 0 0
0.10000000 0.09157121 -0.08282827 0 0 0 0
-0.10000000 -0.00508772 0.02756620 0 0 0 0
-0.04064017 -0.01318757 0.10000000 0 0 0 0
0.01278924 -0.02710601 -0.10000000 0 0 0 0
-0.05196704 -0.00536178 -0.10000000 0 0 0 0
0.03534508 0.08048819 -0.10000000 0 0 0 0
0.10000000 0.08807130 0.00892350 0 0 0 0
0.09700745 0.02728424 -0.10000000 0 0 0 0
-0.05320041 -0.04704250 0.10000000 0 0 0 0
0.00425772 -0.10000000 0.07883857 0 0 0 0
-0.02987513 -0.02932701 -0.10000000 0 0 0 0
0.03505397 0.09361465 -0.10000000 0 0 0 0
0.04135130 0.10000000 0.09543537 0 0 0 0
0.06725474 0.01069906 -0.10000000 0 0 0 0
-0.07270768 0.10000000 -0.01747482 0 0 0 0
0.07961111 0.01800674 -0.10000000 0 0 0 0
0.10000000 0.07220934 -0.01454623 0 0 0 0
0.06930511 -0.07229213 -0.10000000 0 0 0 0
0.10000000 -0.03000454 0.08016074 0 0 0 0
0.00990564 -0.03559226 -0.10000000 0 0 0 0
0.04746072 -0.09896551 -0.10000000 0 0 0 0
0.01070542 -0.06125723 -0.10000000 0 0 0 0
0.01774854 0.07272850 -0.10000000 0 0 0 0
-0.10000000 0.01109898 -0.08307816 0 0 0 0
0.01292444 -0.06141135 -0.10000000 0 0 0 0
0.04074592 -0.03709381 0.10000000 0 0 0 0
-0.10000000 0.00524397 -0.07099757 0 0 0 0
0.01841210 0.02987205 0.10000000 0 0 0 0
0.10000000 -0.04896134 0.09905676 0 0 0 0
-0.05674416 0.02538015 -0.10000000 0 0 0 0
0.03821480 -0.10000000 -0.00931910 0 0 0 0
-0.09957537 -0.10000000 -0.00403008 0 0 0 0
0.10000000 -0.00150132 0.04358991 0 0 0 0
0.03236243 -0.09500150 -0.10000000 0 0 0 0
0.02071212 0.08610322 -0.10000000 0 0 0 0
-0.02993409 -0.08815606 -0.10000000 0 0 0 0
0.07044504 -0.01277570 -0.10000000 0 0 0 0
-0.04547270 0.07886766 -0.10000000 0 0 0 0
0.00533575 0.10000000 -0.02582327 0 0 0 0
0.07601489 -0.02764220 0.10000000 0 0 0 0
0.10000000 0.04183141 0.03263615 0 0 0 0
-0.05981318 0.04433246 -0.10000000 0 0 0 0
0.07656734 -0.05062140 -0.10000000 0 0 0 0
0.10000000 -0.04494793 0.05391242 0 0 0 0
-0.10000000 -0.09083700 -0.07656071 0 0 0 0
-0.09015486 -0.03735444 0.10000000 0 0 0 0
-0.03654953 -0.05917098 -0.10000000 0 0 0 0
-0.02507041 -0.05914281 -0.10000000 0 0 0 0
-0.06391401 -0.08012846 0.10000000 0 0 0 0
-0.06287892 0.01963246 0.10000000 0 0 0 0
-0.01309381 0.03270316 0.10000000 0 0 0 0
0.10000000 0.07889436 -0.08092552 0 0 0 0
-0.02950921 0.09980953 -0.10000000 0 0 0 0
-0.08166467 0.05052221 0.10000000 0 0 0 0
-0.10000000 0.02563627 -0.03432202 0 0 0 0
-0.00477698 0.05047018 0.10000000 0 0 0 0
0.03890309 0.10000000 0.08677085 0 0 0 0
-0.05070243 -0.02641811 -0.10000000 0 0 0 0
-0.10000000 0.09637764 0.02419752 0 0 0 0
-0.05014714 -0.08452196 0.10000000 0 0 0 0
0.01395697 -0.01358010 0.10000000 0 0 0 0
-0.03029587 0.07050024 0.10000000 0 0 0 0
0.07526128 -0.06316630 -0.10000000 0 0 0 0
-0.06545746 0.09458865 0.10000000 0 0 0 0
0.09565879 -0.02839511 -0.10000000 0 0 0 0
-0.04900625 -0.07298156 -0.10000000 0 0 0 0
0.00491712 0.01133849 0.10000000 0 0 0 0
-0.00051156 0.07305592 -0.10000000 0 0 0 0
0.10000000 -0.05027611 0.03760785 0 0 0 0
0.07807995 0.10000000 -0.08591687 0 0 0 0
0.07574995 0.10000000 0.01339211 0 0 0 0
-0.01387261 -0.07575916 -0.10000000 0 0 0 0
-0.02531938 -0.05981582 -0.10000000 0 0 0 0
0.10000000 0.05713821 -0.09341625 0 0 0 0
-0.03568865 0.10000000 0.06047576 0 0 0 0
-0.06640553 -0.06935148 -0.10000000 0 0 0 0
-0.07012653 -0.03993394 -0.10000000 0 0 0 0
-0.09544806 -0.00591909 0.10000000 0 0 0 0
-0.06119041 0.10000000 0.00364268 0 0 0 0
-0.03744702 0.02376791 -0.10000000 0 0 0 0
-0.04777467 -0.10000000 -0.00050390 0 0 0 0
-0.05055578 -0.10000000 -0.06334309 0 0 0 0
0.07503667 0.10000000 0.03045309 0 0 0 0
0.02877170 -0.03306696 -0.10000000 0 0 0 0
-0.01408909 -0.10000000 -0.00120841 0 0 0 0
0.04566474 -0.06862235 0.10000000 0 0 0 0
0.06798320 -0.05558149 -0.10000000 0 0 0 0
-0.02464407 -0.10000000 0.09122656 0 0 0 0
0.08816225 -0.09006371 -0.10000000 0 0 0 0
-0.02780969 -0.05026453 -0.10000000 0 0 0 0
-0.07529514 -0.10000000 -0.09134035 0 0 0 0
-0.07307357 0.02160948 0.10000000 0 0 0 0
0.10000000 0.01957526 -0.07272088 0 0 0 0
0.00165757 -0.08010270 -0.10000000 0 0 0 0
0.08037100 0.05917083 -0.10000000 0 0 0 0
-0.00271595 0.04141454 0.10000000 0 0 0 0
0.04848464 -0.00332156 -0.10000000 0 0 0 0
0.08995210 -0.10000000 -0.06961664 0 0 0 0
-0.04371274 0.02783555 -0.10000000 0 0 0 0
0.10000000 -0.08960713 0.01197782 0 0 0 0
0.06555493 0.02276320 -0.10000000 0 0 0 0
-0.09781523 -0.01548977 -0.10000000 0 0 0 0
-0.07182553 0.02247759 0.10000000 0 0 0 0
0.05095629 -0.09838764 0.10000000 0 0 0 0
0.08316277 -0.09925663 -0.10000000 0 0 0 0
0.03012992 0.10000000 0.05433165 0 0 0 0
-0.03815020 0.00320322 -0.10000000 0 0 0 0
-0.01206021 0.00462287 -0.10000000 0 0 0 0
-0.06922346 0.01413807 0.10000000 0 0 0 0
-0.00404864 0.02313031 -0.10000000 0 0 0 0
0.08652477 0.02038054 -0.10000000 0 0 0 0
-0.03490748 -0.10000000 0.09834803 0 0 0 0
0.08067130 0.07895009 -0.10000000 0 0 0 0
-0.01183421 0.08292994 -0.10000000 0 0 0 0
-0.09695171 -0.10000000 -0.04346605 0 0 0 0
0.08894582 -0.01632091 -0.10000000 0 0 0 0
0.10000000 -0.05310578 -0.00159471 0 0 0 0
0.09666463 0.09189108 -0.10000000 0 0 0 0
-0.01110396 -0.10000000 0.03775273 0 0 0 0
0.00267485 -0.10000000 -0.09497088 0 0 0 0
0.03607866 -0.10000000 0.03468282 0 0 0 0
0.09104221 0.09114463 -0.10000000 0 0 0 0
-0.06099508 -0.05679172 0.10000000 0 0 0 0
0.05712299 0.01837963 0.10000000 0 0 0 0
0.10000000 0.08363184 -0.09244916 0 0 0 0
-0.00906715 -0.04797142 0.10000000 0 0 0 0
-0.09761969 -0.03823800 0.10000000 0 0 0 0
-0.02845030 0.07328568 0.10000000 0 0 0 0
0.02009811 0.00829984 -0.10000000 0 0 0 0
0.10000000 0.06419212 0.08586387 0 0 0 0
0.01352838 -0.01612456 0.10000000 0 0 0 0
0.06210794 -0.10000000 0.03612603 0 0 0 0
0.03121642 -0.10000000 -0.04317034 0 0 0 0
-0.01798602 0.05807846 0.10000000 0 0 0 0
0.09147508 -0.10000000 -0.09325045 0 0 0 0
0.03455750 -0.06783846 0.10000000 0 0 0 0
-0.05612100 -0.09312715 -0.10000000 0 0 0 0
0.05473769 0.10000000 -0.04299895 0 0 0 0
0.04300212 0.07279105 -0.10000000 0 0 0 0
0.04747533 -0.07208116 -0.10000000 0 0 0 0
-0.07195010 -0.07621739 -0.10000000 0 0 0 0
0.10000000 0.08096134 -0.01828722 0 0 0 0
0.08260014 -0.06978848 -0.10000000 0 0 0 0
-0.08079661 -0.07661927 -0.10000000 0 0 0 0
-0.02375086 0.00585746 -0.10000000 0 0 0 0
0.07590421 0.09110532 -0.10000000 0 0 0 0
0.05768986 0.10000000 0.06848786 0 0 0 0
-0.04155797 0.04728602 -0.10000000 0 0 0 0
0.00994684 0.10000000 -0.04636945 0 0 0 0
-0.06598566 -0.07506637 -0.10000000 0 0 0 0
-0.06512056 0.06304787 0.10000000 0 0 0 0
-0.08328576 0.04027010 0.10000000 0 0 0 0
-0.09451809 -0.09739537 -0.10000000 0 0 0 0
-0.03330677 0.03161181 0.10000000 0 0 0 0
-0.09700891 0.10000000 0.04988519 0 0 0 0
0.07702582 0.02844892 -0.10000000 0 0 0 0
-0.03642219 0.08179825 0.10000000 0 0 0 0
0.04757697 0.10000000 0.00895527 0 0 0 0
-0.10000000 0.07625903 0.02256006 0 0 0 0
-0.05219822 0.10000000 0.00873410 0 0 0 0
-0.04762687 -0.10000000 -0.01655065 0 0 0 0
-0.02620736 -0.02694151 -0.10000000 0 0 0 0
0.04102396 0.10000000 -0.06540369 0 0 0 0
0.03702828 0.08794178 0.10000000 0 0 0 0
0.00039644 0.10000000 0.09244559 0 0 0 0
-0.10000000 0.04389218 0.02858002 0 0 0 0
-0.02456378 -0.09374625 -0.10000000 0 0 0 0
-0.05048234 0.06119756 -0.10000000 0 0 0 0
-0.09895837 -0.07406089 -0.10000000 0 0 0 0
0.03411653 -0.00788526 -0.10000000 0 0 0 0
-0.04828374 -0.02173163 -0.10000000 0 0 0 0
-0.09477168 -0.01706402 -0.10000000 0 0 0 0
-0.09498476 -0.05850962 0.10000000 0 0 0 0
0.02949020 0.00100269 0.10000000 0 0 0 0
0.10000000 0.01599338 0.07147399 0 0 0 0
0.03554005 0.00185728 -0.10000000 0 0 0 0
0.02856581 0.05760660 0.10000000 0 0 0 0
0.06951902 0.10000000 -0.04696142 0 0 0 0
0.04991012 -0.08119000 0.10000000 0 0 0 0
0.07385726 -0.05492981 0.10000000 0 0 0 0
-0.08681461 0.00585444 0.10000000 0 0 0 0
0.08830412 0.02372858 0.10000000 0 0 0 0
0.07792296 -0.03572849 -0.10000000 0 0 0 0
-0.04607536 -0.07448849 0.10000000 0 0 0 0
0.00690672 0.05767921 -0.10000000 0 0 0 0
0.04883976 0.05839048 0.10000000 0 0 0 0
0.09546593 -0.08938974 -0.10000000 0 0 0 0
0.02572173 -0.05068608 -0.10000000 0 0 0 0
0.01387481 -0.10000000 0.07326580 0 0 0 0
-0.10000000 -0.05879601 0.03369499 0 0 0 0
-0.05829508 -0.01940447 -0.10000000 0 0 0 0
-0.02996182 0.06930749 -0.10000000 0 0 0 0
0.10000000 -0.06147589 -0.00971933 0 0 0 0
-0.03050628 -0.01038140 0.10000000 0 0 0 0
-0.00383353 0.08621942 0.10000000 0 0 0 0
0.02264094 -0.10000000 0.01951432 0 0 0 0
0.03778886 0.03635945 -0.10000000 0 0 0 0
-0.03440928 -0.02531419 -0.10000000 0 0 0 0
-0.08109872 -0.10000000 0.04759720 0 0 0 0
0.08471361 0.10000000 0.01334188 0 0 0 0
0.02245887 -0.06761216 -0.10000000 0 0 0 0
0.09908059 0.04723749 -0.10000000 0 0 0 0
0.07482155 -0.02784592 -0.10000000 0 0 0 0
-0.06555854 -0.10000000 -0.06757074 0 0 0 0
0.07421188 0.09488175 -0.10000000 0 0 0 0
0.10000000 -0.06307255 -0.09749389 0 0 0 0
-0.01242907 0.09508182 -0.10000000 0 0 0 0
0.09072568 0.10000000 -0.01094526 0 0 0 0
0.03700308 0.04275566 -0.10000000 0 0 0 0
-0.08217745 -0.10000000 -0.04644585 0 0 0 0
0.00594957 0.08320535 0.10000000 0 0 0 0
-0.05308225 -0.02013676 -0.10000000 0 0 0 0
0.10000000 -0.06105255 0.01013578 0 0 0 0
0.02238341 -0.10000000 0.09004402 0 0 0 0
-0.02678006 0.10000000 0.03064622 0 0 0 0
0.06791070 -0.10000000 0.01759987 0 0 0 0
-0.10000000 0.08774354 -0.05135405 0 0 0 0
-0.07956070 0.06341191 -0.10000000 0 0 0 0
0.01862320 -0.06758014 -0.10000000 0 0 0 0
-0.07691665 -0.00120386 -0.10000000 0 0 0 0
-0.04460601 -0.00643960 0.10000000 0 0 0 0
0.07531645 -0.00898882 -0.10000000 0 0 0 0
0.07744238 0.02527186 0.10000000 0 0 0 0
-0.08473449 -0.10000000 0.03848121 0 0 0 0
-0.10000000 0.04315323 -0.02231404 0 0 0 0
0.08742370 -0.10000000 0.01587575 0 0 0 0
-0.08712362 0.08371891 0.10000000 0 0 0 0
0.04214123 0.02170883 -0.10000000 0 0 0 0
-0.04103022 -0.00525492 -0.10000000 0 0 0 0
0.00942997 -0.07516963 -0.10000000 0 0 0 0
-0.09183709 0.02227708 0.10000000 0 0 0 0
0.05708200 -0.03075820 -0.10000000 0 0 0 0
-0.03070226 -0.09777264 -0.10000000 0 0 0 0
0.10000000 0.06622866 -0.06867162 0 0 0 0
0.05416901 -0.05468651 -0.10000000 0 0 0 0
-0.02496623 -0.00213497 -0.10000000 0 0 0 0
0.00301311 -0.01105886 0.10000000 0 0 0 0
-0.08749092 -0.07514374 -0.10000000 0 0 0 0
-0.09790044 -0.10000000 -0.01634314 0 0 0 0
0.02873866 -0.08926242 -0.10000000 0 0 0 0
0.07558942 -0.10000000 -0.00280814 0 0 0 0
0.10000000 -0.09684222 -0.00907503 0 0 0 0
-0.10000000 0.03545082 -0.05707402 0 0 0 0
-0.08287708 -0.06562693 -0.10000000 0 0 0 0
0.00201841 0.08042952 0.10000000 0 0 0 0
0.04325232 0.07051048 -0.10000000 0 0 0 0
0.06277099 -0.07603156 0.10000000 0 0 0 0
0.06278449 0.10000000 0.06614953 0 0 0 0
0.08855246 -0.01892271 -0.10000000 0 0 0 0
-0.03121109 -0.06472720 -0.10000000 0 0 0 0
0.03253872 -0.04181502 -0.10000000 0 0 0 0
-0.02253698 0.10000000 -0.04116256 0 0 0 0
0.06531134 -0.10000000 0.05944597 0 0 0 0
0.07752372 -0.05046161 -0.10000000 0 0 0 0
-0.01638327 -0.02219774 -0.10000000 0 0 0 0
0.09215778 0.08291975 -0.10000000 0 0 0 0
0.08430634 -0.10000000 -0.02059928 0 0 0 0
0.06612532 0.07994695 0.10000000 0 0 0 0
0.09722789 0.00833111 -0.10000000 0 0 0 0
-0.04702944 0.10000000 -0.03750916 0 0 0 0
0.10000000 0.00503273 0.08533515 0 0 0 0
0.05228062 0.10000000 -0.05723243 0 0 0 0
-0.06281631 0.09131232 -0.10000000 0 0 0 0
-0.01069568 0.02411627 -0.10000000 0 0 0 0
-0.04835353 -0.04439423 -0.10000000 0 0 0 0
0.07872210 -0.07463263 -0.10000000 0 0 0 0
-0.10000000 -0.01429904 0.07273191 0 0 0 0
-0.00474196 -0.03300197 0.10000000 0 0 0 0
-0.01380748 -0.07253454 -0.10000000 0 0 0 0
0.06168535 0.03339912 -0.10000000 0 0 0 0
-0.09552096 -0.02598287 -0.10000000 0 0 0 0
-0.01491091 0.04638165 -0.10000000 0 0 0 0
-0.10000000 0.02478098 0.07371635 0 0 0 0
0.08687937 -0.10000000 -0.03365992 0 0 0 0
-0.10000000 0.05064150 -0.07319549 0 0 0 0
-0.08501529 0.10000000 -0.05082856 0 0 0 0
-0.05137683 0.07062688 -0.10000000 0 0 0 0
0.02881775 -0.06918459 0.10000000 0 0 0 0
-0.05197205 0.10000000 0.02315219 0 0 0 0
0.10000000 -0.08801246 -0.03448585 0 0 0 0
0.09472180 0.10000000 0.03957867 0 0 0 0
-0.02546411 0.10000000 0.00764689 0 0 0 0
0.08798023 0.01751175 -0.10000000 0 0 0 0
0.02206904 -0.03051149 -0.10000000 0 0 0 0
-0.06485568 0.08561186 0.10000000 0 0 0 0
0.06800663 -0.09526431 -0.10000000 0 0 0 0
-0.03615913 -0.04148397 -0.10000000 0 0 0 0
-0.01837590 0.07049444 -0.10000000 0 0 0 0
0.09224934 -0.05094566 -0.10000000 0 0 0 0
-0.03173965 -0.09727676 -0.10000000 0 0 0 0
0.08130877 0.01241463 -0.10000000 0 0 0 0
0.08105733 -0.04495774 0.10000000 0 0 0 0
0.07164297 -0.10000000 0.05410517 0 0 0 0
0.04258033 -0.06304693 -0.10000000 0 0 0 0
-0.10000000 0.04026215 -0.07320965 0 0 0 0
0.06379851 0.09478168 -0.10000000 0 0 0 0
0.08467387 0.03594458 -0.10000000 0 0 0 0
-0.10000000 0.04045696 0.02250504 0 0 0 0
-0.10000000 -0.01526323 -0.08188136 0 0 0 0
-0.07353025 -0.07284220 -0.10000000 0 0 0 0
0.03572085 0.09059177 -0.10000000 0 0 0 0
0.10000000 -0.08465380 -0.09964741 0 0 0 0
0.08041273 -0.03702431 -0.10000000 0 0 0 0
0.03354942 0.07192191 -0.10000000 0 0 0 0
-0.10000000 -0.08157504 -0.03399963 0 0 0 0
-0.06875686 -0.08587439 0.10000000 0 0 0 0
-0.01245493 0.07970828 -0.10000000 0 0 0 0
0.05992123 -0.04968026 -0.10000000 0 0 0 0
-0.10000000 -0.01785303 -0.01944926 0 0 0 0
-0.05041879 -0.00829290 -0.10000000 0 0 0 0
-0.01375822 0.00264062 0.10000000 0 0 0 0
-0.10000000 -0.05019770 -0.03065586 0 0 0 0
-0.06933161 0.10000000 -0.00523946 0 0 0 0
0.09370185 -0.10000000 -0.04977535 0 0 0 0
0.10000000 -0.04671422 -0.05096278 0 0 0 0
0.06143923 0.09971072 -0.10000000 0 0 0 0
-0.00607001 0.01565824 0.10000000 0 0 0 0
