ply
format ascii 1.0
comment https://github.com/mikedh/trimesh
element vertex 1122
property float x
property float y
property float z
property uchar red
property uchar green
property uchar blue
property uchar alpha
end_header
0.03255787 -0.09943590 -0.01945689 0 0 0 0
0.09022529 0.07571852 0.05299790 0 0 0 0
-0.00271484 0.09975432 0.01158105 0 0 0 0
0.00365767 0.00481207 -0.10000000 0 0 0 0
-0.01391889 -0.03822942 -0.10000000 0 0 0 0
-0.08595169 0.08176015 -0.07358547 0 0 0 0
-0.09978612 -0.00332355 0.03261275 0 0 0 0
0.03019984 0.02735508 -0.10000000 0 0 0 0
-0.07809445 -0.03391174 0.10000000 0 0 0 0
0.00901517 -0.00858917 -0.10000000 0 0 0 0
-0.09961697 -0.03015504 -0.04984005 0 0 0 0
0.03345033 -0.09931783 -0.03950503 0 0 0 0
-0.04731327 0.07875650 0.10000000 0 0 0 0
0.01020844 0.03109478 0.10000000 0 0 0 0
-0.00709300 -0.09976868 -0.02029099 0 0 0 0
-0.09982432 -0.01088529 0.02704700 0 0 0 0
-0.05715002 -0.09310188 0.10000000 0 0 0 0
0.06509857 -0.03606130 0.10000000 0 0 0 0
0.03691487 -0.01935968 0.10000000 0 0 0 0
-0.08281305 -0.08509256 -0.01577167 0 0 0 0
-0.03690898 0.09927674 -0.06655949 0 0 0 0
0.09964456 0.02469335 0.09600685 0 0 0 0
0.09938164 -0.03366641 0.06385794 0 0 0 0
-0.01265771 0.05829255 0.10000000 0 0 0 0
0.09967479 -0.01871170 0.01066272 0 0 0 0
0.06377484 0.08101912 -0.10000000 0 0 0 0
-0.00988133 0.01604276 0.10000000 0 0 0 0
-0.00779013 -0.08922516 0.10000000 0 0 0 0
-0.09862364 0.04654323 -0.07039751 0 0 0 0
0.09998230 -0.00083552 0.04204815 0 0 0 0
-0.05935358 0.09211090 0.10000000 0 0 0 0
-0.09912126 -0.04147548 0.05829471 0 0 0 0
-0.01015410 0.06321805 -0.10000000 0 0 0 0
-0.03133996 -0.09944889 -0.03197897 0 0 0 0
0.07971262 -0.07675113 -0.10000000 0 0 0 0
0.02907225 0.03522259 -0.10000000 0 0 0 0
-0.02366179 0.02382566 0.10000000 0 0 0 0
0.02538566 -0.03799158 0.10000000 0 0 0 0
0.01132318 -0.00906472 0.10000000 0 0 0 0
-0.09951165 0.03648326 -0.00775235 0 0 0 0
0.02696550 -0.03742449 0.10000000 0 0 0 0
0.00429625 0.03854755 -0.10000000 0 0 0 0
0.09449121 0.06601595 0.03880693 0 0 0 0
0.02712290 -0.09958500 -0.03520403 0 0 0 0
-0.01304708 0.03150662 -0.10000000 0 0 0 0
-0.01717937 -0.09959998 -0.02268088 0 0 0 0
-0.01767976 0.07607607 -0.10000000 0 0 0 0
-0.02935785 -0.09949063 -0.05190126 0 0 0 0
0.00308120 0.03466027 0.10000000 0 0 0 0
-0.08703136 0.08073133 -0.09276621 0 0 0 0
0.03348739 0.01501608 -0.10000000 0 0 0 0
0.04777057 -0.09832533 0.06824510 0 0 0 0
-0.08695661 0.04089400 -0.10000000 0 0 0 0
0.03098959 -0.01630236 0.10000000 0 0 0 0
0.02479300 0.09976868 0.04785313 0 0 0 0
-0.02536624 -0.06837295 0.10000000 0 0 0 0
-0.07112642 -0.09246400 -0.03458615 0 0 0 0
-0.01123823 0.00055477 -0.10000000 0 0 0 0
-0.00131662 0.00046787 0.10000000 0 0 0 0
0.00600119 0.01630914 -0.10000000 0 0 0 0
0.03007244 -0.01642759 0.10000000 0 0 0 0
-0.04132614 -0.01626883 -0.10000000 0 0 0 0
0.04236703 0.04368300 -0.10000000 0 0 0 0
0.05011846 0.07658191 0.10000000 0 0 0 0
-0.02788945 0.02049742 -0.10000000 0 0 0 0
0.05118193 0.00905515 -0.10000000 0 0 0 0
0.00680905 -0.09976868 -0.06857251 0 0 0 0
0.05778543 -0.08901343 -0.10000000 0 0 0 0
0.05806367 0.08077650 -0.10000000 0 0 0 0
0.09979967 0.00600548 -0.06096828 0 0 0 0
0.09043743 0.07542031 0.06231383 0 0 0 0
-0.09986692 0.01931584 0.08292477 0 0 0 0
-0.07411101 -0.09111451 -0.03158609 0 0 0 0
-0.00910329 -0.01115546 -0.10000000 0 0 0 0
-0.00810350 -0.00211175 -0.10000000 0 0 0 0
-0.06028772 -0.02422556 -0.10000000 0 0 0 0
-0.09973784 -0.00623357 -0.00811764 0 0 0 0
-0.08603238 0.08042588 -0.10000000 0 0 0 0
-0.04378147 -0.05394777 -0.10000000 0 0 0 0
-0.05467390 0.00088364 -0.10000000 0 0 0 0
-0.08746602 0.08015986 -0.06485702 0 0 0 0
0.07776490 0.08904816 0.00025227 0 0 0 0
-0.00897392 -0.01861980 0.10000000 0 0 0 0
0.09438129 0.06651033 -0.07278599 0 0 0 0
0.05069077 0.09813178 -0.06596527 0 0 0 0
-0.06056431 -0.09606397 0.01191492 0 0 0 0
0.07593849 0.08993796 0.09308894 0 0 0 0
-0.08658225 0.08115929 0.07564490 0 0 0 0
-0.02226252 -0.06593613 0.10000000 0 0 0 0
0.08149122 -0.02179407 0.10000000 0 0 0 0
0.00050526 0.00836695 0.10000000 0 0 0 0
0.00357444 0.03571447 -0.10000000 0 0 0 0
0.00870446 -0.05893595 -0.10000000 0 0 0 0
0.03563127 0.05305608 -0.10000000 0 0 0 0
0.01178071 0.00155324 -0.10000000 0 0 0 0
-0.08344238 -0.08436509 0.09322686 0 0 0 0
0.01743572 0.02578836 -0.10000000 0 0 0 0
-0.00567090 -0.09972278 -0.04904101 0 0 0 0
0.03143140 -0.02622997 -0.10000000 0 0 0 0
-0.08755381 0.08000888 -0.00215817 0 0 0 0
0.03009514 0.09945950 0.05543948 0 0 0 0
0.03200224 -0.00867943 0.10000000 0 0 0 0
0.06111741 0.09609313 0.05119719 0 0 0 0
-0.03750416 -0.09241696 -0.10000000 0 0 0 0
-0.08991733 -0.07594456 0.04015399 0 0 0 0
-0.01169249 -0.09976868 0.09738675 0 0 0 0
-0.00499380 -0.03660543 0.10000000 0 0 0 0
-0.05059962 0.02795487 0.10000000 0 0 0 0
-0.09981777 -0.00860116 0.01747236 0 0 0 0
-0.01913964 0.01163155 0.10000000 0 0 0 0
0.03209487 -0.02838413 0.10000000 0 0 0 0
-0.04778064 0.09837355 0.09467566 0 0 0 0
0.05243542 -0.02437970 -0.10000000 0 0 0 0
-0.08182324 0.04578356 -0.10000000 0 0 0 0
0.03881092 -0.01879409 0.10000000 0 0 0 0
-0.09976274 0.00130466 0.07692195 0 0 0 0
-0.00691237 -0.00713067 -0.10000000 0 0 0 0
0.01290129 -0.05850391 -0.10000000 0 0 0 0
0.04506631 0.09868208 -0.01059805 0 0 0 0
0.07301638 -0.05856624 -0.10000000 0 0 0 0
-0.04233745 0.09894258 -0.05981407 0 0 0 0
-0.07742798 -0.08897902 0.07760014 0 0 0 0
-0.05007935 0.04347182 -0.10000000 0 0 0 0
0.01692341 -0.03511743 -0.10000000 0 0 0 0
0.00429440 -0.00220251 -0.10000000 0 0 0 0
0.03149307 -0.05948011 -0.10000000 0 0 0 0
-0.08505902 0.02777961 0.10000000 0 0 0 0
0.01446068 -0.06917042 0.10000000 0 0 0 0
-0.09983436 0.01287112 -0.09571807 0 0 0 0
-0.01638516 -0.02434683 -0.10000000 0 0 0 0
-0.08585358 -0.06938495 -0.10000000 0 0 0 0
0.09897684 -0.04432874 0.08923820 0 0 0 0
0.02348495 0.02128175 0.10000000 0 0 0 0
0.01571469 0.09995095 0.06038512 0 0 0 0
0.02919338 0.02706405 0.10000000 0 0 0 0
0.07066635 -0.09276763 0.03736146 0 0 0 0
-0.01136441 0.01662095 -0.10000000 0 0 0 0
0.09954913 -0.02128070 0.08935787 0 0 0 0
-0.00924968 -0.03038076 -0.10000000 0 0 0 0
0.00464757 -0.03747564 0.10000000 0 0 0 0
-0.01465769 0.09976868 -0.02725794 0 0 0 0
-0.00247451 -0.00159797 -0.10000000 0 0 0 0
0.01263873 -0.00875232 -0.10000000 0 0 0 0
-0.03442987 0.08316667 -0.10000000 0 0 0 0
-0.09900166 -0.04417316 0.08949383 0 0 0 0
0.08784120 -0.06088451 -0.10000000 0 0 0 0
0.09655388 -0.05848467 -0.07416638 0 0 0 0
-0.09306110 0.02812354 -0.10000000 0 0 0 0
-0.09955505 0.02100086 0.08941032 0 0 0 0
0.09662379 0.05816884 0.00054086 0 0 0 0
-0.02835754 -0.03327694 0.10000000 0 0 0 0
-0.05649927 -0.08004510 -0.10000000 0 0 0 0
0.01048177 -0.03434923 -0.10000000 0 0 0 0
0.00760562 0.09986444 0.01660819 0 0 0 0
0.01960826 0.03591435 0.10000000 0 0 0 0
0.00257305 0.00983350 -0.10000000 0 0 0 0
0.06950846 0.09330241 -0.04151344 0 0 0 0
0.09962736 0.02809849 -0.02990855 0 0 0 0
-0.00273394 -0.09975411 -0.00891872 0 0 0 0
0.09530090 -0.06336974 0.07938144 0 0 0 0
-0.07950590 -0.07576763 -0.10000000 0 0 0 0
0.02866790 0.06435008 -0.10000000 0 0 0 0
0.00562426 -0.00260147 -0.10000000 0 0 0 0
-0.06444754 0.03792971 0.10000000 0 0 0 0
0.02938339 0.04404255 -0.10000000 0 0 0 0
0.04218281 -0.02075236 -0.10000000 0 0 0 0
-0.05274001 -0.05884846 -0.10000000 0 0 0 0
0.03581445 0.05781099 -0.10000000 0 0 0 0
-0.09360899 0.06914781 -0.00630772 0 0 0 0
0.04896483 -0.09839914 -0.01164941 0 0 0 0
0.06945977 0.09339985 -0.00911828 0 0 0 0
-0.02165755 -0.09981577 -0.04692990 0 0 0 0
-0.01292325 0.07441013 -0.10000000 0 0 0 0
0.08587126 0.07627502 -0.10000000 0 0 0 0
-0.06437442 -0.02665333 0.10000000 0 0 0 0
-0.04453102 -0.05690748 -0.10000000 0 0 0 0
0.04518836 -0.09866597 -0.03054789 0 0 0 0
0.01515888 0.02029639 0.10000000 0 0 0 0
0.09676095 -0.05754911 -0.03866990 0 0 0 0
-0.00755056 -0.00159823 0.10000000 0 0 0 0
0.01656473 -0.01415163 -0.10000000 0 0 0 0
0.01711431 0.00184416 -0.10000000 0 0 0 0
0.03635873 -0.05646936 0.10000000 0 0 0 0
-0.02604065 0.04640857 -0.10000000 0 0 0 0
-0.00298801 0.00871820 -0.10000000 0 0 0 0
-0.05540358 -0.09738403 0.04172917 0 0 0 0
0.00375879 0.02692613 0.10000000 0 0 0 0
-0.02244082 -0.02028891 -0.10000000 0 0 0 0
0.03938785 0.09936301 0.06791033 0 0 0 0
0.04645450 0.05794579 -0.10000000 0 0 0 0
0.06036462 -0.02107392 -0.10000000 0 0 0 0
-0.02286588 0.01547508 0.10000000 0 0 0 0
-0.02575964 0.08302072 0.10000000 0 0 0 0
-0.09963029 -0.01744989 -0.01719045 0 0 0 0
-0.04393481 -0.04928968 -0.10000000 0 0 0 0
0.00353527 -0.00219300 -0.10000000 0 0 0 0
0.01419965 0.06125138 0.10000000 0 0 0 0
-0.08605354 0.08134668 0.06843588 0 0 0 0
-0.01601155 -0.01870847 0.10000000 0 0 0 0
-0.08943247 0.07677833 -0.09160423 0 0 0 0
0.03169448 0.03042250 -0.10000000 0 0 0 0
-0.03337806 0.00685492 0.10000000 0 0 0 0
-0.09977613 -0.00134690 0.08867027 0 0 0 0
-0.01244952 0.02131746 0.10000000 0 0 0 0
0.02079521 -0.09976868 -0.02452714 0 0 0 0
0.03335559 -0.04894621 -0.10000000 0 0 0 0
0.05145454 0.09806832 0.09031936 0 0 0 0
0.02734080 -0.05742249 0.10000000 0 0 0 0
-0.04572244 0.01263030 0.10000000 0 0 0 0
0.01041599 0.01181693 0.10000000 0 0 0 0
0.00952505 -0.08462699 0.10000000 0 0 0 0
0.09899753 -0.03989039 0.03374031 0 0 0 0
-0.03134353 0.02979471 -0.10000000 0 0 0 0
0.00289138 -0.00195032 -0.10000000 0 0 0 0
0.06079854 0.09619918 0.09483309 0 0 0 0
0.03231421 -0.04358237 0.10000000 0 0 0 0
0.01597659 0.09995376 0.08768070 0 0 0 0
-0.09942205 -0.03732480 0.06686522 0 0 0 0
-0.04485267 0.09883638 0.02762049 0 0 0 0
0.04342230 -0.09220106 0.10000000 0 0 0 0
0.08063061 -0.08691715 0.06766576 0 0 0 0
-0.09908306 0.04327846 -0.05507282 0 0 0 0
-0.09977974 0.00206076 -0.08717524 0 0 0 0
-0.03377198 0.02620791 -0.10000000 0 0 0 0
-0.07289974 -0.03831842 -0.10000000 0 0 0 0
-0.01207318 0.01342781 -0.10000000 0 0 0 0
-0.01851589 0.02607687 0.10000000 0 0 0 0
0.06859257 -0.08258300 -0.10000000 0 0 0 0
-0.02483482 0.07315201 -0.10000000 0 0 0 0
-0.08274551 -0.08517064 0.08420123 0 0 0 0
0.00238930 0.00541660 0.10000000 0 0 0 0
-0.06002942 -0.09630499 -0.07862660 0 0 0 0
0.08727534 -0.07986535 0.09195046 0 0 0 0
-0.08213987 0.08546051 0.05485933 0 0 0 0
0.01740489 0.02999995 0.10000000 0 0 0 0
-0.02062246 -0.09956325 -0.05086334 0 0 0 0
0.02884841 0.00578223 -0.10000000 0 0 0 0
0.09986456 0.01884812 0.03447071 0 0 0 0
-0.07015826 0.07283506 0.10000000 0 0 0 0
-0.00065645 -0.08751348 -0.10000000 0 0 0 0
-0.09964476 -0.02465636 -0.09427404 0 0 0 0
-0.01631579 0.09960920 0.09039033 0 0 0 0
-0.00477198 0.09976868 0.00624840 0 0 0 0
-0.02981448 0.05201234 0.10000000 0 0 0 0
-0.00435842 0.01775326 0.10000000 0 0 0 0
0.07541374 0.05969264 0.10000000 0 0 0 0
-0.03946999 0.06900284 -0.10000000 0 0 0 0
0.01444702 0.04813983 -0.10000000 0 0 0 0
-0.09977729 -0.00157568 0.06148527 0 0 0 0
0.06250965 0.09563009 -0.07609577 0 0 0 0
0.09978496 0.00309254 -0.04704650 0 0 0 0
0.03377994 0.01321259 -0.10000000 0 0 0 0
-0.03546712 -0.01253383 0.10000000 0 0 0 0
-0.09970295 -0.01313845 0.02556038 0 0 0 0
-0.09822492 0.04904313 0.02935427 0 0 0 0
0.06871739 -0.09347878 -0.01977692 0 0 0 0
-0.07821954 -0.04862710 -0.10000000 0 0 0 0
-0.02052066 0.09956433 0.00784534 0 0 0 0
0.04418576 -0.03757980 -0.10000000 0 0 0 0
0.07932504 0.03087134 -0.10000000 0 0 0 0
-0.03084028 -0.09491690 -0.10000000 0 0 0 0
0.00169695 -0.09980139 0.07338165 0 0 0 0
0.09696582 -0.05662344 0.08721635 0 0 0 0
-0.02181937 0.06052347 0.10000000 0 0 0 0
0.09962349 -0.01777055 0.09661902 0 0 0 0
-0.06225409 0.05555102 -0.10000000 0 0 0 0
-0.00282795 0.09976868 0.04444586 0 0 0 0
0.00948520 -0.01051978 -0.10000000 0 0 0 0
0.00789263 0.01078236 -0.10000000 0 0 0 0
-0.01502206 -0.01347673 -0.10000000 0 0 0 0
0.02740341 0.09957316 0.01774810 0 0 0 0
-0.09675229 -0.05841308 -0.05258588 0 0 0 0
-0.09954818 0.03614011 0.05191195 0 0 0 0
0.01936783 -0.06920104 0.10000000 0 0 0 0
-0.00888039 -0.05704318 -0.10000000 0 0 0 0
-0.09974901 0.00402234 0.04644392 0 0 0 0
0.00854957 -0.00787638 0.10000000 0 0 0 0
0.04852581 -0.09831163 -0.07344069 0 0 0 0
0.08556642 0.08190977 0.01114736 0 0 0 0
0.02328189 -0.06015439 -0.10000000 0 0 0 0
-0.04557597 0.06956627 -0.10000000 0 0 0 0
0.09983893 -0.01377596 0.01372100 0 0 0 0
0.09914400 -0.03751715 -0.07754968 0 0 0 0
0.03542959 -0.07215067 -0.10000000 0 0 0 0
0.05364961 0.09581254 -0.10000000 0 0 0 0
0.02759167 0.08108173 -0.10000000 0 0 0 0
-0.08757042 0.07959323 0.08455496 0 0 0 0
0.01117340 0.07319872 0.10000000 0 0 0 0
-0.01928679 0.09957750 -0.04048457 0 0 0 0
-0.02157682 0.09115010 -0.10000000 0 0 0 0
-0.02127955 0.09976868 0.00961706 0 0 0 0
-0.02641103 -0.01339246 -0.10000000 0 0 0 0
-0.09312076 0.07043590 0.09931128 0 0 0 0
-0.02516044 -0.02004573 0.10000000 0 0 0 0
0.09878580 0.04332127 0.06778238 0 0 0 0
0.04475961 -0.07713146 0.10000000 0 0 0 0
0.02854686 0.00253285 -0.10000000 0 0 0 0
0.06001446 -0.09223095 -0.10000000 0 0 0 0
-0.04310998 0.02272965 -0.10000000 0 0 0 0
-0.06461953 -0.06089212 -0.10000000 0 0 0 0
0.01548329 0.09994849 0.05810089 0 0 0 0
0.05137972 -0.03408260 -0.10000000 0 0 0 0
0.01737565 0.00771489 0.10000000 0 0 0 0
-0.01391907 0.05737654 0.10000000 0 0 0 0
-0.04507261 -0.00601173 -0.10000000 0 0 0 0
0.00863586 0.09430993 -0.10000000 0 0 0 0
-0.04351939 0.09889267 -0.07081537 0 0 0 0
0.09962724 0.02812220 -0.05678440 0 0 0 0
0.09965818 0.02199911 0.01178254 0 0 0 0
0.02239538 -0.03257618 -0.10000000 0 0 0 0
-0.04749512 0.01073683 0.10000000 0 0 0 0
0.01758628 -0.08440990 -0.10000000 0 0 0 0
0.04126110 -0.09891517 -0.04430186 0 0 0 0
0.01600627 0.09973239 -0.10000000 0 0 0 0
-0.01252329 0.01587000 0.10000000 0 0 0 0
0.03589695 -0.09940027 0.08969359 0 0 0 0
-0.01742449 0.01534248 -0.10000000 0 0 0 0
-0.03008228 0.01706779 -0.10000000 0 0 0 0
0.09982538 -0.01109420 -0.09945174 0 0 0 0
-0.08273719 0.08518027 -0.01647413 0 0 0 0
0.00910711 -0.01272642 -0.10000000 0 0 0 0
0.02519133 -0.01724918 -0.10000000 0 0 0 0
-0.08703206 -0.08073066 0.09653910 0 0 0 0
-0.00041630 -0.03449661 -0.10000000 0 0 0 0
-0.04271702 0.04134896 0.10000000 0 0 0 0
-0.07846355 0.08831231 0.01681339 0 0 0 0
-0.01356672 -0.00822149 0.10000000 0 0 0 0
-0.04133410 0.00247839 -0.10000000 0 0 0 0
0.02974077 -0.08803885 -0.10000000 0 0 0 0
-0.05585913 -0.08933552 -0.10000000 0 0 0 0
-0.04738408 0.09837632 0.08415281 0 0 0 0
0.09433900 -0.06665473 -0.06252902 0 0 0 0
-0.02703783 0.01000323 0.10000000 0 0 0 0
-0.05529308 0.04371452 0.10000000 0 0 0 0
0.09125207 0.04840114 -0.10000000 0 0 0 0
-0.08154923 0.06860678 -0.10000000 0 0 0 0
-0.07691796 -0.08955906 -0.08512922 0 0 0 0
-0.06324506 -0.03824521 -0.10000000 0 0 0 0
0.08883078 -0.07813629 0.04432070 0 0 0 0
-0.09573849 -0.06187534 0.03909522 0 0 0 0
-0.04809514 -0.09834741 -0.05810796 0 0 0 0
0.01327883 0.09976868 0.00510077 0 0 0 0
-0.04538383 0.01657122 -0.10000000 0 0 0 0
0.09841951 -0.04782307 -0.04551017 0 0 0 0
-0.02632504 -0.09950240 -0.07962210 0 0 0 0
0.02079599 0.01327903 -0.10000000 0 0 0 0
-0.01917306 0.06783133 -0.10000000 0 0 0 0
0.03434435 -0.02716049 -0.10000000 0 0 0 0
0.08022536 0.01349219 0.10000000 0 0 0 0
0.02128251 0.04303663 -0.10000000 0 0 0 0
-0.09989040 0.02396190 0.00940261 0 0 0 0
-0.09925462 0.03572449 0.01894723 0 0 0 0
-0.09983544 -0.01308536 -0.02138313 0 0 0 0
0.03230795 0.02988043 -0.10000000 0 0 0 0
-0.05461888 0.01862652 -0.10000000 0 0 0 0
0.02066967 -0.00113056 -0.10000000 0 0 0 0
0.09960030 0.03345419 0.09192993 0 0 0 0
0.01576330 0.00644690 -0.10000000 0 0 0 0
0.01563429 0.01320630 0.10000000 0 0 0 0
-0.03260800 0.04759486 0.10000000 0 0 0 0
0.04101313 -0.08867418 -0.10000000 0 0 0 0
0.05312703 -0.09792937 -0.09983668 0 0 0 0
0.04455069 0.00893811 -0.10000000 0 0 0 0
-0.04313328 0.03251801 -0.10000000 0 0 0 0
0.03878400 -0.02141665 0.10000000 0 0 0 0
-0.00216418 0.00695931 0.10000000 0 0 0 0
-0.09849641 0.04601924 0.00464515 0 0 0 0
-0.00705904 -0.00770337 -0.10000000 0 0 0 0
0.06945413 0.09316844 0.08377703 0 0 0 0
-0.00254067 0.02887146 0.10000000 0 0 0 0
0.07567289 0.04505773 0.10000000 0 0 0 0
-0.04936249 0.01091312 0.10000000 0 0 0 0
-0.06743693 -0.09399135 0.00267024 0 0 0 0
-0.09972551 0.01295543 0.01529090 0 0 0 0
0.09905444 0.01182486 -0.10000000 0 0 0 0
0.00757360 -0.09986410 0.09641778 0 0 0 0
-0.03256109 0.00455377 -0.10000000 0 0 0 0
0.07228817 0.09191783 -0.06377382 0 0 0 0
0.09914716 -0.03746576 -0.06184045 0 0 0 0
-0.05038905 -0.09797990 -0.08788483 0 0 0 0
0.01440312 0.03166005 0.10000000 0 0 0 0
0.06949006 -0.00763086 0.10000000 0 0 0 0
-0.09410376 0.06745811 0.01013009 0 0 0 0
0.06566157 0.07124332 -0.10000000 0 0 0 0
-0.01508636 0.02407364 -0.10000000 0 0 0 0
-0.01146712 0.01722196 -0.10000000 0 0 0 0
0.01682786 -0.04307360 -0.10000000 0 0 0 0
-0.05876693 0.09465390 0.10000000 0 0 0 0
-0.03210127 0.09967616 -0.06241234 0 0 0 0
-0.01664535 -0.01953470 -0.10000000 0 0 0 0
0.06732634 -0.09406475 -0.01478083 0 0 0 0
-0.09841958 0.04925524 0.07560726 0 0 0 0
0.09991182 -0.00416199 0.00075195 0 0 0 0
0.09934396 -0.03096456 -0.01153355 0 0 0 0
-0.03479876 -0.02046318 -0.10000000 0 0 0 0
0.05748069 -0.07303137 -0.10000000 0 0 0 0
0.00104342 -0.01612739 -0.10000000 0 0 0 0
-0.07496941 0.09084517 0.01316503 0 0 0 0
0.01688718 0.01460643 -0.10000000 0 0 0 0
0.01759951 -0.09976868 -0.03480766 0 0 0 0
-0.06887205 -0.04124717 0.10000000 0 0 0 0
0.09833686 -0.04751783 0.01922931 0 0 0 0
0.02972268 -0.09946615 -0.04343282 0 0 0 0
-0.02025140 -0.06979552 0.10000000 0 0 0 0
-0.09765790 -0.05389518 -0.05817146 0 0 0 0
0.09929176 -0.03512264 -0.08833925 0 0 0 0
0.07466285 -0.00124436 0.10000000 0 0 0 0
-0.09453882 -0.06588911 -0.09153442 0 0 0 0
0.08108285 -0.08629015 0.03415370 0 0 0 0
-0.07885418 -0.07452019 -0.10000000 0 0 0 0
-0.01265710 0.09964824 -0.04776248 0 0 0 0
-0.07709289 -0.02263682 0.10000000 0 0 0 0
-0.09844552 0.04883493 -0.09688912 0 0 0 0
0.01011663 -0.00140150 -0.10000000 0 0 0 0
0.09307177 0.01138717 -0.10000000 0 0 0 0
-0.01156752 -0.09990671 0.04134273 0 0 0 0
-0.08274075 -0.08517614 -0.07348613 0 0 0 0
-0.00061963 -0.07029267 0.10000000 0 0 0 0
0.01543555 0.09538893 0.10000000 0 0 0 0
0.01506909 0.06099599 -0.10000000 0 0 0 0
0.06828353 0.00947555 -0.10000000 0 0 0 0
-0.04163789 -0.04892733 -0.10000000 0 0 0 0
0.00420330 -0.01195319 -0.10000000 0 0 0 0
0.05321670 0.09792192 -0.06939344 0 0 0 0
-0.09968878 -0.02868961 -0.09953023 0 0 0 0
0.03748326 0.09922904 -0.04386205 0 0 0 0
0.03015284 -0.09946156 0.09890163 0 0 0 0
-0.01970523 0.09976868 0.02898743 0 0 0 0
-0.01478905 0.01381303 -0.10000000 0 0 0 0
0.02068711 -0.00818083 -0.10000000 0 0 0 0
0.01301122 0.00054606 -0.10000000 0 0 0 0
-0.07144861 -0.09235774 0.07597464 0 0 0 0
-0.02206035 0.02865157 -0.10000000 0 0 0 0
0.00693025 -0.00058594 -0.10000000 0 0 0 0
0.09633995 0.04130521 -0.10000000 0 0 0 0
0.03586686 -0.04601503 0.10000000 0 0 0 0
0.02420011 0.08887164 -0.10000000 0 0 0 0
-0.00615335 -0.00920845 0.10000000 0 0 0 0
-0.09993089 -0.00326195 0.01807371 0 0 0 0
0.05601966 -0.05431576 -0.10000000 0 0 0 0
-0.03971441 0.01407248 0.10000000 0 0 0 0
-0.08300333 0.04094158 0.10000000 0 0 0 0
0.01841842 -0.02235105 0.10000000 0 0 0 0
-0.06372402 0.09522621 -0.03959676 0 0 0 0
-0.05610312 0.06333368 -0.10000000 0 0 0 0
-0.01687803 0.04074945 0.10000000 0 0 0 0
-0.04806361 -0.09217577 0.10000000 0 0 0 0
-0.05612457 0.09704404 -0.01104626 0 0 0 0
0.03080434 -0.00894676 0.10000000 0 0 0 0
0.02900485 -0.03065616 -0.10000000 0 0 0 0
0.04014672 0.09900776 -0.08895431 0 0 0 0
-0.09988017 0.02194001 0.03734490 0 0 0 0
0.00355888 -0.08157311 -0.10000000 0 0 0 0
-0.09923359 -0.03617359 -0.09466689 0 0 0 0
-0.08912417 0.03710734 -0.10000000 0 0 0 0
-0.03952442 0.03924829 0.10000000 0 0 0 0
0.00695936 0.02406242 -0.10000000 0 0 0 0
0.01479944 -0.00351915 0.10000000 0 0 0 0
0.09980546 -0.02679883 0.03259482 0 0 0 0
-0.02144602 0.03204857 0.10000000 0 0 0 0
-0.02722752 -0.04139746 -0.10000000 0 0 0 0
0.05966726 0.09629343 0.06572301 0 0 0 0
0.01763744 -0.02102407 -0.10000000 0 0 0 0
-0.08489098 0.08277090 -0.07664672 0 0 0 0
0.03382086 0.02765232 -0.10000000 0 0 0 0
0.09980779 -0.00761342 0.03125523 0 0 0 0
0.09658400 -0.01325335 -0.10000000 0 0 0 0
0.01534478 0.04383005 -0.10000000 0 0 0 0
0.04389855 0.00894461 -0.10000000 0 0 0 0
-0.09966072 0.02149612 -0.06288012 0 0 0 0
0.09934224 -0.03104516 0.03319819 0 0 0 0
0.04325835 0.02205764 0.10000000 0 0 0 0
-0.02627089 -0.09950297 0.03490591 0 0 0 0
-0.09962746 0.02807968 0.05750778 0 0 0 0
-0.02677104 -0.07417875 0.10000000 0 0 0 0
0.01301755 0.09358496 -0.10000000 0 0 0 0
0.06307726 -0.02597550 0.10000000 0 0 0 0
0.01654030 0.02307197 -0.10000000 0 0 0 0
-0.05310082 -0.09761634 -0.03027601 0 0 0 0
-0.08301881 -0.08485471 0.07352104 0 0 0 0
-0.04279474 -0.03873054 0.10000000 0 0 0 0
-0.04952882 -0.07167549 0.10000000 0 0 0 0
-0.09930171 -0.03295852 -0.03660657 0 0 0 0
0.00497343 -0.00973924 0.10000000 0 0 0 0
-0.03820316 -0.08692947 -0.10000000 0 0 0 0
-0.04849427 0.06388648 -0.10000000 0 0 0 0
0.09814429 -0.04954864 0.03919706 0 0 0 0
0.06232284 -0.01111745 -0.10000000 0 0 0 0
-0.00714841 0.00629763 0.10000000 0 0 0 0
0.00830601 0.01209495 -0.10000000 0 0 0 0
0.02722693 -0.02574495 -0.10000000 0 0 0 0
0.01287700 -0.01053965 -0.10000000 0 0 0 0
-0.04394896 0.02830975 -0.10000000 0 0 0 0
0.00833287 -0.08468907 -0.10000000 0 0 0 0
-0.05934633 -0.09637552 -0.08634879 0 0 0 0
-0.01085567 0.03927235 -0.10000000 0 0 0 0
0.04115854 0.06050984 -0.10000000 0 0 0 0
0.03318447 -0.06094237 -0.10000000 0 0 0 0
0.05877284 -0.09687290 -0.05624082 0 0 0 0
0.03756499 -0.09700757 0.10000000 0 0 0 0
0.03604561 -0.05117965 -0.10000000 0 0 0 0
0.01161184 0.06995071 0.10000000 0 0 0 0
0.09941795 0.02747168 0.01506234 0 0 0 0
0.03727807 0.09924608 -0.08821343 0 0 0 0
-0.09252640 -0.07095392 -0.04465166 0 0 0 0
0.09967870 -0.01793923 -0.06953879 0 0 0 0
0.05368038 0.04006968 -0.10000000 0 0 0 0
-0.01422038 -0.09993501 -0.00564738 0 0 0 0
-0.08018343 0.08720504 -0.03844095 0 0 0 0
-0.09983975 0.01393723 -0.08674666 0 0 0 0
-0.03017380 -0.04996043 -0.10000000 0 0 0 0
0.03435116 -0.02249921 0.10000000 0 0 0 0
-0.01998854 -0.03677093 -0.10000000 0 0 0 0
-0.07958461 0.08782734 -0.05751166 0 0 0 0
-0.07470654 0.04919521 -0.10000000 0 0 0 0
-0.07280207 -0.06433482 -0.10000000 0 0 0 0
-0.06131523 -0.09606163 -0.07197051 0 0 0 0
0.09804366 0.05027184 -0.05290606 0 0 0 0
-0.00306691 -0.04599649 -0.10000000 0 0 0 0
-0.02666687 -0.04025014 0.10000000 0 0 0 0
-0.03895222 -0.08805855 -0.10000000 0 0 0 0
0.09486555 0.06501855 -0.01127680 0 0 0 0
-0.03874827 0.09909413 0.09813771 0 0 0 0
-0.09548806 0.06335984 -0.00389895 0 0 0 0
-0.01099743 0.01434327 -0.10000000 0 0 0 0
-0.09259573 -0.03471945 0.10000000 0 0 0 0
-0.01409238 0.02308386 0.10000000 0 0 0 0
-0.05128237 -0.02555202 -0.10000000 0 0 0 0
-0.09452961 0.06600381 0.00603147 0 0 0 0
-0.03470699 -0.02354762 -0.10000000 0 0 0 0
0.08336742 -0.08449705 -0.00365175 0 0 0 0
0.09973162 -0.00746385 -0.05538294 0 0 0 0
-0.03713798 0.08178321 -0.10000000 0 0 0 0
-0.09729343 0.05656502 -0.05723856 0 0 0 0
-0.03705721 0.04145014 -0.10000000 0 0 0 0
0.00294392 0.00666364 0.10000000 0 0 0 0
0.09967530 0.01861146 -0.05872669 0 0 0 0
-0.06067553 0.09624009 0.07580286 0 0 0 0
-0.05099985 -0.01943136 0.10000000 0 0 0 0
-0.01728124 0.00326108 0.10000000 0 0 0 0
-0.09908354 0.04325583 0.08302863 0 0 0 0
-0.06311367 0.04038450 0.10000000 0 0 0 0
-0.01258020 -0.01632321 0.10000000 0 0 0 0
-0.06928120 -0.09349342 0.07502141 0 0 0 0
-0.01728245 -0.02334911 -0.10000000 0 0 0 0
-0.05596326 -0.08279460 -0.10000000 0 0 0 0
-0.09956545 0.03068786 -0.00408819 0 0 0 0
0.00036451 0.07885583 -0.10000000 0 0 0 0
0.09986523 -0.01898126 -0.07815536 0 0 0 0
0.01016783 -0.00613910 -0.10000000 0 0 0 0
0.03261671 0.07172477 -0.10000000 0 0 0 0
0.02934539 -0.02352087 -0.10000000 0 0 0 0
-0.06986284 0.09318865 -0.09861700 0 0 0 0
0.09994076 -0.00279611 0.02308864 0 0 0 0
0.09965453 -0.02272302 -0.09717574 0 0 0 0
-0.00393974 0.00828451 -0.10000000 0 0 0 0
0.02597793 -0.04652937 -0.10000000 0 0 0 0
-0.00574645 0.09976868 -0.00820190 0 0 0 0
-0.05442560 0.03612678 0.10000000 0 0 0 0
-0.02391722 0.01445715 -0.10000000 0 0 0 0
-0.07869364 -0.00138430 0.10000000 0 0 0 0
-0.07847204 0.06401940 -0.10000000 0 0 0 0
-0.09897266 0.04029322 -0.02122921 0 0 0 0
-0.00338523 0.09974717 -0.03687041 0 0 0 0
-0.00510292 0.02973983 -0.10000000 0 0 0 0
0.06218779 -0.03219300 -0.10000000 0 0 0 0
-0.04735923 -0.03894080 -0.10000000 0 0 0 0
-0.06344287 -0.09531972 0.03222214 0 0 0 0
0.02915061 -0.04295624 -0.10000000 0 0 0 0
-0.00439495 0.00484638 -0.10000000 0 0 0 0
0.01589139 -0.00026768 -0.10000000 0 0 0 0
0.02719279 0.09949314 0.04441238 0 0 0 0
-0.00496933 -0.00327734 -0.10000000 0 0 0 0
-0.02000429 -0.01485977 -0.10000000 0 0 0 0
-0.00089975 0.03507805 0.10000000 0 0 0 0
0.01810924 -0.00840275 -0.10000000 0 0 0 0
-0.09962966 -0.01747963 -0.04958861 0 0 0 0
0.06175136 0.08326973 -0.10000000 0 0 0 0
-0.09966120 -0.02140112 0.07529612 0 0 0 0
0.08908246 -0.07784536 -0.08781045 0 0 0 0
-0.09968927 0.01584602 0.01243655 0 0 0 0
-0.05571033 0.03803504 -0.10000000 0 0 0 0
-0.03241981 0.09936135 0.09718994 0 0 0 0
-0.01357885 -0.04129527 -0.10000000 0 0 0 0
-0.01207488 0.02297169 -0.10000000 0 0 0 0
-0.04073675 0.01544619 -0.10000000 0 0 0 0
0.09928299 -0.03384163 -0.04229167 0 0 0 0
-0.09952221 0.03638403 0.03146958 0 0 0 0
0.02755356 0.07799911 -0.10000000 0 0 0 0
-0.02461974 0.01848517 -0.10000000 0 0 0 0
-0.03257901 -0.09935462 0.03449380 0 0 0 0
0.02538420 -0.06423502 -0.10000000 0 0 0 0
-0.07234460 0.09225174 0.00520790 0 0 0 0
-0.01419892 0.05942819 0.10000000 0 0 0 0
-0.01112937 0.00653190 -0.10000000 0 0 0 0
0.02447124 -0.09952218 0.01860700 0 0 0 0
-0.00644020 -0.09976868 0.05587549 0 0 0 0
0.01633700 0.03680594 -0.10000000 0 0 0 0
0.09448414 0.06603477 0.04784388 0 0 0 0
0.03109020 0.02504009 -0.10000000 0 0 0 0
0.02073644 -0.03907162 -0.10000000 0 0 0 0
0.09964086 0.02946601 -0.07059576 0 0 0 0
-0.01179359 0.00630164 0.10000000 0 0 0 0
-0.03582377 -0.05408200 -0.10000000 0 0 0 0
0.05622368 0.08496366 -0.10000000 0 0 0 0
0.05395840 -0.05515536 -0.10000000 0 0 0 0
0.03527451 -0.00516904 0.10000000 0 0 0 0
-0.01489531 -0.00115480 -0.10000000 0 0 0 0
0.06306173 -0.03723372 -0.10000000 0 0 0 0
-0.09259795 -0.07133492 0.01713199 0 0 0 0
0.09970907 0.01192690 0.03109900 0 0 0 0
-0.02781276 0.09955587 -0.06287552 0 0 0 0
0.04144758 0.03805182 -0.10000000 0 0 0 0
0.05465124 -0.00311169 -0.10000000 0 0 0 0
-0.00169968 0.01214406 0.10000000 0 0 0 0
0.00056361 0.04185642 0.10000000 0 0 0 0
-0.02798703 0.06714261 0.10000000 0 0 0 0
0.06397878 -0.09519059 -0.09955756 0 0 0 0
-0.09968651 0.01639212 -0.07261112 0 0 0 0
0.05252292 -0.09772571 -0.09698225 0 0 0 0
0.08516085 0.00472758 0.10000000 0 0 0 0
-0.04188710 -0.01553793 0.10000000 0 0 0 0
-0.09848230 -0.04823913 -0.08460169 0 0 0 0
0.08252322 0.08515964 0.00964402 0 0 0 0
0.09642950 -0.06029986 -0.08415347 0 0 0 0
-0.06037648 -0.04202202 0.10000000 0 0 0 0
0.01051476 -0.03277070 0.10000000 0 0 0 0
-0.03937910 0.09906749 0.06607194 0 0 0 0
-0.01375788 0.02784984 -0.10000000 0 0 0 0
-0.01609597 0.09559040 -0.10000000 0 0 0 0
0.02102209 0.01187591 -0.10000000 0 0 0 0
0.02483627 -0.05482154 0.10000000 0 0 0 0
-0.00890703 0.00116126 -0.10000000 0 0 0 0
-0.05404827 0.01789363 -0.10000000 0 0 0 0
-0.01141048 0.01552564 -0.10000000 0 0 0 0
-0.06857135 0.00763353 -0.10000000 0 0 0 0
-0.01541972 0.00183887 0.10000000 0 0 0 0
0.01830721 -0.00723491 -0.10000000 0 0 0 0
0.05175043 0.02389741 0.10000000 0 0 0 0
0.05333368 0.06581195 -0.10000000 0 0 0 0
0.01609511 -0.08585366 -0.10000000 0 0 0 0
0.01648737 -0.00411199 -0.10000000 0 0 0 0
0.01602236 -0.01180987 -0.10000000 0 0 0 0
-0.08179753 -0.03092251 -0.10000000 0 0 0 0
-0.09961375 0.03079277 -0.04715920 0 0 0 0
-0.00029319 -0.09364457 0.10000000 0 0 0 0
-0.06024338 -0.03235622 -0.10000000 0 0 0 0
-0.08604039 0.02019678 -0.10000000 0 0 0 0
0.00874881 -0.01866333 -0.10000000 0 0 0 0
-0.09864441 -0.04462902 0.00159944 0 0 0 0
-0.00062844 -0.08759099 -0.10000000 0 0 0 0
-0.03919811 -0.02945105 0.10000000 0 0 0 0
0.02001703 -0.00573731 -0.10000000 0 0 0 0
-0.09985358 0.01667556 -0.00363078 0 0 0 0
0.02432969 -0.05957851 0.10000000 0 0 0 0
-0.00133812 -0.01037778 0.10000000 0 0 0 0
0.03829421 0.09937469 -0.01998877 0 0 0 0
-0.01360104 -0.00532353 -0.10000000 0 0 0 0
0.01038818 0.09976868 0.04062089 0 0 0 0
-0.09612173 0.06043730 0.03786206 0 0 0 0
0.08400209 0.02118891 0.10000000 0 0 0 0
-0.00403985 0.00175585 0.10000000 0 0 0 0
-0.08832560 0.03896669 0.10000000 0 0 0 0
-0.09986175 0.01829153 -0.07863183 0 0 0 0
0.05545826 0.09717016 0.04146148 0 0 0 0
-0.04258744 0.03863005 0.10000000 0 0 0 0
0.00269534 0.01058229 -0.10000000 0 0 0 0
-0.07998536 -0.08744548 0.08898149 0 0 0 0
-0.02895202 0.01644845 -0.10000000 0 0 0 0
0.01244576 -0.09991609 -0.03791064 0 0 0 0
0.01705658 -0.09996527 0.01883117 0 0 0 0
-0.09980148 0.00636347 -0.09168202 0 0 0 0
-0.07963149 0.01792033 0.10000000 0 0 0 0
-0.00644762 -0.00930311 0.10000000 0 0 0 0
0.02200649 -0.00437520 -0.10000000 0 0 0 0
-0.02534860 0.02239860 -0.10000000 0 0 0 0
-0.02622580 0.09962288 0.08433852 0 0 0 0
0.02923305 0.01680335 -0.10000000 0 0 0 0
0.01901104 -0.09958044 -0.04626201 0 0 0 0
-0.04789347 -0.09648067 -0.10000000 0 0 0 0
0.06566337 0.04249265 0.10000000 0 0 0 0
-0.09113325 0.07391377 -0.06630512 0 0 0 0
0.06322484 -0.09570020 0.01720780 0 0 0 0
0.06307484 0.04783922 -0.10000000 0 0 0 0
-0.09955560 0.02097553 0.07307410 0 0 0 0
0.01600580 -0.09930788 0.10000000 0 0 0 0
-0.01604339 0.04106927 0.10000000 0 0 0 0
0.00573451 0.00888528 -0.10000000 0 0 0 0
0.09781704 0.05240039 -0.08994648 0 0 0 0
-0.09820254 -0.05103558 0.02225001 0 0 0 0
0.07556294 0.06249056 -0.10000000 0 0 0 0
0.09177657 0.07324905 -0.01341330 0 0 0 0
0.01453222 -0.09962822 0.06076353 0 0 0 0
0.09982655 -0.01132516 -0.08172934 0 0 0 0
0.04006150 0.02969218 -0.10000000 0 0 0 0
0.02084687 0.01804485 0.10000000 0 0 0 0
0.00674821 0.07996102 -0.10000000 0 0 0 0
0.09972239 -0.00928987 0.05526067 0 0 0 0
0.05420383 -0.01185719 -0.10000000 0 0 0 0
-0.02512278 -0.09976868 -0.00234869 0 0 0 0
0.01706081 -0.05845351 -0.10000000 0 0 0 0
0.02824453 0.03748120 -0.10000000 0 0 0 0
-0.09221070 -0.03409536 -0.10000000 0 0 0 0
0.09976449 0.00095734 -0.04288792 0 0 0 0
-0.07174027 -0.00742160 -0.10000000 0 0 0 0
0.01889063 -0.01934641 0.10000000 0 0 0 0
0.05415348 -0.08543540 -0.10000000 0 0 0 0
0.01447624 0.09993774 -0.09419759 0 0 0 0
-0.05177356 0.03733352 -0.10000000 0 0 0 0
-0.00718528 -0.01015662 0.10000000 0 0 0 0
-0.04772066 -0.02591222 0.10000000 0 0 0 0
-0.05153512 -0.02588134 0.10000000 0 0 0 0
0.03163488 -0.03592689 -0.10000000 0 0 0 0
-0.06442027 0.03700988 -0.10000000 0 0 0 0
-0.04640685 0.04082213 0.10000000 0 0 0 0
-0.06849188 -0.09364050 0.00027496 0 0 0 0
-0.08319519 0.02939484 0.10000000 0 0 0 0
0.05034232 -0.09816072 -0.07664575 0 0 0 0
0.04819313 0.09854519 0.07071416 0 0 0 0
-0.00727319 0.02898797 0.10000000 0 0 0 0
-0.04426456 0.09866565 0.03382231 0 0 0 0
-0.01397898 0.00526062 0.10000000 0 0 0 0
0.03056669 0.01674506 0.10000000 0 0 0 0
0.02150432 0.01904620 -0.10000000 0 0 0 0
-0.03446590 0.09941553 0.04018482 0 0 0 0
-0.02119230 -0.01949331 0.10000000 0 0 0 0
-0.05229675 -0.09772824 -0.04443597 0 0 0 0
0.02877926 0.04918190 -0.10000000 0 0 0 0
-0.05898786 -0.03598103 0.10000000 0 0 0 0
0.00922013 0.02469961 0.10000000 0 0 0 0
-0.06229834 -0.01953686 0.10000000 0 0 0 0
0.09926420 -0.03556930 0.03005330 0 0 0 0
0.00152180 0.00224720 -0.10000000 0 0 0 0
0.09975682 -0.00247634 0.07246540 0 0 0 0
-0.02301844 0.03538378 0.10000000 0 0 0 0
0.01011883 -0.02968683 0.10000000 0 0 0 0
0.09989186 0.02425104 -0.00064368 0 0 0 0
0.09503279 -0.06428538 -0.02840086 0 0 0 0
0.01949265 -0.02635356 -0.10000000 0 0 0 0
0.02584030 -0.01469656 0.10000000 0 0 0 0
-0.00436531 -0.00780181 0.10000000 0 0 0 0
-0.00974080 -0.09518042 -0.10000000 0 0 0 0
0.01942608 -0.03785953 -0.10000000 0 0 0 0
0.08544330 -0.08205210 0.01060202 0 0 0 0
0.03963317 -0.01587470 -0.10000000 0 0 0 0
-0.07033671 -0.05602188 -0.10000000 0 0 0 0
-0.01617563 0.01601652 0.10000000 0 0 0 0
0.05030597 0.06007687 -0.10000000 0 0 0 0
-0.05465741 0.09732173 -0.00801864 0 0 0 0
0.07552883 0.03897306 0.10000000 0 0 0 0
0.04119629 -0.07754328 -0.10000000 0 0 0 0
0.05183581 0.08603305 -0.10000000 0 0 0 0
0.04543594 -0.03624219 -0.10000000 0 0 0 0
-0.03460354 0.09569355 0.10000000 0 0 0 0
0.09946145 0.03237313 -0.01375709 0 0 0 0
0.01867922 0.03593571 0.10000000 0 0 0 0
0.00927214 -0.09988222 0.05609988 0 0 0 0
0.01872214 0.03011833 0.10000000 0 0 0 0
0.08658442 -0.08083660 0.04341216 0 0 0 0
0.04816217 0.00028299 0.10000000 0 0 0 0
-0.09873199 -0.04380640 -0.00300906 0 0 0 0
0.00582730 -0.07456022 -0.10000000 0 0 0 0
-0.00065203 -0.00730072 -0.10000000 0 0 0 0
0.08142500 -0.08640571 0.07377218 0 0 0 0
-0.05964740 -0.09629850 -0.00238323 0 0 0 0
0.02953126 -0.01653690 -0.10000000 0 0 0 0
0.01857732 0.01199473 -0.10000000 0 0 0 0
0.03550576 0.09939332 -0.01819246 0 0 0 0
-0.05854998 0.05198829 -0.10000000 0 0 0 0
-0.03049067 0.03093632 -0.10000000 0 0 0 0
-0.00073168 0.08609229 -0.10000000 0 0 0 0
0.00512954 -0.00629203 0.10000000 0 0 0 0
-0.03054012 -0.03719539 -0.10000000 0 0 0 0
-0.09627180 0.05975925 -0.06162525 0 0 0 0
0.00728555 0.02578945 -0.10000000 0 0 0 0
0.09778577 -0.05179644 -0.09430542 0 0 0 0
0.09765071 -0.05396268 0.03901074 0 0 0 0
-0.01357573 -0.09992813 0.09618767 0 0 0 0
-0.03042492 -0.09386322 -0.10000000 0 0 0 0
0.09262739 -0.07073937 -0.02341311 0 0 0 0
-0.09801181 -0.03516883 -0.10000000 0 0 0 0
0.01890812 0.04336208 0.10000000 0 0 0 0
0.09987117 -0.02015585 -0.04395222 0 0 0 0
-0.00047578 0.09978836 0.01660410 0 0 0 0
0.02935905 -0.03337950 -0.10000000 0 0 0 0
-0.09751815 0.05412785 0.07711159 0 0 0 0
0.03609801 -0.06718715 -0.10000000 0 0 0 0
0.06451575 0.08854326 -0.10000000 0 0 0 0
-0.01010031 0.02707984 -0.10000000 0 0 0 0
0.01280061 0.00771604 -0.10000000 0 0 0 0
0.00274198 0.06400757 0.10000000 0 0 0 0
-0.00857481 0.01852252 -0.10000000 0 0 0 0
-0.00537732 -0.00082087 -0.10000000 0 0 0 0
0.09924408 0.03567832 0.07167733 0 0 0 0
-0.02541376 -0.02103093 -0.10000000 0 0 0 0
0.03103432 -0.09941985 0.05806683 0 0 0 0
-0.05613599 0.09722176 -0.08122577 0 0 0 0
-0.06526421 -0.00027786 0.10000000 0 0 0 0
0.01431178 -0.09963058 -0.09685767 0 0 0 0
0.03754699 0.01824204 0.10000000 0 0 0 0
0.04518449 -0.09882237 -0.04171389 0 0 0 0
0.03170140 -0.06372290 -0.10000000 0 0 0 0
0.09964288 -0.02502716 0.02769113 0 0 0 0
-0.01085929 0.09976868 -0.03570202 0 0 0 0
-0.03389648 -0.00680399 0.10000000 0 0 0 0
0.08619152 -0.01803347 -0.10000000 0 0 0 0
-0.00281016 0.02858210 -0.10000000 0 0 0 0
0.02417065 0.00727333 -0.10000000 0 0 0 0
-0.01010813 -0.05830135 -0.10000000 0 0 0 0
0.07745983 -0.08913377 0.08383960 0 0 0 0
-0.09783948 0.05218962 -0.08644406 0 0 0 0
-0.08032291 -0.08711524 0.02197508 0 0 0 0
0.02749142 0.09948995 -0.01143195 0 0 0 0
-0.03917115 0.06984086 -0.10000000 0 0 0 0
-0.01266778 -0.04707628 0.10000000 0 0 0 0
-0.02423880 0.07053872 0.10000000 0 0 0 0
0.06799502 -0.09378307 -0.00475244 0 0 0 0
-0.00609540 0.09976868 -0.09159352 0 0 0 0
0.00157558 -0.08614460 0.10000000 0 0 0 0
0.02748911 -0.01057894 -0.10000000 0 0 0 0
0.00611753 0.01412694 -0.10000000 0 0 0 0
0.09341209 0.06889127 0.02184712 0 0 0 0
0.00713244 0.09976868 0.07352237 0 0 0 0
0.00742868 -0.00410898 -0.10000000 0 0 0 0
0.00747691 -0.01068189 -0.10000000 0 0 0 0
-0.07342011 0.09155931 -0.00940984 0 0 0 0
0.05984595 0.02866804 -0.10000000 0 0 0 0
-0.05926970 -0.00783404 -0.10000000 0 0 0 0
-0.03940133 -0.03750167 -0.10000000 0 0 0 0
0.01830283 0.01112028 -0.10000000 0 0 0 0
0.04241793 -0.09893918 -0.03912137 0 0 0 0
0.01566001 0.06357519 -0.10000000 0 0 0 0
0.04588886 -0.09857356 0.06866945 0 0 0 0
-0.08792755 -0.07936621 -0.06371959 0 0 0 0
0.09675114 -0.05759344 0.07169677 0 0 0 0
-0.03338512 -0.09956951 0.08247576 0 0 0 0
-0.02973120 -0.01827157 0.10000000 0 0 0 0
0.04273089 -0.00469593 -0.10000000 0 0 0 0
0.08240213 -0.07477018 -0.10000000 0 0 0 0
-0.04214013 0.01311713 -0.10000000 0 0 0 0
-0.03078245 0.09896524 0.10000000 0 0 0 0
-0.01249402 -0.02275910 0.10000000 0 0 0 0
0.09914489 0.04035982 0.06808276 0 0 0 0
0.03090894 0.03850034 -0.10000000 0 0 0 0
-0.02891188 -0.01411113 0.10000000 0 0 0 0
-0.01029348 -0.00407796 -0.10000000 0 0 0 0
-0.01907522 -0.09976868 0.04593610 0 0 0 0
-0.03123608 0.02383887 -0.10000000 0 0 0 0
0.04550016 0.04664240 0.10000000 0 0 0 0
-0.04984309 0.02046630 0.10000000 0 0 0 0
-0.03224609 -0.09114467 -0.10000000 0 0 0 0
0.00211762 -0.00478099 -0.10000000 0 0 0 0
-0.01949412 0.09957528 -0.01299494 0 0 0 0
-0.09900591 0.03975461 -0.03163439 0 0 0 0
-0.09229281 0.06644816 -0.10000000 0 0 0 0
0.08775669 -0.04070833 -0.10000000 0 0 0 0
0.00548232 -0.09976868 -0.00612524 0 0 0 0
-0.02670463 0.04561073 -0.10000000 0 0 0 0
-0.08378256 0.08397184 0.00766989 0 0 0 0
-0.07398219 0.07730897 -0.10000000 0 0 0 0
0.04134247 0.07605853 -0.10000000 0 0 0 0
0.06089666 -0.01801228 0.10000000 0 0 0 0
-0.09830387 -0.04854810 -0.03060619 0 0 0 0
-0.07374382 -0.09135091 0.08071589 0 0 0 0
-0.09981167 0.00838000 0.04442521 0 0 0 0
-0.00281309 0.00118365 -0.10000000 0 0 0 0
0.04625326 0.09850044 0.08557339 0 0 0 0
0.03246841 0.03026424 -0.10000000 0 0 0 0
0.09851022 0.04778651 0.08807673 0 0 0 0
0.02986228 0.02322995 -0.10000000 0 0 0 0
0.03941439 -0.00673058 0.10000000 0 0 0 0
0.03826141 0.04497162 -0.10000000 0 0 0 0
0.03861075 0.09913536 0.07577257 0 0 0 0
0.09532814 -0.06402297 0.06411516 0 0 0 0
-0.04290824 -0.03648421 -0.10000000 0 0 0 0
-0.09640929 0.01567622 -0.10000000 0 0 0 0
-0.01362375 0.00695711 0.10000000 0 0 0 0
-0.02052567 -0.09986357 0.01799176 0 0 0 0
0.01621534 0.09961027 0.03866427 0 0 0 0
-0.09970906 0.01192967 -0.03369718 0 0 0 0
-0.00413910 0.00512775 -0.10000000 0 0 0 0
0.07346588 0.09130074 0.00355286 0 0 0 0
0.09986527 -0.01899023 0.04888515 0 0 0 0
0.03051498 0.09945770 -0.04449358 0 0 0 0
-0.05384166 -0.08220047 -0.10000000 0 0 0 0
-0.00156559 0.08250470 -0.10000000 0 0 0 0
-0.01818468 0.02905017 -0.10000000 0 0 0 0
0.03648687 0.02832077 -0.10000000 0 0 0 0
-0.00511849 -0.08442451 -0.10000000 0 0 0 0
-0.08789472 -0.03742928 -0.10000000 0 0 0 0
0.09319329 -0.06947424 -0.04979688 0 0 0 0
0.02002400 -0.08993408 -0.10000000 0 0 0 0
0.04556769 0.02089039 -0.10000000 0 0 0 0
0.04912769 0.00661185 -0.10000000 0 0 0 0
0.00172522 0.00069064 -0.10000000 0 0 0 0
0.06628625 0.06993955 0.10000000 0 0 0 0
0.03222983 -0.02250222 -0.10000000 0 0 0 0
-0.09872537 -0.04386858 -0.05021445 0 0 0 0
0.03639314 -0.09919357 -0.09455061 0 0 0 0
0.08555385 -0.05575777 -0.10000000 0 0 0 0
-0.00976430 0.01311938 -0.10000000 0 0 0 0
-0.09615950 -0.06026664 0.09131239 0 0 0 0
0.09882617 -0.04266699 -0.07406219 0 0 0 0
-0.03129524 -0.02263355 0.10000000 0 0 0 0
-0.00533973 0.00445697 0.10000000 0 0 0 0
-0.09510182 -0.01854546 -0.10000000 0 0 0 0
0.01136492 -0.01291537 -0.10000000 0 0 0 0
0.09905171 0.04080329 -0.04067414 0 0 0 0
-0.08000183 0.04544860 0.10000000 0 0 0 0
0.09839985 0.04794634 0.09403429 0 0 0 0
-0.00014390 0.00147218 -0.10000000 0 0 0 0
-0.03481970 -0.07658204 0.10000000 0 0 0 0
-0.06580116 -0.04773485 -0.10000000 0 0 0 0
0.09930979 0.03257702 0.04187366 0 0 0 0
0.02945206 0.00329760 -0.10000000 0 0 0 0
-0.02308576 0.09975547 -0.05851761 0 0 0 0
-0.00070356 0.03828805 -0.10000000 0 0 0 0
0.07171301 -0.03562560 -0.10000000 0 0 0 0
0.09859217 0.04511975 0.09584147 0 0 0 0
-0.02130909 0.09976868 -0.04009918 0 0 0 0
0.08163257 0.02329372 -0.10000000 0 0 0 0
-0.05751685 0.00261340 0.10000000 0 0 0 0
0.00783344 0.00385399 -0.10000000 0 0 0 0
-0.08985336 0.07605456 0.06763841 0 0 0 0
0.09737308 0.05478329 0.08602986 0 0 0 0
0.09857729 0.04683385 -0.09517055 0 0 0 0
0.00996584 0.01455627 -0.10000000 0 0 0 0
0.04340848 0.08937114 -0.10000000 0 0 0 0
0.09991206 0.00415047 -0.00363699 0 0 0 0
0.09570495 0.06232042 -0.03225889 0 0 0 0
-0.08177543 -0.08618010 0.02631377 0 0 0 0
-0.09658895 -0.05832627 -0.05932735 0 0 0 0
-0.06278914 0.07899769 0.10000000 0 0 0 0
-0.03458319 -0.09946997 0.05784730 0 0 0 0
-0.03787274 -0.02356562 -0.10000000 0 0 0 0
-0.00979310 0.01687321 0.10000000 0 0 0 0
0.09570216 0.06199937 0.07070576 0 0 0 0
0.08681447 0.06124356 0.10000000 0 0 0 0
-0.00443548 0.06173100 -0.10000000 0 0 0 0
-0.01708733 0.09976868 -0.02108447 0 0 0 0
-0.07424179 0.06477041 -0.10000000 0 0 0 0
-0.01918091 0.05159618 -0.10000000 0 0 0 0
0.02540301 0.07873695 -0.10000000 0 0 0 0
0.05048060 0.09811226 -0.07411753 0 0 0 0
-0.02590149 0.03979546 -0.10000000 0 0 0 0
0.06467498 -0.09518161 0.00520163 0 0 0 0
0.05935758 0.05247352 0.10000000 0 0 0 0
-0.09928136 -0.03529134 -0.00029298 0 0 0 0
0.06895898 0.02921092 0.10000000 0 0 0 0
0.05601455 -0.09722775 -0.04717312 0 0 0 0
0.04168016 0.09912878 -0.02489977 0 0 0 0
-0.09983201 0.01240570 -0.03426235 0 0 0 0
0.06317140 0.02958274 -0.10000000 0 0 0 0
-0.01402929 -0.09993298 -0.03646468 0 0 0 0
-0.03297960 0.07277377 -0.10000000 0 0 0 0
0.06611936 0.02328211 0.10000000 0 0 0 0
-0.08415405 0.08387964 0.04482215 0 0 0 0
-0.00562923 0.04413867 -0.10000000 0 0 0 0
0.08187500 0.08566841 0.09776258 0 0 0 0
-0.09988835 0.02355741 0.09384303 0 0 0 0
0.09185318 -0.07304494 -0.06136513 0 0 0 0
0.09850360 -0.04595171 -0.03750305 0 0 0 0
0.01070744 -0.00786273 0.10000000 0 0 0 0
0.00212062 -0.00007219 -0.10000000 0 0 0 0
0.09762165 0.05423564 -0.08710221 0 0 0 0
0.07727201 0.08907944 0.09552671 0 0 0 0
-0.02154210 0.01311994 -0.10000000 0 0 0 0
0.00034126 0.00119217 0.10000000 0 0 0 0
0.02016191 0.00784128 -0.10000000 0 0 0 0
0.07706195 -0.01407776 -0.10000000 0 0 0 0
0.01111310 0.01255258 -0.10000000 0 0 0 0
-0.01716705 -0.07784761 -0.10000000 0 0 0 0
0.06088423 0.07066621 0.10000000 0 0 0 0
-0.09697073 0.05690650 -0.01029577 0 0 0 0
0.00149562 -0.01105858 0.10000000 0 0 0 0
-0.09358905 0.06841976 -0.02580817 0 0 0 0
0.09422641 -0.06734212 -0.05719476 0 0 0 0
-0.08511537 -0.06984462 -0.10000000 0 0 0 0
0.09922826 0.03642498 -0.05581509 0 0 0 0
-0.01257802 0.01237172 -0.10000000 0 0 0 0
0.02178486 -0.06211792 0.10000000 0 0 0 0
0.08754653 0.05544572 -0.10000000 0 0 0 0
-0.08622979 0.04696637 -0.10000000 0 0 0 0
-0.00908240 -0.01612082 -0.10000000 0 0 0 0
0.03070428 0.01554715 -0.10000000 0 0 0 0
-0.00680372 -0.01270706 0.10000000 0 0 0 0
0.07088427 -0.05814687 0.10000000 0 0 0 0
-0.02548621 0.09976868 0.09065477 0 0 0 0
0.03059944 -0.09943821 0.09675162 0 0 0 0
0.01921522 -0.03392775 -0.10000000 0 0 0 0
-0.00154075 0.03329968 -0.10000000 0 0 0 0
0.07276405 -0.00361965 -0.10000000 0 0 0 0
-0.07136741 -0.03451661 -0.10000000 0 0 0 0
0.04022317 -0.09234211 -0.10000000 0 0 0 0
-0.05566087 -0.09552737 -0.10000000 0 0 0 0
-0.02490976 0.07705842 -0.10000000 0 0 0 0
0.04455210 0.09864177 -0.05879710 0 0 0 0
-0.01927145 0.01408505 -0.10000000 0 0 0 0
0.00905003 0.06549920 -0.10000000 0 0 0 0
-0.01640064 0.07289428 0.10000000 0 0 0 0
-0.07043899 -0.03688205 -0.10000000 0 0 0 0
0.03028480 -0.09945150 0.04162822 0 0 0 0
0.09970417 -0.01396291 0.06888355 0 0 0 0
0.09919865 -0.03942318 -0.04192067 0 0 0 0
-0.02507623 -0.09951572 0.02509614 0 0 0 0
0.03597135 -0.02944112 0.10000000 0 0 0 0
0.08841188 0.06598749 0.10000000 0 0 0 0
-0.03768012 -0.09913923 -0.01427870 0 0 0 0
0.04133689 -0.09076890 -0.10000000 0 0 0 0
0.02896784 0.09511466 0.10000000 0 0 0 0
-0.05482388 0.09543914 -0.10000000 0 0 0 0
0.09751509 -0.05349355 -0.04257273 0 0 0 0
0.09762353 -0.05365173 -0.00767785 0 0 0 0
-0.03926740 0.07452629 0.10000000 0 0 0 0
-0.05966751 0.03158972 0.10000000 0 0 0 0
-0.02938821 0.04233802 -0.10000000 0 0 0 0
-0.06807925 -0.09412321 0.02427964 0 0 0 0
-0.02809200 0.02697452 -0.10000000 0 0 0 0
-0.04000536 -0.01127368 -0.10000000 0 0 0 0
0.02240226 0.01782002 -0.10000000 0 0 0 0
-0.05438013 0.03952556 -0.10000000 0 0 0 0
0.08793966 -0.07283626 0.10000000 0 0 0 0
0.05466288 -0.05569579 -0.10000000 0 0 0 0
-0.01422492 0.09963150 -0.04404547 0 0 0 0
-0.07651395 -0.08987616 -0.02949856 0 0 0 0
-0.09668390 0.05789720 0.02430448 0 0 0 0
0.05379100 -0.03315811 -0.10000000 0 0 0 0
-0.03488862 0.09941103 -0.00894763 0 0 0 0
0.01115703 0.09397718 -0.10000000 0 0 0 0
0.02326789 0.04832661 -0.10000000 0 0 0 0
-0.00627431 -0.01547620 -0.10000000 0 0 0 0
0.01410238 0.09963281 -0.06848738 0 0 0 0
-0.05259202 -0.09797382 0.00656858 0 0 0 0
0.08164687 -0.08586222 0.04973308 0 0 0 0
0.04465096 0.01239527 -0.10000000 0 0 0 0
-0.00149901 -0.00104190 -0.10000000 0 0 0 0
-0.02502972 -0.06444214 0.10000000 0 0 0 0
-0.08061726 0.08692574 0.00253344 0 0 0 0
-0.09353383 -0.00625141 -0.10000000 0 0 0 0
0.02715597 -0.06423540 0.10000000 0 0 0 0
0.02217381 0.03086894 0.10000000 0 0 0 0
0.00827392 0.00542444 -0.10000000 0 0 0 0
0.03149191 -0.05527755 0.10000000 0 0 0 0
0.01353744 -0.08363758 0.10000000 0 0 0 0
-0.00818703 0.00173585 0.10000000 0 0 0 0
-0.01194179 -0.00772419 -0.10000000 0 0 0 0
-0.06361924 -0.09528255 -0.05338541 0 0 0 0
0.08596987 0.08144340 -0.09996854 0 0 0 0
0.05543264 -0.09737660 -0.02820665 0 0 0 0
0.09592731 0.06131576 -0.03688752 0 0 0 0
-0.09984119 0.00749556 0.01604466 0 0 0 0
0.02975686 0.04233101 0.10000000 0 0 0 0
0.02857551 -0.02800319 -0.10000000 0 0 0 0
-0.02701863 0.09949500 -0.04490900 0 0 0 0
-0.07533727 0.04046182 -0.10000000 0 0 0 0
0.03039942 -0.09976868 0.07140709 0 0 0 0
-0.00315910 0.00654117 0.10000000 0 0 0 0
-0.01677271 -0.03300647 -0.10000000 0 0 0 0
-0.01936921 -0.03879278 -0.10000000 0 0 0 0
-0.00720412 0.00182326 -0.10000000 0 0 0 0
0.08159950 -0.05729916 -0.10000000 0 0 0 0
-0.09930296 0.03289935 -0.08023082 0 0 0 0
0.06155263 -0.05201256 -0.10000000 0 0 0 0
0.00018809 -0.00509769 -0.10000000 0 0 0 0
0.07216966 -0.05437320 -0.10000000 0 0 0 0
0.08491121 -0.01191325 -0.10000000 0 0 0 0
0.01356893 0.07198159 -0.10000000 0 0 0 0
0.02255665 -0.03528382 -0.10000000 0 0 0 0
0.07429238 0.00112333 -0.10000000 0 0 0 0
-0.09918891 0.03951461 -0.00952120 0 0 0 0
-0.00076685 0.09979147 -0.06570165 0 0 0 0
-0.05099896 0.03888271 0.10000000 0 0 0 0
0.04176128 -0.00252784 -0.10000000 0 0 0 0
-0.04664528 -0.06177106 -0.10000000 0 0 0 0
-0.02163506 0.01477071 -0.10000000 0 0 0 0
0.04369969 0.01141556 0.10000000 0 0 0 0
0.02933610 -0.01191735 0.10000000 0 0 0 0
-0.00144361 0.09976788 -0.00077637 0 0 0 0
-0.01338432 -0.09964047 -0.05951725 0 0 0 0
-0.09916479 -0.03942094 -0.02864387 0 0 0 0
0.02841861 0.02420142 0.10000000 0 0 0 0
0.01150411 -0.02743571 -0.10000000 0 0 0 0
-0.03443804 -0.09927613 -0.07293951 0 0 0 0
0.07341579 0.02240607 -0.10000000 0 0 0 0
-0.00340599 0.04049829 -0.10000000 0 0 0 0
0.09959415 0.03467324 0.05776740 0 0 0 0
-0.06792623 0.09418087 -0.01815380 0 0 0 0
0.02014152 -0.05539752 0.10000000 0 0 0 0
0.07329151 0.05139128 -0.10000000 0 0 0 0
0.05279044 0.04309573 -0.10000000 0 0 0 0
-0.00872155 -0.09976868 -0.00995977 0 0 0 0
0.01013539 0.00180633 -0.10000000 0 0 0 0
-0.03491863 0.01074837 0.10000000 0 0 0 0
-0.07930933 -0.08768214 0.01265646 0 0 0 0
0.01440215 -0.00793521 0.10000000 0 0 0 0
-0.02647165 0.08105507 0.10000000 0 0 0 0
-0.02622324 0.01615547 0.10000000 0 0 0 0
-0.00013317 0.00565534 0.10000000 0 0 0 0
0.06975244 0.01342312 0.10000000 0 0 0 0
0.09920570 -0.03748969 -0.04798642 0 0 0 0
0.01455869 -0.02797158 0.10000000 0 0 0 0
0.09883419 0.04253715 0.00547789 0 0 0 0
-0.00556103 0.00977132 -0.10000000 0 0 0 0
0.02392927 0.09971985 -0.04940192 0 0 0 0
0.01751286 -0.09997015 -0.00319080 0 0 0 0
0.00389668 -0.02870618 -0.10000000 0 0 0 0
-0.00280897 0.09981326 -0.09876892 0 0 0 0
0.07884119 0.08848421 0.03068493 0 0 0 0
0.03426155 -0.06013652 -0.10000000 0 0 0 0
-0.02278657 -0.09954016 -0.07001700 0 0 0 0
0.02827489 -0.02866487 -0.10000000 0 0 0 0
0.03226689 -0.09936780 0.03952409 0 0 0 0
0.02888650 0.01789421 -0.10000000 0 0 0 0
-0.03744383 0.08178712 -0.10000000 0 0 0 0
-0.04089583 -0.03751437 0.10000000 0 0 0 0
0.00290568 0.09975228 0.04048886 0 0 0 0
-0.09881368 -0.04286948 -0.09715772 0 0 0 0
0.00137581 0.00261396 0.10000000 0 0 0 0
-0.02105732 -0.09984112 -0.06481295 0 0 0 0
-0.00438458 -0.09976868 0.05308757 0 0 0 0
-0.06658461 -0.09437720 -0.06934523 0 0 0 0
-0.00791642 0.05353147 -0.10000000 0 0 0 0
