ply
format ascii 1.0
comment https://github.com/mikedh/trimesh
element vertex 1121
property float x
property float y
property float z
property uchar red
property uchar green
property uchar blue
property uchar alpha
end_header
0.06727463 -0.07397876 -0.07690670 0 0 0 0
0.00572035 0.02242292 -0.10000000 0 0 0 0
0.00956701 0.00365033 -0.10000000 0 0 0 0
-0.02833971 -0.08024688 -0.10000000 0 0 0 0
-0.02276361 -0.09732296 0.07277960 0 0 0 0
0.02334929 -0.01340963 -0.10000000 0 0 0 0
-0.07136007 -0.01109263 0.10000000 0 0 0 0
0.00496509 0.05322331 -0.10000000 0 0 0 0
-0.04275454 0.09015933 0.05294715 0 0 0 0
0.03843612 0.00614435 0.10000000 0 0 0 0
0.04503601 -0.08887442 0.08430497 0 0 0 0
0.03698124 0.09266952 -0.03561012 0 0 0 0
-0.07092653 0.02874831 0.10000000 0 0 0 0
0.09988750 0.00116625 0.09746872 0 0 0 0
-0.00621263 -0.00363056 -0.10000000 0 0 0 0
-0.06096180 0.00960620 -0.10000000 0 0 0 0
-0.05459125 0.02556465 0.10000000 0 0 0 0
0.01328923 -0.06423607 -0.10000000 0 0 0 0
-0.04079700 -0.06737056 -0.10000000 0 0 0 0
0.09453299 -0.03132270 0.09009023 0 0 0 0
0.00427637 0.00684034 0.10000000 0 0 0 0
-0.02238332 0.08568105 -0.10000000 0 0 0 0
-0.09336419 -0.03499285 0.05659926 0 0 0 0
0.07489012 0.06573717 -0.04654106 0 0 0 0
0.01215378 -0.09765243 -0.10000000 0 0 0 0
-0.07507739 -0.06538706 0.04455054 0 0 0 0
0.03049370 -0.04502366 -0.10000000 0 0 0 0
0.02886760 0.03846967 -0.10000000 0 0 0 0
-0.09128078 -0.04023112 -0.00915563 0 0 0 0
-0.04065444 0.06169215 -0.10000000 0 0 0 0
0.00741274 -0.00265198 -0.10000000 0 0 0 0
-0.01803850 0.04355954 0.10000000 0 0 0 0
-0.09444863 -0.03160695 0.08085097 0 0 0 0
-0.00255497 0.03587183 -0.10000000 0 0 0 0
0.00648398 0.02125661 0.10000000 0 0 0 0
-0.02838329 -0.00333219 -0.10000000 0 0 0 0
-0.00159409 0.05618300 -0.10000000 0 0 0 0
0.08398152 0.05347631 0.02675096 0 0 0 0
0.06105276 0.07863805 -0.02090975 0 0 0 0
-0.06639536 0.00788303 -0.10000000 0 0 0 0
-0.02220852 0.04813876 -0.10000000 0 0 0 0
0.07129599 -0.06352888 -0.10000000 0 0 0 0
-0.02148285 0.01712740 0.10000000 0 0 0 0
0.06410462 0.07648291 -0.05925825 0 0 0 0
0.00318278 0.00127036 -0.10000000 0 0 0 0
0.04062071 0.01330807 -0.10000000 0 0 0 0
-0.09945236 0.00426347 0.06600592 0 0 0 0
0.06087890 0.02873738 -0.10000000 0 0 0 0
0.01538095 -0.00281431 -0.10000000 0 0 0 0
0.00181819 0.01109385 -0.10000000 0 0 0 0
0.09698465 -0.02306222 0.08466081 0 0 0 0
-0.04279324 0.09006096 -0.04420316 0 0 0 0
-0.01103788 0.09731949 0.10000000 0 0 0 0
0.07361171 0.06727580 0.03887997 0 0 0 0
0.01609323 -0.01449262 -0.10000000 0 0 0 0
-0.08110341 -0.05389612 0.10000000 0 0 0 0
-0.00801533 0.00634575 -0.10000000 0 0 0 0
0.07827109 -0.00651968 -0.10000000 0 0 0 0
-0.03460983 0.09337407 -0.00273935 0 0 0 0
0.03440719 0.09388076 0.02631195 0 0 0 0
0.09411389 0.03247287 0.02422801 0 0 0 0
-0.03665831 0.00398158 0.10000000 0 0 0 0
0.04167641 -0.02031357 0.10000000 0 0 0 0
-0.02815883 0.01197758 -0.10000000 0 0 0 0
0.04060711 -0.09092339 -0.05575702 0 0 0 0
0.01698564 0.09810001 0.01152404 0 0 0 0
-0.00725915 0.03660914 0.10000000 0 0 0 0
0.05718395 0.02997794 0.10000000 0 0 0 0
0.03300084 -0.00615091 0.10000000 0 0 0 0
0.04451474 0.08936401 -0.00170215 0 0 0 0
0.01235338 -0.07138406 0.10000000 0 0 0 0
-0.01371492 0.09024920 0.10000000 0 0 0 0
0.09551252 0.02885165 -0.02152129 0 0 0 0
-0.06376912 0.04415051 0.10000000 0 0 0 0
-0.01575587 0.01664751 -0.10000000 0 0 0 0
0.01225467 -0.05176383 -0.10000000 0 0 0 0
0.09656435 -0.02424324 -0.06704135 0 0 0 0
-0.07665571 0.01064956 -0.10000000 0 0 0 0
-0.00549132 0.00705915 -0.10000000 0 0 0 0
0.03791096 0.02373674 -0.10000000 0 0 0 0
0.01374187 -0.03769597 -0.10000000 0 0 0 0
-0.00602221 -0.09958540 -0.00255796 0 0 0 0
-0.09873437 -0.01311958 -0.06438318 0 0 0 0
-0.00349352 0.05181596 0.10000000 0 0 0 0
0.09976132 -0.00537103 -0.06540249 0 0 0 0
-0.01674926 0.04261475 0.10000000 0 0 0 0
0.04106034 -0.07920746 -0.10000000 0 0 0 0
0.05621253 -0.08257993 0.06843859 0 0 0 0
0.09595867 0.02651912 0.04677060 0 0 0 0
-0.01080934 -0.03411040 0.10000000 0 0 0 0
-0.06998123 0.07114634 -0.02638970 0 0 0 0
-0.05613299 0.08230978 0.04143183 0 0 0 0
0.01263274 0.09873307 -0.03517443 0 0 0 0
-0.05505947 0.08311097 -0.03787015 0 0 0 0
0.01248886 0.01887517 -0.10000000 0 0 0 0
0.00596594 0.00205141 -0.10000000 0 0 0 0
0.02658921 -0.09622972 -0.07088264 0 0 0 0
-0.09667876 0.02409287 -0.05908645 0 0 0 0
-0.06086414 0.07890783 -0.06567015 0 0 0 0
0.02756672 0.04313052 0.10000000 0 0 0 0
-0.05205818 -0.00588236 0.10000000 0 0 0 0
-0.01114850 0.08666407 -0.10000000 0 0 0 0
0.09877972 0.01264940 -0.07904991 0 0 0 0
0.04496522 -0.03018947 -0.10000000 0 0 0 0
-0.09451379 0.03138622 0.03548971 0 0 0 0
-0.00022029 -0.09975699 0.04443822 0 0 0 0
0.05680480 -0.00027180 0.10000000 0 0 0 0
0.03424296 -0.06019237 0.10000000 0 0 0 0
-0.01249113 -0.04448102 0.10000000 0 0 0 0
-0.09759778 0.02099642 -0.07459460 0 0 0 0
-0.09700723 -0.02364754 0.03818117 0 0 0 0
0.06127899 0.07846922 -0.01710762 0 0 0 0
0.05318033 0.08451341 -0.07902005 0 0 0 0
0.00845236 0.09927207 -0.09189462 0 0 0 0
-0.00411657 0.04953960 0.10000000 0 0 0 0
-0.06451343 0.07580115 -0.02994493 0 0 0 0
-0.00300179 0.03464330 -0.10000000 0 0 0 0
-0.03404560 0.09360249 -0.08034785 0 0 0 0
-0.01684510 -0.05178035 -0.10000000 0 0 0 0
-0.05925817 0.05502794 -0.10000000 0 0 0 0
0.02699892 0.02424843 0.10000000 0 0 0 0
0.06494009 0.07485016 -0.10000000 0 0 0 0
-0.06907634 -0.07191668 0.06562877 0 0 0 0
-0.03655402 -0.09258695 -0.03590677 0 0 0 0
0.04875202 0.06047844 0.10000000 0 0 0 0
0.09723753 -0.02129387 -0.05512442 0 0 0 0
0.01539682 0.09875433 0.04038674 0 0 0 0
-0.01970199 -0.03330765 -0.10000000 0 0 0 0
-0.02739853 0.01668490 -0.10000000 0 0 0 0
0.02321197 0.00376763 -0.10000000 0 0 0 0
0.09874674 -0.01299136 -0.09553040 0 0 0 0
-0.05702975 0.08164559 0.00821803 0 0 0 0
0.09756701 -0.01985030 -0.01430048 0 0 0 0
0.09433693 0.03279541 -0.08677240 0 0 0 0
0.00898204 -0.00930032 0.10000000 0 0 0 0
0.05430326 -0.04794068 0.10000000 0 0 0 0
-0.01871411 0.00433582 0.10000000 0 0 0 0
-0.01007812 0.00173524 0.10000000 0 0 0 0
-0.01497717 -0.00418727 0.10000000 0 0 0 0
-0.09466134 0.03206255 -0.08416961 0 0 0 0
-0.04940710 0.07609724 0.10000000 0 0 0 0
0.03240827 -0.09426538 -0.00811417 0 0 0 0
0.02378196 0.09666701 0.01439156 0 0 0 0
0.02650871 -0.09607950 0.07748275 0 0 0 0
0.05681406 -0.08224116 0.07770491 0 0 0 0
-0.04081496 -0.09086188 -0.09908582 0 0 0 0
-0.05807935 0.08085717 -0.09682484 0 0 0 0
-0.06939227 0.07164700 -0.09431176 0 0 0 0
0.06636725 -0.03348315 -0.10000000 0 0 0 0
0.00248849 -0.03865135 0.10000000 0 0 0 0
-0.07537869 -0.00019851 0.10000000 0 0 0 0
0.00524231 -0.00218521 -0.10000000 0 0 0 0
-0.04694353 -0.01354953 -0.10000000 0 0 0 0
-0.04459798 0.08933031 -0.08979659 0 0 0 0
0.05390744 0.08387813 0.09488065 0 0 0 0
0.06702140 -0.06394318 -0.10000000 0 0 0 0
0.08580375 0.05097572 -0.04986182 0 0 0 0
0.07157281 0.06979140 -0.05116651 0 0 0 0
0.01267029 0.01046446 -0.10000000 0 0 0 0
0.02973553 -0.00922642 -0.10000000 0 0 0 0
0.08649195 -0.04933510 0.07613101 0 0 0 0
-0.05420343 -0.06410052 0.10000000 0 0 0 0
-0.06567366 0.07518940 0.05274474 0 0 0 0
-0.02102556 -0.01420459 0.10000000 0 0 0 0
0.00635439 -0.03540631 0.10000000 0 0 0 0
0.03039198 0.09508168 -0.04136476 0 0 0 0
0.09875773 -0.01463341 0.03679930 0 0 0 0
-0.03735276 -0.01269660 -0.10000000 0 0 0 0
0.05204540 -0.01336265 0.10000000 0 0 0 0
-0.03150247 0.02988908 0.10000000 0 0 0 0
0.09863447 0.01358250 -0.08109649 0 0 0 0
-0.08886752 -0.03839263 -0.10000000 0 0 0 0
0.05817308 0.08119877 0.03457103 0 0 0 0
0.04185877 -0.05850404 -0.10000000 0 0 0 0
0.01749659 0.02006222 0.10000000 0 0 0 0
0.04548439 -0.08897144 0.07284454 0 0 0 0
-0.09822182 0.01843268 -0.01401642 0 0 0 0
0.00539644 0.00211403 -0.10000000 0 0 0 0
-0.09518033 -0.02957501 -0.05317038 0 0 0 0
0.04732207 -0.08796458 -0.04874777 0 0 0 0
0.07791142 -0.06226646 0.06747937 0 0 0 0
0.00433403 0.06079628 -0.10000000 0 0 0 0
0.05066598 0.08607930 0.01829275 0 0 0 0
0.05544407 0.08282394 -0.06184753 0 0 0 0
-0.03910572 -0.00625204 0.10000000 0 0 0 0
0.09923865 -0.01092773 -0.00834306 0 0 0 0
-0.08807356 0.04637877 -0.02041009 0 0 0 0
0.07072606 0.06825212 0.10000000 0 0 0 0
-0.09307318 0.03624127 0.04619875 0 0 0 0
-0.00585765 0.00164782 -0.10000000 0 0 0 0
0.02765714 0.01803696 -0.10000000 0 0 0 0
0.09975474 0.00254237 -0.03515927 0 0 0 0
0.09974182 0.00476307 0.03819860 0 0 0 0
0.00948954 0.00175886 -0.10000000 0 0 0 0
-0.04244018 0.01011746 -0.10000000 0 0 0 0
0.07288817 -0.06797652 0.09048258 0 0 0 0
-0.02219803 0.04428112 0.10000000 0 0 0 0
-0.01436086 0.01579327 -0.10000000 0 0 0 0
0.09175669 0.03931888 -0.05645794 0 0 0 0
-0.01658922 0.09822293 0.02295272 0 0 0 0
0.02553539 -0.04118813 0.10000000 0 0 0 0
0.05147231 -0.03671440 0.10000000 0 0 0 0
0.00030451 -0.00825532 -0.10000000 0 0 0 0
-0.09603650 0.02655592 -0.05528539 0 0 0 0
-0.01529417 -0.04284526 0.10000000 0 0 0 0
0.00206034 0.00600167 0.10000000 0 0 0 0
0.00854706 -0.00682666 -0.10000000 0 0 0 0
-0.01635379 -0.09433468 -0.10000000 0 0 0 0
0.01314993 -0.00251804 -0.10000000 0 0 0 0
0.08510349 -0.01779193 -0.10000000 0 0 0 0
0.08136328 0.05734146 0.01513649 0 0 0 0
-0.00514184 -0.03229669 0.10000000 0 0 0 0
-0.09998400 -0.00016589 0.04209514 0 0 0 0
0.03672894 0.09251613 0.05189052 0 0 0 0
-0.04373705 -0.08967886 -0.02940219 0 0 0 0
0.00756892 0.09505327 -0.10000000 0 0 0 0
0.00784883 -0.00019970 -0.10000000 0 0 0 0
-0.01410032 0.00386296 0.10000000 0 0 0 0
0.05846988 0.08070816 0.04351409 0 0 0 0
-0.01732814 0.02073570 0.10000000 0 0 0 0
-0.01546728 0.01807579 0.10000000 0 0 0 0
0.09063748 0.02137372 -0.10000000 0 0 0 0
0.00600222 -0.00390574 0.10000000 0 0 0 0
0.01752716 0.01086015 0.10000000 0 0 0 0
-0.00188792 -0.09953791 0.02674274 0 0 0 0
-0.07156462 -0.06979837 0.03530175 0 0 0 0
-0.05831590 0.00735426 -0.10000000 0 0 0 0
-0.07683290 0.06330101 0.01823342 0 0 0 0
-0.09663175 0.02425129 0.08385874 0 0 0 0
-0.01048263 -0.01020855 -0.10000000 0 0 0 0
0.09456128 -0.03125718 0.01749625 0 0 0 0
-0.00215950 -0.01493055 -0.10000000 0 0 0 0
0.04855714 -0.02327187 -0.10000000 0 0 0 0
0.01430401 0.00672657 -0.10000000 0 0 0 0
0.07553083 0.06541724 -0.04776683 0 0 0 0
-0.01645250 -0.00653833 -0.10000000 0 0 0 0
-0.01049147 -0.01209409 -0.10000000 0 0 0 0
0.01114880 -0.00960239 -0.10000000 0 0 0 0
0.03904536 0.06840794 -0.10000000 0 0 0 0
0.09495044 0.03131425 0.08330654 0 0 0 0
-0.04569466 -0.08847336 0.06151878 0 0 0 0
-0.02067364 0.08861946 -0.10000000 0 0 0 0
0.00427456 0.09436566 -0.10000000 0 0 0 0
0.06565487 0.07498157 0.03311434 0 0 0 0
0.01986496 -0.01659138 -0.10000000 0 0 0 0
0.01631245 0.09862576 -0.00604172 0 0 0 0
0.02601986 -0.09608017 -0.00819345 0 0 0 0
0.01599550 0.09829949 -0.06383400 0 0 0 0
0.00018060 -0.04615207 -0.10000000 0 0 0 0
0.09731220 -0.02176118 -0.03607384 0 0 0 0
0.07625403 -0.06409144 -0.02699500 0 0 0 0
0.01512815 -0.05063123 -0.10000000 0 0 0 0
-0.04765233 0.00079251 -0.10000000 0 0 0 0
-0.03206169 0.09449582 -0.07061209 0 0 0 0
0.08977903 -0.04309177 -0.04211169 0 0 0 0
-0.08663319 -0.04913968 -0.04385228 0 0 0 0
0.08657736 0.04924671 -0.06402644 0 0 0 0
0.07893348 0.06066696 -0.01164758 0 0 0 0
0.05664493 0.00830320 0.10000000 0 0 0 0
-0.09005659 -0.04246476 0.01702787 0 0 0 0
-0.03831718 0.09202616 0.00195270 0 0 0 0
-0.03497865 -0.09363392 0.08114684 0 0 0 0
-0.06274508 -0.07779954 -0.07187221 0 0 0 0
0.00048238 0.09953791 0.05391758 0 0 0 0
0.08556949 -0.05131155 -0.07246111 0 0 0 0
-0.09972708 -0.00430327 0.07514767 0 0 0 0
0.07772670 0.06218022 -0.03257489 0 0 0 0
-0.06399606 0.07644142 0.04018380 0 0 0 0
-0.03645451 0.05789713 0.10000000 0 0 0 0
0.08184505 0.05665081 0.07336017 0 0 0 0
0.02283815 -0.00716309 -0.10000000 0 0 0 0
0.01627798 -0.02134540 -0.10000000 0 0 0 0
-0.05094537 0.01127357 -0.10000000 0 0 0 0
-0.04013901 0.07767791 -0.10000000 0 0 0 0
-0.00208720 0.09987684 0.08267803 0 0 0 0
-0.00967932 -0.06250595 -0.10000000 0 0 0 0
-0.09045449 0.04241665 -0.01731164 0 0 0 0
-0.09926023 -0.01025471 0.07339983 0 0 0 0
0.09974866 -0.00260542 -0.09966505 0 0 0 0
-0.05121048 0.03539734 -0.10000000 0 0 0 0
0.03525304 -0.05417524 -0.10000000 0 0 0 0
0.00059310 -0.02916171 -0.10000000 0 0 0 0
0.03930315 0.00239967 -0.10000000 0 0 0 0
0.07866791 -0.06143349 -0.08555914 0 0 0 0
-0.05675701 -0.08182312 -0.08796132 0 0 0 0
0.05267497 -0.02904970 -0.10000000 0 0 0 0
0.08290178 0.05569087 -0.00632005 0 0 0 0
-0.00266273 -0.00091185 0.10000000 0 0 0 0
-0.08062781 0.05839581 0.03480029 0 0 0 0
-0.06137685 -0.07847135 -0.03711341 0 0 0 0
-0.00873838 -0.06482793 -0.10000000 0 0 0 0
-0.00301067 -0.09954955 0.01229282 0 0 0 0
0.09856674 -0.01485723 0.00480581 0 0 0 0
0.02666430 -0.04114506 0.10000000 0 0 0 0
-0.08164117 0.05733696 0.05918370 0 0 0 0
-0.09957932 0.00030427 0.04541199 0 0 0 0
0.08014549 0.05908725 -0.00634438 0 0 0 0
-0.00382371 -0.00140513 0.10000000 0 0 0 0
0.00690547 0.03175849 0.10000000 0 0 0 0
-0.04535696 0.00030627 -0.10000000 0 0 0 0
-0.09971291 0.00691192 0.06855056 0 0 0 0
0.09763385 0.00453040 -0.10000000 0 0 0 0
-0.08393575 0.05431017 -0.02581257 0 0 0 0
0.09460330 -0.03108581 -0.07707440 0 0 0 0
0.09178931 -0.03925637 -0.03071180 0 0 0 0
0.07827740 -0.04876064 -0.10000000 0 0 0 0
0.00649074 0.00478315 -0.10000000 0 0 0 0
0.05713047 0.04932604 -0.10000000 0 0 0 0
-0.06971373 -0.07129303 0.01246838 0 0 0 0
0.05823334 -0.08114745 -0.00895041 0 0 0 0
0.01029935 0.09903393 0.04445982 0 0 0 0
0.09846992 -0.01586088 -0.05473163 0 0 0 0
0.02719812 -0.09585060 0.00925294 0 0 0 0
0.05541366 -0.08284663 -0.09381466 0 0 0 0
0.04578355 0.04676614 -0.10000000 0 0 0 0
0.00630160 0.02548650 -0.10000000 0 0 0 0
0.01029414 -0.00279874 0.10000000 0 0 0 0
0.08328548 0.05462451 -0.07339538 0 0 0 0
0.01085648 0.02883983 0.10000000 0 0 0 0
0.09434425 0.03277887 -0.03848239 0 0 0 0
0.03254350 -0.09421062 -0.07592656 0 0 0 0
0.05267732 0.01973793 -0.10000000 0 0 0 0
0.00780226 -0.01881261 -0.10000000 0 0 0 0
0.00507790 0.02753985 -0.10000000 0 0 0 0
-0.09902763 0.01007963 -0.05379478 0 0 0 0
-0.00132279 0.09982777 0.01328850 0 0 0 0
-0.01554164 0.09835801 0.07245075 0 0 0 0
0.07528223 0.06516149 0.06659981 0 0 0 0
-0.01617291 -0.00078422 0.10000000 0 0 0 0
0.08869576 -0.04518612 0.01973964 0 0 0 0
0.03327131 0.00619523 0.10000000 0 0 0 0
0.03142340 -0.09466319 0.05158357 0 0 0 0
-0.06500763 -0.07560840 -0.06893261 0 0 0 0
-0.02727886 -0.01747288 -0.10000000 0 0 0 0
-0.04624356 0.08819436 -0.04505227 0 0 0 0
-0.01045805 0.09937125 -0.01912888 0 0 0 0
-0.09941197 0.00552297 0.05806435 0 0 0 0
0.00671168 -0.00448853 -0.10000000 0 0 0 0
-0.02168439 -0.03407178 -0.10000000 0 0 0 0
-0.08526266 0.05176675 -0.06352146 0 0 0 0
-0.09194694 -0.03836115 -0.05858088 0 0 0 0
-0.09041102 0.04253476 -0.01835246 0 0 0 0
0.03611258 0.03495292 -0.10000000 0 0 0 0
-0.02607353 -0.00235221 0.10000000 0 0 0 0
0.05637463 0.02835547 0.10000000 0 0 0 0
-0.02698885 -0.04395828 -0.10000000 0 0 0 0
0.09398201 -0.03359718 0.06833868 0 0 0 0
0.05683756 -0.07789867 0.10000000 0 0 0 0
-0.03631576 0.02810549 -0.10000000 0 0 0 0
-0.00836434 0.04728028 -0.10000000 0 0 0 0
0.02527018 -0.01441587 -0.10000000 0 0 0 0
-0.00667783 -0.00296163 0.10000000 0 0 0 0
0.09908538 -0.00948104 -0.08319159 0 0 0 0
-0.00679887 0.02220871 0.10000000 0 0 0 0
0.04797087 0.02975053 -0.10000000 0 0 0 0
0.06851539 -0.07239423 0.05596349 0 0 0 0
-0.00502975 -0.06054298 -0.10000000 0 0 0 0
-0.06378467 0.02092291 -0.10000000 0 0 0 0
-0.07928169 -0.06023032 0.08928876 0 0 0 0
-0.08105429 -0.05830509 0.00307203 0 0 0 0
-0.08468100 0.05232245 -0.00987738 0 0 0 0
0.04751617 0.04037168 -0.10000000 0 0 0 0
0.06379698 -0.07365718 -0.10000000 0 0 0 0
-0.01150017 0.09900451 -0.09237541 0 0 0 0
0.09287061 -0.03610785 -0.02899473 0 0 0 0
0.09786034 0.01856518 0.08993838 0 0 0 0
-0.01931806 -0.09787109 0.07858931 0 0 0 0
-0.05371425 -0.08411493 -0.02737086 0 0 0 0
0.01631078 0.00011138 -0.10000000 0 0 0 0
0.00281770 0.00754872 0.10000000 0 0 0 0
-0.00388536 0.00664240 -0.10000000 0 0 0 0
-0.02474936 0.00859008 0.10000000 0 0 0 0
0.01978174 0.08833410 -0.10000000 0 0 0 0
-0.03906479 0.09157045 -0.02747880 0 0 0 0
-0.03819233 -0.03771674 -0.10000000 0 0 0 0
0.01816299 -0.00829285 0.10000000 0 0 0 0
0.00032579 0.02501379 0.10000000 0 0 0 0
-0.05708475 0.08160979 0.02560888 0 0 0 0
0.02808305 -0.06135640 0.10000000 0 0 0 0
-0.01724424 0.05379597 -0.10000000 0 0 0 0
0.05951756 0.00546650 0.10000000 0 0 0 0
0.00642519 -0.01129157 -0.10000000 0 0 0 0
0.04702295 -0.08775540 0.05602376 0 0 0 0
0.06370648 -0.06994914 -0.10000000 0 0 0 0
0.09193092 -0.03898493 0.09438039 0 0 0 0
-0.04720833 0.02691974 0.10000000 0 0 0 0
0.07773647 -0.06245910 -0.00302795 0 0 0 0
0.00450606 0.09013212 -0.10000000 0 0 0 0
-0.08883753 0.04521864 0.06748436 0 0 0 0
-0.00015502 0.00444095 0.10000000 0 0 0 0
-0.01608549 -0.00801795 -0.10000000 0 0 0 0
0.08181439 -0.05705441 -0.03207346 0 0 0 0
-0.01747545 0.09832077 0.08716933 0 0 0 0
0.09562992 0.02835335 0.08293559 0 0 0 0
-0.08416720 -0.05317001 0.09020948 0 0 0 0
-0.03996592 0.01766266 -0.10000000 0 0 0 0
0.01424657 -0.06014781 0.10000000 0 0 0 0
0.00787128 -0.05962344 0.10000000 0 0 0 0
-0.01496078 0.01066632 -0.10000000 0 0 0 0
-0.02811322 -0.09553123 0.08203509 0 0 0 0
-0.02155008 -0.05024645 -0.10000000 0 0 0 0
-0.01507941 0.02445589 -0.10000000 0 0 0 0
-0.03495646 0.09327465 -0.01394859 0 0 0 0
-0.01896718 0.03200761 -0.10000000 0 0 0 0
0.01100698 -0.09926435 0.01985030 0 0 0 0
0.08836348 -0.04582303 0.03117570 0 0 0 0
0.01973862 -0.09366793 0.10000000 0 0 0 0
0.09930147 -0.00896870 0.06753387 0 0 0 0
-0.09527928 0.02880820 -0.08730546 0 0 0 0
-0.00634070 -0.01298766 -0.10000000 0 0 0 0
0.03057678 -0.09488521 -0.08141666 0 0 0 0
0.00857381 -0.00009340 -0.10000000 0 0 0 0
-0.02064043 -0.04886528 0.10000000 0 0 0 0
0.04662397 -0.00239266 -0.10000000 0 0 0 0
-0.09081127 -0.04144717 -0.00823923 0 0 0 0
0.00059568 -0.09663685 -0.10000000 0 0 0 0
-0.00522103 -0.00613513 0.10000000 0 0 0 0
0.00709920 0.01409338 -0.10000000 0 0 0 0
0.03895467 0.08811125 -0.10000000 0 0 0 0
0.04071255 -0.01508227 -0.10000000 0 0 0 0
0.04934400 -0.02694207 -0.10000000 0 0 0 0
0.05725109 -0.07223788 0.10000000 0 0 0 0
0.05133272 -0.04039692 0.10000000 0 0 0 0
0.00268651 -0.02494368 0.10000000 0 0 0 0
-0.08127899 0.01187173 0.10000000 0 0 0 0
0.04982884 0.06077389 -0.10000000 0 0 0 0
-0.08975994 -0.04313490 0.00355826 0 0 0 0
-0.07257985 -0.00020848 0.10000000 0 0 0 0
-0.02591902 0.00709574 -0.10000000 0 0 0 0
-0.08739267 0.04768390 -0.00536000 0 0 0 0
-0.00452286 -0.01123202 -0.10000000 0 0 0 0
0.02762268 0.01595326 -0.10000000 0 0 0 0
-0.04775001 0.06799050 -0.10000000 0 0 0 0
0.03167304 0.09436482 -0.00908850 0 0 0 0
-0.08030936 -0.05894165 0.05794840 0 0 0 0
0.01197538 0.00096947 -0.10000000 0 0 0 0
-0.09574579 0.02782959 0.00832268 0 0 0 0
0.00524449 -0.01199782 -0.10000000 0 0 0 0
0.08284198 -0.02377254 -0.10000000 0 0 0 0
0.01525360 0.01943946 0.10000000 0 0 0 0
-0.08436093 0.03689307 -0.10000000 0 0 0 0
0.00285703 0.04592296 -0.10000000 0 0 0 0
0.02098589 0.04678080 -0.10000000 0 0 0 0
0.03628459 0.04995473 -0.10000000 0 0 0 0
0.01181835 -0.02357160 0.10000000 0 0 0 0
-0.04960044 -0.07361658 -0.10000000 0 0 0 0
0.05037459 -0.08621962 -0.07070324 0 0 0 0
-0.09736235 -0.02178964 -0.06538878 0 0 0 0
-0.00587204 0.00605844 -0.10000000 0 0 0 0
-0.01645150 0.01355042 -0.10000000 0 0 0 0
0.01948384 0.01752929 0.10000000 0 0 0 0
0.03793903 -0.09228437 0.03273081 0 0 0 0
-0.01528765 -0.00197209 -0.10000000 0 0 0 0
-0.09415866 -0.03319811 -0.04526221 0 0 0 0
0.00139658 0.01203830 -0.10000000 0 0 0 0
0.06678054 0.02682732 -0.10000000 0 0 0 0
-0.01370377 0.02368749 -0.10000000 0 0 0 0
-0.01832422 -0.02993028 0.10000000 0 0 0 0
0.03929451 -0.06530128 -0.10000000 0 0 0 0
0.06006790 0.07937308 -0.01356419 0 0 0 0
0.09976278 0.00541671 -0.05325432 0 0 0 0
0.07556689 -0.06484806 -0.08638681 0 0 0 0
0.08937316 0.04388769 -0.09793031 0 0 0 0
0.04118723 0.09071117 0.05715568 0 0 0 0
0.00214369 -0.00744055 -0.10000000 0 0 0 0
-0.07405204 0.06684937 -0.06240041 0 0 0 0
0.01772178 0.00161285 -0.10000000 0 0 0 0
0.03807319 -0.04282741 0.10000000 0 0 0 0
-0.09545694 0.02909509 -0.05254587 0 0 0 0
-0.08801661 0.00447075 -0.10000000 0 0 0 0
0.02981224 0.04382138 0.10000000 0 0 0 0
-0.02853929 0.08845875 -0.10000000 0 0 0 0
-0.01079774 0.00468161 0.10000000 0 0 0 0
0.00756390 0.01147225 -0.10000000 0 0 0 0
0.01110898 0.01848177 0.10000000 0 0 0 0
0.09859544 -0.01455971 0.03117464 0 0 0 0
-0.00272827 0.04702748 -0.10000000 0 0 0 0
-0.00052087 -0.00770619 -0.10000000 0 0 0 0
-0.07471384 0.06578736 0.06464438 0 0 0 0
-0.09788785 -0.01844461 -0.00896918 0 0 0 0
-0.07938308 0.06010319 -0.05115153 0 0 0 0
0.09965272 -0.00359990 -0.06589447 0 0 0 0
0.08875995 -0.00874956 -0.10000000 0 0 0 0
-0.05104837 -0.00417838 0.10000000 0 0 0 0
0.07337941 -0.05492939 -0.10000000 0 0 0 0
-0.09764460 0.02083864 -0.09189464 0 0 0 0
-0.04737988 0.08755438 -0.06577791 0 0 0 0
-0.09862158 0.01366222 -0.08629652 0 0 0 0
0.09788965 -0.01843672 -0.09845690 0 0 0 0
-0.07812791 0.03798013 -0.10000000 0 0 0 0
-0.04980593 0.08649348 0.04761016 0 0 0 0
-0.06437894 -0.07621724 0.05224866 0 0 0 0
0.01778505 0.00421403 -0.10000000 0 0 0 0
-0.06400302 0.00692794 0.10000000 0 0 0 0
-0.07402821 -0.06654231 -0.02487504 0 0 0 0
-0.08567092 0.05116614 -0.00278882 0 0 0 0
0.01266111 0.09894221 -0.09751438 0 0 0 0
0.03586497 -0.00878512 0.10000000 0 0 0 0
-0.00658044 -0.00861122 0.10000000 0 0 0 0
-0.03741362 0.09246130 0.09238541 0 0 0 0
0.04958282 -0.02292007 0.10000000 0 0 0 0
-0.03554958 -0.09307773 -0.03619262 0 0 0 0
0.08972217 0.04321869 -0.06424463 0 0 0 0
-0.02901134 0.01081730 -0.10000000 0 0 0 0
-0.06405851 -0.07652756 -0.05546153 0 0 0 0
-0.00237780 0.09959018 -0.00160968 0 0 0 0
0.02745900 0.09576398 -0.06759603 0 0 0 0
-0.01539646 -0.09875436 0.01591151 0 0 0 0
0.00948540 0.09953791 -0.03258332 0 0 0 0
-0.02612184 -0.08767948 -0.10000000 0 0 0 0
0.03225236 0.07053477 -0.10000000 0 0 0 0
-0.01051389 -0.01810585 -0.10000000 0 0 0 0
-0.03735343 0.05256744 -0.10000000 0 0 0 0
-0.07573096 0.06468280 -0.09499515 0 0 0 0
0.03815677 0.00638857 -0.10000000 0 0 0 0
-0.00789071 -0.07134163 -0.10000000 0 0 0 0
0.09477436 -0.03050945 -0.02051456 0 0 0 0
0.00638175 0.00502636 0.10000000 0 0 0 0
-0.02337739 0.09711917 -0.03843398 0 0 0 0
-0.03462432 -0.01779347 -0.10000000 0 0 0 0
-0.03618224 0.01705639 -0.10000000 0 0 0 0
0.03698057 -0.03612800 0.10000000 0 0 0 0
-0.03000974 0.07683553 -0.10000000 0 0 0 0
0.05588003 0.08239397 0.05568085 0 0 0 0
-0.01172551 0.02300037 -0.10000000 0 0 0 0
-0.01095129 -0.03423484 -0.10000000 0 0 0 0
-0.06663332 0.04647165 0.10000000 0 0 0 0
0.05600951 0.00111335 -0.10000000 0 0 0 0
0.00389310 0.01029734 0.10000000 0 0 0 0
-0.09809210 -0.01693718 -0.05556575 0 0 0 0
-0.05496617 0.05544637 -0.10000000 0 0 0 0
-0.09059458 -0.04203597 -0.01386773 0 0 0 0
-0.07810201 -0.05780659 0.10000000 0 0 0 0
-0.02632410 -0.06451865 0.10000000 0 0 0 0
-0.09968742 0.00306663 0.00392570 0 0 0 0
0.08272091 -0.05555583 -0.06624488 0 0 0 0
-0.09922384 -0.01138935 -0.08459938 0 0 0 0
0.00487031 0.09973393 -0.00871678 0 0 0 0
0.09933331 -0.00925989 -0.07729371 0 0 0 0
0.04811592 -0.01425729 -0.10000000 0 0 0 0
-0.09358566 0.03449254 0.00008456 0 0 0 0
0.09681711 -0.02482348 -0.00496823 0 0 0 0
0.00099437 0.09980668 -0.06276716 0 0 0 0
-0.06567798 -0.07495920 0.03215948 0 0 0 0
-0.06346976 0.07683420 -0.04744365 0 0 0 0
0.02036003 0.00597724 -0.10000000 0 0 0 0
0.06680238 0.02977942 -0.10000000 0 0 0 0
0.01730558 0.05956692 0.10000000 0 0 0 0
-0.02741949 -0.02192053 -0.10000000 0 0 0 0
0.09445582 -0.03252683 0.05073851 0 0 0 0
0.03220861 -0.03138961 -0.10000000 0 0 0 0
0.09099622 -0.04094460 0.02395622 0 0 0 0
0.01959709 0.09783512 -0.07915019 0 0 0 0
-0.03296259 -0.03409704 -0.10000000 0 0 0 0
0.00424321 -0.09947042 0.04571798 0 0 0 0
-0.07486735 0.06276195 -0.10000000 0 0 0 0
0.04925416 -0.00327862 -0.10000000 0 0 0 0
0.05277605 -0.06586266 0.10000000 0 0 0 0
-0.02451755 -0.01847816 0.10000000 0 0 0 0
-0.08247121 0.05623079 0.09533411 0 0 0 0
-0.00783756 -0.00283078 0.10000000 0 0 0 0
-0.02955575 -0.02798064 -0.10000000 0 0 0 0
0.09080701 -0.04113926 -0.09721611 0 0 0 0
0.03651775 -0.01758780 -0.10000000 0 0 0 0
-0.01447696 0.00739280 -0.10000000 0 0 0 0
-0.03450232 -0.00262400 -0.10000000 0 0 0 0
0.00066171 0.09970036 0.07361565 0 0 0 0
0.02744577 0.03593422 -0.10000000 0 0 0 0
0.02518838 0.00476868 -0.10000000 0 0 0 0
0.01425878 -0.09863106 -0.07484015 0 0 0 0
0.06382955 -0.07638334 -0.02430860 0 0 0 0
0.02028554 0.09043948 0.10000000 0 0 0 0
0.09181839 -0.03848482 0.08743360 0 0 0 0
-0.04762953 0.08754157 0.02126965 0 0 0 0
0.00380108 0.02659222 -0.10000000 0 0 0 0
0.01736196 0.02306688 -0.10000000 0 0 0 0
0.03238473 -0.06737840 -0.10000000 0 0 0 0
-0.03080932 0.09491272 -0.09462269 0 0 0 0
0.00528085 -0.00106537 -0.10000000 0 0 0 0
-0.04484706 0.08898084 -0.06125830 0 0 0 0
0.08262798 0.03832724 0.10000000 0 0 0 0
0.01037996 0.00086994 -0.10000000 0 0 0 0
0.00672796 -0.09931089 -0.08386242 0 0 0 0
-0.09942607 0.00508339 -0.05987616 0 0 0 0
0.07816751 0.06162747 0.05272030 0 0 0 0
-0.02816667 0.04378451 -0.10000000 0 0 0 0
0.09439485 0.03178813 -0.04942466 0 0 0 0
0.04084403 0.09123530 0.09280237 0 0 0 0
0.09498963 0.03009321 -0.07647363 0 0 0 0
-0.03216221 -0.09446946 -0.02177778 0 0 0 0
-0.08528277 0.05132975 0.04816080 0 0 0 0
0.06835652 -0.07278747 0.05433889 0 0 0 0
0.03256486 0.05449660 -0.10000000 0 0 0 0
0.01904501 -0.02806706 0.10000000 0 0 0 0
-0.00217901 0.00223328 0.10000000 0 0 0 0
0.09729805 -0.02184870 -0.05871096 0 0 0 0
-0.01754097 0.03332082 -0.10000000 0 0 0 0
-0.09834506 -0.01715521 -0.04311757 0 0 0 0
-0.01463423 -0.08456299 0.10000000 0 0 0 0
-0.01465510 0.03914841 -0.10000000 0 0 0 0
0.05955026 -0.08000492 0.05444046 0 0 0 0
0.08090307 0.03908422 -0.10000000 0 0 0 0
-0.06318559 0.06500738 -0.10000000 0 0 0 0
-0.07210381 0.02954891 0.10000000 0 0 0 0
-0.04731274 -0.01132832 -0.10000000 0 0 0 0
0.00282375 0.09953791 0.06821412 0 0 0 0
-0.04957870 0.00167269 0.10000000 0 0 0 0
-0.02495673 -0.02841892 -0.10000000 0 0 0 0
0.06057013 0.07934105 0.02549728 0 0 0 0
-0.01077105 0.00828546 -0.10000000 0 0 0 0
-0.03503284 0.02938942 -0.10000000 0 0 0 0
0.06818186 -0.03669452 0.10000000 0 0 0 0
-0.02102337 -0.02276948 -0.10000000 0 0 0 0
-0.02340380 0.03544066 -0.10000000 0 0 0 0
-0.03446268 0.02413389 -0.10000000 0 0 0 0
-0.01631600 0.01077537 -0.10000000 0 0 0 0
-0.02177810 -0.09719249 -0.06193088 0 0 0 0
0.00708155 -0.00219383 -0.10000000 0 0 0 0
-0.07079936 -0.06999941 -0.02143362 0 0 0 0
-0.05398951 0.01134031 -0.10000000 0 0 0 0
-0.02233057 0.03901803 -0.10000000 0 0 0 0
0.09376276 0.03391785 0.07024200 0 0 0 0
0.07736573 -0.06286734 0.09720628 0 0 0 0
0.09017094 0.04235847 -0.01705984 0 0 0 0
0.02161186 0.02590498 -0.10000000 0 0 0 0
0.09715090 0.02250209 0.01685509 0 0 0 0
-0.04916380 0.01706981 0.10000000 0 0 0 0
0.05010422 -0.08615360 0.03511559 0 0 0 0
-0.04456970 0.01243035 -0.10000000 0 0 0 0
-0.05269577 0.00404075 -0.10000000 0 0 0 0
0.08820967 0.01998034 -0.10000000 0 0 0 0
-0.05533094 -0.05657110 0.10000000 0 0 0 0
0.09109734 0.01796908 -0.10000000 0 0 0 0
0.00018478 -0.05324730 -0.10000000 0 0 0 0
-0.04258778 -0.03073371 -0.10000000 0 0 0 0
-0.07757816 0.06236647 0.08836770 0 0 0 0
-0.01230789 0.09895265 -0.06144541 0 0 0 0
-0.02728495 -0.03427447 0.10000000 0 0 0 0
-0.07310186 -0.03113199 -0.10000000 0 0 0 0
0.02311419 0.03414240 -0.10000000 0 0 0 0
0.04930874 -0.08646807 0.08630303 0 0 0 0
0.06377505 -0.03174514 0.10000000 0 0 0 0
0.06642359 0.03980721 -0.10000000 0 0 0 0
0.01951877 0.09784521 0.02832925 0 0 0 0
0.03161553 -0.01479978 -0.10000000 0 0 0 0
0.00135056 -0.01828613 0.10000000 0 0 0 0
0.05091732 -0.08556213 0.09976500 0 0 0 0
-0.02529279 0.01077441 0.10000000 0 0 0 0
0.02889651 0.01871332 0.10000000 0 0 0 0
0.02450592 0.00161006 0.10000000 0 0 0 0
-0.05913380 -0.08038089 -0.09348911 0 0 0 0
0.04899810 -0.06367765 0.10000000 0 0 0 0
0.06145810 -0.02819189 0.10000000 0 0 0 0
-0.00961789 -0.09912179 0.02506699 0 0 0 0
-0.04210516 -0.02637714 0.10000000 0 0 0 0
-0.02884754 0.02408838 -0.10000000 0 0 0 0
0.08808301 -0.04636066 -0.02742650 0 0 0 0
0.09394111 -0.03368957 -0.03081003 0 0 0 0
0.01307199 -0.04396993 -0.10000000 0 0 0 0
0.07627375 -0.04314759 -0.10000000 0 0 0 0
0.05821123 -0.08087653 0.05598469 0 0 0 0
-0.00387911 0.00631105 0.10000000 0 0 0 0
0.02747187 0.04090846 -0.10000000 0 0 0 0
-0.01703407 0.09809057 -0.01437939 0 0 0 0
0.00877849 -0.01597379 -0.10000000 0 0 0 0
-0.07393388 0.00515623 -0.10000000 0 0 0 0
-0.08525606 0.05137382 0.03505913 0 0 0 0
0.00560968 0.00286999 -0.10000000 0 0 0 0
-0.02257521 -0.01192079 -0.10000000 0 0 0 0
-0.06895505 0.07212843 -0.08549511 0 0 0 0
-0.00733603 0.00516583 -0.10000000 0 0 0 0
-0.09294681 0.03666707 -0.06040544 0 0 0 0
0.01003575 -0.00246916 -0.10000000 0 0 0 0
0.00637899 -0.09933330 0.05748487 0 0 0 0
-0.03786891 -0.09205461 0.07675217 0 0 0 0
-0.03201515 -0.09425123 -0.05221295 0 0 0 0
-0.06140379 0.07837608 0.03725558 0 0 0 0
0.00305803 0.09993917 -0.03979611 0 0 0 0
0.03371935 0.07485653 -0.10000000 0 0 0 0
-0.09378597 0.03336393 0.01334383 0 0 0 0
-0.09924804 0.01063473 0.04266143 0 0 0 0
0.02644272 0.08335727 -0.10000000 0 0 0 0
-0.05287682 -0.08473992 -0.01240562 0 0 0 0
0.01486127 -0.00323763 0.10000000 0 0 0 0
-0.09622653 0.02673217 0.04024306 0 0 0 0
-0.08928300 -0.04473097 -0.00278465 0 0 0 0
0.03759146 0.05759463 -0.10000000 0 0 0 0
0.09504296 -0.02994828 -0.04856475 0 0 0 0
-0.06859129 0.07252897 -0.04024987 0 0 0 0
-0.07742430 -0.01150434 -0.10000000 0 0 0 0
0.09896351 0.01074428 -0.04379758 0 0 0 0
0.01708703 0.09650760 -0.10000000 0 0 0 0
0.07528719 0.06046437 0.10000000 0 0 0 0
-0.00612342 0.02057723 -0.10000000 0 0 0 0
-0.00605142 -0.01706030 -0.10000000 0 0 0 0
-0.01815318 -0.09802128 0.03494040 0 0 0 0
0.05981623 -0.03561302 -0.10000000 0 0 0 0
-0.03921024 0.09186230 0.06594977 0 0 0 0
0.05774243 -0.08156538 -0.07219625 0 0 0 0
0.02550205 -0.03817412 0.10000000 0 0 0 0
-0.03290916 0.00186284 -0.10000000 0 0 0 0
-0.04762056 -0.08754589 0.05116903 0 0 0 0
-0.05381603 0.08373749 -0.05188520 0 0 0 0
0.07997564 -0.05999353 0.04984657 0 0 0 0
0.08708196 -0.04836181 -0.08457793 0 0 0 0
-0.00492522 -0.00530039 -0.10000000 0 0 0 0
0.05531287 -0.08276315 -0.04833560 0 0 0 0
0.01943470 -0.08555136 -0.10000000 0 0 0 0
-0.01151415 -0.03612754 -0.10000000 0 0 0 0
0.07651113 -0.00178228 -0.10000000 0 0 0 0
0.00868244 0.01576756 -0.10000000 0 0 0 0
0.00981810 -0.04025262 -0.10000000 0 0 0 0
0.02817737 0.04437996 -0.10000000 0 0 0 0
-0.01396395 0.00793701 0.10000000 0 0 0 0
-0.06404119 -0.07654433 0.07875023 0 0 0 0
-0.00097913 0.02223665 -0.10000000 0 0 0 0
0.00103763 0.05653078 -0.10000000 0 0 0 0
-0.09943074 0.00493759 -0.06145204 0 0 0 0
-0.09607338 -0.02639431 -0.00639040 0 0 0 0
0.00745246 0.00591950 0.10000000 0 0 0 0
0.01536624 0.01602320 0.10000000 0 0 0 0
0.09561893 0.01056561 -0.10000000 0 0 0 0
-0.06765809 -0.02408378 -0.10000000 0 0 0 0
0.01086929 -0.01950848 0.10000000 0 0 0 0
-0.09757729 0.02012148 0.01752075 0 0 0 0
0.00691466 0.01494819 -0.10000000 0 0 0 0
-0.05259205 0.08461894 0.00352264 0 0 0 0
0.00620874 0.03181827 -0.10000000 0 0 0 0
0.05533632 0.00552894 0.10000000 0 0 0 0
0.02027495 -0.08496762 -0.10000000 0 0 0 0
0.05376066 0.00405016 0.10000000 0 0 0 0
-0.04515529 0.03655072 -0.10000000 0 0 0 0
-0.06728733 -0.05038617 -0.10000000 0 0 0 0
0.09853689 -0.01516670 0.05164703 0 0 0 0
-0.06196568 -0.02010375 -0.10000000 0 0 0 0
-0.02411986 0.00123227 -0.10000000 0 0 0 0
0.01452817 -0.02454663 -0.10000000 0 0 0 0
-0.00775155 0.00422777 -0.10000000 0 0 0 0
-0.06155461 -0.07870023 -0.02892538 0 0 0 0
-0.05291318 0.02456860 -0.10000000 0 0 0 0
0.03998641 0.09119733 -0.07868302 0 0 0 0
0.09073167 -0.04093976 0.06982902 0 0 0 0
-0.00774000 -0.09953791 0.09951515 0 0 0 0
-0.05420171 0.01163170 -0.10000000 0 0 0 0
-0.02377496 0.00987532 -0.10000000 0 0 0 0
-0.06897052 -0.00114323 -0.10000000 0 0 0 0
-0.04301900 0.04587090 -0.10000000 0 0 0 0
0.02137795 -0.04014682 -0.10000000 0 0 0 0
-0.08415028 -0.05239231 -0.10000000 0 0 0 0
0.04656515 0.08845728 0.03787307 0 0 0 0
-0.01558442 0.02968736 -0.10000000 0 0 0 0
-0.06972588 -0.07127966 -0.00412230 0 0 0 0
-0.01622006 0.07750155 -0.10000000 0 0 0 0
-0.09414667 -0.03262435 0.03593687 0 0 0 0
-0.01011557 0.00650136 -0.10000000 0 0 0 0
-0.04562423 -0.02588433 -0.10000000 0 0 0 0
0.00287727 -0.09953791 -0.03450748 0 0 0 0
0.08805202 0.04642005 0.02273823 0 0 0 0
-0.00384874 0.01912259 0.10000000 0 0 0 0
0.02267163 0.01275291 -0.10000000 0 0 0 0
0.03248465 0.06198801 -0.10000000 0 0 0 0
-0.09363475 -0.03434918 -0.07468473 0 0 0 0
0.06958700 0.05838297 -0.10000000 0 0 0 0
0.09060623 0.01096600 -0.10000000 0 0 0 0
0.06091747 0.07886242 -0.00283802 0 0 0 0
0.00103748 -0.09980945 0.01944566 0 0 0 0
0.00766316 -0.01251989 -0.10000000 0 0 0 0
0.02553617 -0.09643479 -0.07994657 0 0 0 0
0.00591516 -0.01873688 -0.10000000 0 0 0 0
-0.01774001 -0.04862979 -0.10000000 0 0 0 0
-0.00292901 -0.01512266 -0.10000000 0 0 0 0
0.01972335 -0.03346216 -0.10000000 0 0 0 0
-0.05396189 -0.08364253 0.06593726 0 0 0 0
0.00358903 -0.00695312 -0.10000000 0 0 0 0
0.06870080 0.07223639 0.06916638 0 0 0 0
-0.04000840 -0.05713661 0.10000000 0 0 0 0
0.06200061 -0.02606803 0.10000000 0 0 0 0
-0.00421534 -0.08161308 0.10000000 0 0 0 0
-0.06647069 -0.05975880 0.10000000 0 0 0 0
0.09536405 -0.02907580 -0.03468667 0 0 0 0
0.05675706 -0.08184402 0.00969479 0 0 0 0
-0.01047344 0.00475625 -0.10000000 0 0 0 0
0.03047542 -0.09491178 0.08448867 0 0 0 0
-0.05578803 0.05514429 -0.10000000 0 0 0 0
-0.00538049 -0.01451337 -0.10000000 0 0 0 0
0.00340992 0.00588309 -0.10000000 0 0 0 0
0.03227776 -0.06806811 0.10000000 0 0 0 0
-0.07829669 0.00130771 -0.10000000 0 0 0 0
-0.05167600 -0.02972439 0.10000000 0 0 0 0
-0.08894818 -0.04496866 0.02691496 0 0 0 0
0.00571450 -0.02224254 -0.10000000 0 0 0 0
-0.06596349 0.07497308 0.09741594 0 0 0 0
-0.08225863 -0.05605792 -0.06456763 0 0 0 0
-0.01202113 0.09906685 0.05853152 0 0 0 0
-0.03781811 -0.01251985 0.10000000 0 0 0 0
-0.00566039 -0.00763248 -0.10000000 0 0 0 0
-0.07858682 0.01566704 -0.10000000 0 0 0 0
-0.08364998 0.05406331 -0.09701723 0 0 0 0
0.03511029 0.08618404 -0.10000000 0 0 0 0
0.01793093 -0.09791591 -0.02093915 0 0 0 0
-0.03247274 0.01253800 -0.10000000 0 0 0 0
-0.05172440 -0.08556959 -0.01426019 0 0 0 0
0.08707114 -0.04837965 -0.06328150 0 0 0 0
-0.00262305 -0.01852237 -0.10000000 0 0 0 0
-0.01124889 -0.06915726 0.10000000 0 0 0 0
0.04579375 0.08844768 -0.06068275 0 0 0 0
-0.09030499 -0.04210152 0.02399737 0 0 0 0
-0.02466078 0.07484365 0.10000000 0 0 0 0
-0.06369843 -0.02206792 -0.10000000 0 0 0 0
0.09358609 -0.03449157 -0.05410952 0 0 0 0
-0.09352703 0.03406758 0.09061084 0 0 0 0
-0.02475911 0.09666041 -0.02185776 0 0 0 0
-0.00095415 0.00773857 -0.10000000 0 0 0 0
0.08158264 -0.05743352 -0.01573494 0 0 0 0
-0.00012401 0.09975080 -0.06847255 0 0 0 0
0.01151275 0.03203952 -0.10000000 0 0 0 0
0.07140433 0.03344380 -0.10000000 0 0 0 0
0.00198179 -0.09953791 -0.08957927 0 0 0 0
0.03941505 -0.05313367 -0.10000000 0 0 0 0
-0.06743197 -0.02381693 -0.10000000 0 0 0 0
0.01170618 -0.04912358 -0.10000000 0 0 0 0
-0.09528156 -0.02986352 -0.08743571 0 0 0 0
0.09962201 -0.00102695 0.04956095 0 0 0 0
-0.08074667 -0.05338336 -0.10000000 0 0 0 0
-0.00863151 0.00734859 -0.10000000 0 0 0 0
-0.08250732 -0.05590816 0.01879786 0 0 0 0
0.01992253 0.07611661 -0.10000000 0 0 0 0
-0.02335160 -0.08835338 -0.10000000 0 0 0 0
0.07255758 -0.06816164 0.03282360 0 0 0 0
-0.09921371 0.01170534 0.03914208 0 0 0 0
0.02291892 -0.08509190 -0.10000000 0 0 0 0
0.00893885 -0.01223956 -0.10000000 0 0 0 0
-0.09437861 0.03270125 0.03256871 0 0 0 0
0.09182449 -0.02447057 0.10000000 0 0 0 0
0.04473578 -0.01563116 -0.10000000 0 0 0 0
0.05136901 0.08142498 -0.10000000 0 0 0 0
-0.07946356 0.06006484 0.04482243 0 0 0 0
0.08170058 0.05719713 0.06906565 0 0 0 0
-0.04599812 -0.05776927 -0.10000000 0 0 0 0
-0.09038208 -0.04139200 -0.10000000 0 0 0 0
0.09307431 0.03564770 -0.05170537 0 0 0 0
0.00729833 0.00362077 -0.10000000 0 0 0 0
-0.00934752 0.01128894 -0.10000000 0 0 0 0
-0.09886408 0.01177499 -0.07631741 0 0 0 0
-0.00770698 -0.01628440 0.10000000 0 0 0 0
-0.08652051 -0.04734656 -0.10000000 0 0 0 0
0.09128641 0.03968657 0.08588103 0 0 0 0
0.07066046 -0.07056810 0.04537819 0 0 0 0
0.03569481 0.00626613 0.10000000 0 0 0 0
0.04924455 0.08650423 -0.08060850 0 0 0 0
0.01458541 -0.07750167 -0.10000000 0 0 0 0
0.04951005 -0.02525901 0.10000000 0 0 0 0
0.03376644 -0.00978294 -0.10000000 0 0 0 0
0.03447305 -0.09386348 0.09072798 0 0 0 0
-0.02234318 -0.00989052 -0.10000000 0 0 0 0
0.07291726 -0.02425286 -0.10000000 0 0 0 0
0.05033730 0.08623758 0.08054605 0 0 0 0
-0.03827559 0.00881452 -0.10000000 0 0 0 0
0.04046291 0.01616465 0.10000000 0 0 0 0
-0.06442190 -0.07617564 -0.07023543 0 0 0 0
-0.09589480 -0.02673431 -0.06594987 0 0 0 0
-0.02837464 0.00508844 0.10000000 0 0 0 0
-0.00063071 -0.00805532 -0.10000000 0 0 0 0
0.08998360 -0.04357526 0.05641415 0 0 0 0
0.00877403 -0.08283603 -0.10000000 0 0 0 0
0.05875787 0.02690479 0.10000000 0 0 0 0
0.00034665 0.06970279 0.10000000 0 0 0 0
-0.07944579 0.06057695 -0.06247469 0 0 0 0
0.01961439 -0.09758805 -0.03524668 0 0 0 0
-0.05164004 0.08515389 -0.02633632 0 0 0 0
0.08449855 0.04122190 -0.10000000 0 0 0 0
0.07960890 0.05985650 0.08388466 0 0 0 0
-0.04690867 -0.03553226 -0.10000000 0 0 0 0
0.05709611 0.02601761 -0.10000000 0 0 0 0
-0.02263924 -0.02681164 -0.10000000 0 0 0 0
-0.03397728 0.09015606 0.10000000 0 0 0 0
0.08185805 -0.05699966 -0.01636106 0 0 0 0
-0.02552257 0.09621058 -0.03237246 0 0 0 0
-0.00866024 0.00062965 -0.10000000 0 0 0 0
0.02184630 0.09754511 0.03628876 0 0 0 0
0.04116108 0.04768687 0.10000000 0 0 0 0
0.02344771 0.09675467 0.06545205 0 0 0 0
0.04261855 0.09023591 -0.09150054 0 0 0 0
-0.02761979 0.01051803 0.10000000 0 0 0 0
0.08270362 -0.03415002 0.10000000 0 0 0 0
0.09800884 -0.01745220 -0.02234325 0 0 0 0
-0.09597174 0.02683964 0.06299729 0 0 0 0
0.09919114 0.01240938 0.00014111 0 0 0 0
-0.09008770 -0.04239449 0.02308993 0 0 0 0
0.07580582 -0.02509513 0.10000000 0 0 0 0
-0.03019486 -0.01687866 -0.10000000 0 0 0 0
0.01040141 -0.01339142 0.10000000 0 0 0 0
0.04377317 0.00369626 -0.10000000 0 0 0 0
-0.02352089 0.08890513 -0.10000000 0 0 0 0
0.00671593 0.02648250 -0.10000000 0 0 0 0
-0.02149619 0.00274263 -0.10000000 0 0 0 0
0.08751457 -0.04745024 0.08477906 0 0 0 0
-0.00473162 -0.00212728 -0.10000000 0 0 0 0
-0.06027969 0.00197172 0.10000000 0 0 0 0
0.02388800 0.00690797 0.10000000 0 0 0 0
0.02966137 -0.09512525 -0.04247497 0 0 0 0
-0.09107463 0.04016500 -0.00087586 0 0 0 0
0.00523554 -0.06716646 -0.10000000 0 0 0 0
0.01155297 0.00554118 0.10000000 0 0 0 0
-0.09972809 -0.00681799 -0.09589343 0 0 0 0
-0.02162357 -0.09719677 0.07850178 0 0 0 0
0.00816926 0.00193755 0.10000000 0 0 0 0
-0.08431662 0.04625052 -0.10000000 0 0 0 0
-0.00262259 -0.09953791 0.05106134 0 0 0 0
-0.06912640 -0.00947947 -0.10000000 0 0 0 0
-0.06649727 0.07267588 -0.10000000 0 0 0 0
-0.02377407 -0.01188223 -0.10000000 0 0 0 0
0.03217929 -0.00799789 0.10000000 0 0 0 0
-0.08837184 -0.04623402 0.04570679 0 0 0 0
0.00140547 0.00870582 -0.10000000 0 0 0 0
-0.07313003 0.03674149 -0.10000000 0 0 0 0
-0.09946954 0.00841727 -0.05301548 0 0 0 0
-0.03153703 0.08674382 0.10000000 0 0 0 0
-0.01004127 -0.05525872 -0.10000000 0 0 0 0
0.05237297 -0.03184738 -0.10000000 0 0 0 0
-0.01459433 0.09856571 0.08096726 0 0 0 0
0.00772186 0.04085842 -0.10000000 0 0 0 0
-0.06490671 0.00147747 -0.10000000 0 0 0 0
0.01836693 -0.06138975 -0.10000000 0 0 0 0
0.06427711 0.01031698 -0.10000000 0 0 0 0
-0.05916231 -0.08025744 -0.08447748 0 0 0 0
-0.05085266 -0.08598940 -0.01535339 0 0 0 0
0.05151936 -0.00784202 -0.10000000 0 0 0 0
0.06689043 -0.01333444 0.10000000 0 0 0 0
0.01290880 0.03595005 -0.10000000 0 0 0 0
-0.06486142 -0.01887483 0.10000000 0 0 0 0
0.00056677 0.00726065 0.10000000 0 0 0 0
-0.09539963 0.02934624 -0.07453940 0 0 0 0
-0.05011170 0.08601585 -0.08774309 0 0 0 0
-0.00050636 -0.08468655 -0.10000000 0 0 0 0
0.03023379 -0.01223866 -0.10000000 0 0 0 0
-0.01322093 0.02565000 0.10000000 0 0 0 0
-0.08925359 0.04411686 0.05256491 0 0 0 0
-0.08454257 0.04906992 -0.10000000 0 0 0 0
0.02217701 -0.01621931 -0.10000000 0 0 0 0
0.07763054 -0.03331573 -0.10000000 0 0 0 0
-0.09926058 -0.01024396 -0.06174483 0 0 0 0
0.03072595 0.01106409 0.10000000 0 0 0 0
0.04039531 0.05524079 -0.10000000 0 0 0 0
0.09897281 0.01369110 0.08591335 0 0 0 0
0.08318399 -0.01042439 -0.10000000 0 0 0 0
-0.02518537 -0.00575050 0.10000000 0 0 0 0
-0.02436582 -0.09666272 0.03279123 0 0 0 0
0.00749974 -0.06015472 0.10000000 0 0 0 0
-0.06113491 -0.07867732 -0.02055736 0 0 0 0
-0.03456539 -0.07797863 -0.10000000 0 0 0 0
0.00446620 -0.07940340 -0.10000000 0 0 0 0
-0.07800807 0.00691177 -0.10000000 0 0 0 0
0.00775993 -0.00328804 -0.10000000 0 0 0 0
0.00643452 0.04857114 0.10000000 0 0 0 0
-0.06539524 0.04387413 -0.10000000 0 0 0 0
-0.00308609 -0.09954471 -0.01022445 0 0 0 0
-0.06803216 -0.06352647 -0.10000000 0 0 0 0
0.02147845 -0.09727107 -0.05508819 0 0 0 0
-0.04232560 -0.05144726 -0.10000000 0 0 0 0
-0.00220627 0.01091145 -0.10000000 0 0 0 0
0.07768584 -0.02170848 0.10000000 0 0 0 0
0.09661272 0.02431540 0.08019863 0 0 0 0
-0.01576697 0.04408957 -0.10000000 0 0 0 0
0.00659247 0.09273481 -0.10000000 0 0 0 0
-0.03294969 -0.09394094 -0.09524591 0 0 0 0
0.01209274 0.00321364 -0.10000000 0 0 0 0
0.04215833 0.04218124 -0.10000000 0 0 0 0
-0.02769225 0.02455569 -0.10000000 0 0 0 0
-0.04827773 -0.03403648 0.10000000 0 0 0 0
-0.03832386 -0.03120451 -0.10000000 0 0 0 0
-0.01186941 0.09909640 0.09379120 0 0 0 0
-0.00564833 0.07837783 -0.10000000 0 0 0 0
0.05933341 0.00783157 -0.10000000 0 0 0 0
-0.02876469 0.02938920 -0.10000000 0 0 0 0
0.00525251 0.00023524 -0.10000000 0 0 0 0
-0.07334153 0.06753746 -0.01950387 0 0 0 0
-0.06353931 -0.07663042 0.09300739 0 0 0 0
-0.03123033 0.06326277 -0.10000000 0 0 0 0
-0.08904135 -0.04452369 -0.07682885 0 0 0 0
-0.03127452 -0.01499042 -0.10000000 0 0 0 0
0.09729771 -0.02185079 0.04290980 0 0 0 0
-0.00077864 -0.00059620 -0.10000000 0 0 0 0
-0.07098310 -0.07029343 -0.06308701 0 0 0 0
0.04053692 0.04085108 0.10000000 0 0 0 0
-0.01789071 -0.00261242 0.10000000 0 0 0 0
0.09540222 0.02933489 0.00911487 0 0 0 0
-0.03099832 -0.02136964 -0.10000000 0 0 0 0
0.01763483 0.09827898 -0.07694280 0 0 0 0
-0.09048188 0.04150402 -0.05964990 0 0 0 0
-0.09540393 0.02896741 0.09739187 0 0 0 0
-0.04197311 0.09039300 -0.05330314 0 0 0 0
0.01135652 -0.00576639 -0.10000000 0 0 0 0
0.07859755 0.05702825 -0.10000000 0 0 0 0
0.02274905 -0.06857002 0.10000000 0 0 0 0
0.07864759 0.06123460 -0.06650904 0 0 0 0
0.00468168 -0.00837536 0.10000000 0 0 0 0
0.05545742 0.08281397 -0.09496462 0 0 0 0
0.09213598 0.03784749 0.03739201 0 0 0 0
0.00307978 0.02099720 -0.10000000 0 0 0 0
-0.01975132 -0.09772398 0.06551445 0 0 0 0
-0.09079929 0.00879128 0.10000000 0 0 0 0
-0.09923637 0.00791585 -0.05222743 0 0 0 0
-0.09805959 0.01713825 -0.00076184 0 0 0 0
-0.07274726 -0.06842423 -0.04465875 0 0 0 0
-0.02717240 0.02136438 -0.10000000 0 0 0 0
-0.06236839 0.07762724 -0.04992180 0 0 0 0
-0.08885030 -0.04544475 -0.02346202 0 0 0 0
-0.06953694 -0.05335700 0.10000000 0 0 0 0
-0.06609549 -0.00047953 0.10000000 0 0 0 0
0.00833850 0.09928675 0.03959424 0 0 0 0
0.07857564 0.06133775 0.04890193 0 0 0 0
-0.09599440 0.02639871 -0.06742781 0 0 0 0
-0.09350312 0.03413255 -0.00395664 0 0 0 0
0.01802056 -0.02044687 0.10000000 0 0 0 0
0.02542320 0.09643991 0.09236623 0 0 0 0
-0.09273798 -0.03621168 -0.09026037 0 0 0 0
0.03168008 0.03312346 -0.10000000 0 0 0 0
0.06365157 -0.05815887 -0.10000000 0 0 0 0
-0.09454659 0.03127687 -0.03026387 0 0 0 0
-0.06356935 0.06168231 -0.10000000 0 0 0 0
-0.07703774 -0.06119053 0.10000000 0 0 0 0
-0.07635349 -0.00703326 -0.10000000 0 0 0 0
0.05223530 0.08037670 0.10000000 0 0 0 0
-0.00177885 0.01826717 -0.10000000 0 0 0 0
0.00700530 0.00078042 -0.10000000 0 0 0 0
-0.03045957 -0.04753867 -0.10000000 0 0 0 0
0.05428945 0.00770583 -0.10000000 0 0 0 0
-0.05307931 -0.03440008 0.10000000 0 0 0 0
0.03554670 -0.07034998 -0.10000000 0 0 0 0
0.01263016 0.03250971 -0.10000000 0 0 0 0
0.03654873 -0.01474996 -0.10000000 0 0 0 0
-0.04438217 0.07637943 -0.10000000 0 0 0 0
-0.02497556 0.02044593 -0.10000000 0 0 0 0
0.01341343 0.00357152 -0.10000000 0 0 0 0
0.09566900 0.02824714 -0.05281357 0 0 0 0
0.04174491 -0.09048539 -0.03894970 0 0 0 0
0.09338926 -0.03444193 0.01952211 0 0 0 0
-0.05990370 0.02421639 -0.10000000 0 0 0 0
0.01726500 -0.05907908 -0.10000000 0 0 0 0
-0.00819598 -0.01452633 -0.10000000 0 0 0 0
-0.09700698 0.02364908 -0.08378766 0 0 0 0
0.07578726 -0.06516890 -0.07654502 0 0 0 0
0.00628793 0.09933914 0.06633780 0 0 0 0
0.00369342 -0.01242068 -0.10000000 0 0 0 0
0.03640172 0.09264861 -0.07034599 0 0 0 0
-0.02515922 -0.03539880 0.10000000 0 0 0 0
-0.09914277 0.01043841 -0.00140396 0 0 0 0
-0.07816588 -0.06192517 0.00575980 0 0 0 0
-0.00435621 0.00919727 -0.10000000 0 0 0 0
0.06488198 -0.07578024 -0.09597750 0 0 0 0
-0.09824476 -0.01819496 -0.02850782 0 0 0 0
0.06480836 -0.01759648 0.10000000 0 0 0 0
-0.05102043 0.01708887 0.10000000 0 0 0 0
-0.05147223 0.08526313 -0.07917698 0 0 0 0
0.08949663 -0.04365099 -0.01585489 0 0 0 0
-0.09201697 -0.03882000 -0.06508939 0 0 0 0
-0.01031523 0.03933276 0.10000000 0 0 0 0
0.06244961 -0.07808570 0.07916248 0 0 0 0
0.09394528 -0.03330291 -0.05695428 0 0 0 0
-0.01407601 -0.03620331 -0.10000000 0 0 0 0
0.06510880 -0.00927274 -0.10000000 0 0 0 0
0.09949984 -0.00278277 0.01865464 0 0 0 0
-0.06128935 0.07887290 0.05692670 0 0 0 0
0.03993156 -0.09121953 0.05624053 0 0 0 0
0.07674566 -0.06396116 -0.03203840 0 0 0 0
-0.03801963 -0.09225760 -0.08898477 0 0 0 0
0.09900059 -0.01035997 0.04081500 0 0 0 0
-0.03849231 0.08600724 -0.10000000 0 0 0 0
-0.06336389 0.03545572 0.10000000 0 0 0 0
-0.03879664 0.09199962 -0.03784870 0 0 0 0
-0.04428721 0.07569505 -0.10000000 0 0 0 0
0.07536080 0.05903389 0.10000000 0 0 0 0
-0.07974041 -0.00125200 0.10000000 0 0 0 0
0.03932381 0.09154139 0.04232962 0 0 0 0
0.03633697 0.02080426 -0.10000000 0 0 0 0
-0.07641388 -0.04290098 0.10000000 0 0 0 0
-0.01854362 -0.04916518 -0.10000000 0 0 0 0
0.06716610 0.00498196 -0.10000000 0 0 0 0
-0.07258492 -0.01350175 -0.10000000 0 0 0 0
-0.05313081 0.08431552 -0.03696262 0 0 0 0
-0.00316318 -0.02991029 -0.10000000 0 0 0 0
-0.09204987 0.00012407 0.10000000 0 0 0 0
-0.08702275 -0.04839297 0.05388798 0 0 0 0
0.04532282 0.00852804 0.10000000 0 0 0 0
-0.04774130 -0.08735083 0.02293797 0 0 0 0
0.02092870 0.01702474 -0.10000000 0 0 0 0
0.01729891 0.00606271 -0.10000000 0 0 0 0
-0.02034728 -0.09424555 0.10000000 0 0 0 0
0.01994508 0.09767316 0.02332682 0 0 0 0
-0.06725519 -0.07400016 0.05151385 0 0 0 0
0.01945322 -0.00699028 -0.10000000 0 0 0 0
-0.02390886 -0.00953385 -0.10000000 0 0 0 0
0.01884255 0.09773837 -0.02474054 0 0 0 0
-0.04463086 0.08931700 0.05846980 0 0 0 0
0.01091886 0.00474819 -0.10000000 0 0 0 0
-0.04492532 -0.08893676 0.08673964 0 0 0 0
-0.06956144 -0.06093016 -0.10000000 0 0 0 0
-0.04243462 -0.00177834 -0.10000000 0 0 0 0
0.01059979 0.00176638 -0.10000000 0 0 0 0
0.02160702 0.03672842 0.10000000 0 0 0 0
-0.09906773 0.00966392 -0.09859465 0 0 0 0
0.06568763 0.04396293 -0.10000000 0 0 0 0
-0.09146827 -0.03966188 0.03289152 0 0 0 0
0.09432625 0.03201927 0.08121304 0 0 0 0
-0.09939923 -0.00592004 0.06223544 0 0 0 0
0.09348796 -0.03417371 0.01266660 0 0 0 0
0.02646844 0.01502776 0.10000000 0 0 0 0
0.00748284 -0.00729888 -0.10000000 0 0 0 0
-0.02367935 -0.06991796 -0.10000000 0 0 0 0
-0.08557591 -0.03853128 -0.10000000 0 0 0 0
0.06278402 0.01040031 -0.10000000 0 0 0 0
0.09157036 -0.03904514 0.00467917 0 0 0 0
-0.07675481 0.05773023 -0.10000000 0 0 0 0
0.04270304 -0.05167000 -0.10000000 0 0 0 0
-0.00930240 0.05438455 -0.10000000 0 0 0 0
0.08740511 -0.04766006 -0.03983244 0 0 0 0
-0.02757886 -0.08708122 0.10000000 0 0 0 0
0.00069420 -0.03054431 -0.10000000 0 0 0 0
0.02479002 0.04197212 0.10000000 0 0 0 0
0.07469809 0.05988266 -0.10000000 0 0 0 0
