ply
format ascii 1.0
comment https://github.com/mikedh/trimesh
element vertex 1122
property float x
property float y
property float z
property uchar red
property uchar green
property uchar blue
property uchar alpha
end_header
0.09596147 0.01075140 -0.01063976 0 0 0 0
-0.00180104 0.01589298 -0.10000000 0 0 0 0
-0.01661890 0.06143794 -0.10000000 0 0 0 0
-0.02513027 0.00896374 0.10000000 0 0 0 0
0.01841612 -0.00311870 0.10000000 0 0 0 0
0.03219480 -0.08288620 0.09444068 0 0 0 0
0.07584272 0.04099690 0.02636223 0 0 0 0
0.00895544 -0.04200510 -0.10000000 0 0 0 0
-0.00564782 0.09805140 0.07997165 0 0 0 0
-0.04544564 0.07227334 -0.00165103 0 0 0 0
0.05619734 -0.06227521 -0.00004961 0 0 0 0
0.05838775 -0.06032904 -0.05311973 0 0 0 0
0.00661782 -0.07656361 0.10000000 0 0 0 0
0.07154103 -0.04609584 0.06215678 0 0 0 0
-0.01787659 -0.03683514 -0.10000000 0 0 0 0
-0.03902357 -0.07760944 0.01304293 0 0 0 0
0.09904538 -0.00320414 0.09722618 0 0 0 0
0.00508911 -0.00393846 -0.10000000 0 0 0 0
-0.07031763 0.04755596 -0.05180467 0 0 0 0
0.06059123 0.05829545 -0.00731257 0 0 0 0
0.07786643 -0.03181837 -0.10000000 0 0 0 0
0.00807591 -0.00736192 0.10000000 0 0 0 0
-0.04491581 0.00939553 -0.10000000 0 0 0 0
0.04321774 -0.00934557 -0.10000000 0 0 0 0
-0.04042596 0.07639734 0.09227906 0 0 0 0
-0.07621668 0.04051702 -0.07781546 0 0 0 0
0.08307566 -0.03151207 -0.07556497 0 0 0 0
0.01061919 0.02293918 -0.10000000 0 0 0 0
0.09482219 0.00868729 -0.10000000 0 0 0 0
-0.00594731 0.03120221 0.10000000 0 0 0 0
0.08838457 0.02379686 0.06246458 0 0 0 0
-0.01047534 0.09597207 0.01225870 0 0 0 0
-0.06910896 -0.04900224 0.03849394 0 0 0 0
-0.06473784 -0.05371130 -0.02308366 0 0 0 0
0.02294366 -0.07794354 -0.10000000 0 0 0 0
-0.03954737 -0.01083118 0.10000000 0 0 0 0
0.00624683 -0.04365271 -0.10000000 0 0 0 0
0.05735756 0.06135031 0.02072177 0 0 0 0
-0.05610536 0.05005455 -0.10000000 0 0 0 0
-0.00022366 -0.03441595 -0.10000000 0 0 0 0
0.07712940 -0.03711189 0.10000000 0 0 0 0
-0.01604265 -0.06198845 -0.10000000 0 0 0 0
-0.00005035 0.00474807 0.10000000 0 0 0 0
-0.02643563 0.01810347 -0.10000000 0 0 0 0
0.02095477 -0.00189951 -0.10000000 0 0 0 0
0.01361665 -0.05918587 -0.10000000 0 0 0 0
-0.09648253 -0.00947621 -0.07849196 0 0 0 0
-0.02262701 -0.07373442 -0.10000000 0 0 0 0
0.09326671 0.01600564 -0.04742355 0 0 0 0
0.08524847 0.02892752 0.01372349 0 0 0 0
-0.06351181 0.05508370 0.06525137 0 0 0 0
-0.09889673 -0.00334899 -0.04849210 0 0 0 0
-0.02754641 -0.08609354 -0.08644260 0 0 0 0
0.00900179 0.00856071 -0.10000000 0 0 0 0
0.01163083 0.09537692 0.03582428 0 0 0 0
0.09207489 0.01780862 0.04455018 0 0 0 0
0.04245988 0.03941651 -0.10000000 0 0 0 0
0.09566630 0.01102156 0.01294867 0 0 0 0
0.08582322 -0.02808047 0.09939616 0 0 0 0
0.09393110 0.01462568 -0.03082953 0 0 0 0
0.00850504 0.00578090 -0.10000000 0 0 0 0
0.01186106 0.07226926 0.10000000 0 0 0 0
0.05347376 0.06511994 0.09145477 0 0 0 0
0.01215232 -0.06378866 -0.10000000 0 0 0 0
0.06191525 -0.05656848 0.08085013 0 0 0 0
0.07599668 -0.04079933 -0.06803486 0 0 0 0
0.00989029 0.02938465 -0.10000000 0 0 0 0
0.09669723 0.00895076 -0.07653848 0 0 0 0
0.05409385 -0.03154572 -0.10000000 0 0 0 0
0.04261040 -0.07477610 0.07443643 0 0 0 0
-0.03066033 0.01406887 -0.10000000 0 0 0 0
-0.00656988 -0.08409091 -0.10000000 0 0 0 0
0.02110790 -0.00184587 -0.10000000 0 0 0 0
0.02916640 0.08494273 0.05161595 0 0 0 0
-0.07447121 -0.04258583 -0.02990504 0 0 0 0
-0.06144891 -0.00221355 -0.10000000 0 0 0 0
-0.02639572 0.08695804 -0.09785199 0 0 0 0
0.03504636 0.08058382 -0.04419342 0 0 0 0
-0.07397847 -0.04336737 -0.06324225 0 0 0 0
0.05765325 -0.06104008 -0.01726313 0 0 0 0
-0.02856510 -0.06497454 -0.10000000 0 0 0 0
0.03120794 0.08364070 0.07318907 0 0 0 0
0.00320419 -0.01563284 0.10000000 0 0 0 0
0.03993341 0.00641094 -0.10000000 0 0 0 0
0.02741831 0.08618978 0.02661664 0 0 0 0
-0.04459079 0.06939583 0.10000000 0 0 0 0
0.03322608 -0.02316364 0.10000000 0 0 0 0
-0.01426404 -0.09427197 0.08976005 0 0 0 0
0.08805924 0.02440505 0.08006366 0 0 0 0
0.01345945 0.09454968 0.09251341 0 0 0 0
0.02606186 0.04534861 -0.10000000 0 0 0 0
0.07604363 0.04073909 0.06844433 0 0 0 0
-0.04546068 0.07204576 -0.09042973 0 0 0 0
0.03536419 0.08022011 -0.05224160 0 0 0 0
0.03236891 -0.04841438 -0.10000000 0 0 0 0
0.03235086 -0.08276019 -0.00416851 0 0 0 0
0.07625236 0.04082199 -0.05211446 0 0 0 0
0.00438026 -0.00526296 0.10000000 0 0 0 0
-0.09758367 0.00678140 -0.00348243 0 0 0 0
0.00854582 -0.02806193 0.10000000 0 0 0 0
0.01963112 0.09098087 -0.02335746 0 0 0 0
0.06079017 0.03600353 -0.10000000 0 0 0 0
0.05752023 0.03403496 -0.10000000 0 0 0 0
-0.05310174 0.06520750 0.07146738 0 0 0 0
-0.04635812 -0.05550550 0.10000000 0 0 0 0
-0.00439731 -0.03172989 -0.10000000 0 0 0 0
0.00681456 0.00940911 -0.10000000 0 0 0 0
-0.04817589 -0.06969896 0.01434010 0 0 0 0
-0.05951042 0.04935191 -0.10000000 0 0 0 0
0.00181146 0.00536533 -0.10000000 0 0 0 0
-0.07132950 -0.02891539 -0.10000000 0 0 0 0
0.02427183 0.01446860 -0.10000000 0 0 0 0
-0.02099898 0.05436403 0.10000000 0 0 0 0
-0.07530107 -0.01130027 -0.10000000 0 0 0 0
0.03398151 -0.08144359 0.05394695 0 0 0 0
-0.03107263 -0.01241234 0.10000000 0 0 0 0
-0.05050529 -0.06768563 -0.08386084 0 0 0 0
0.04299163 0.07416873 -0.06887560 0 0 0 0
0.03120285 -0.08364394 -0.04545080 0 0 0 0
0.05663377 -0.06210970 0.09271530 0 0 0 0
-0.00138071 0.05795071 -0.10000000 0 0 0 0
-0.00051655 -0.01693303 -0.10000000 0 0 0 0
-0.02364944 0.01045902 -0.10000000 0 0 0 0
0.04888121 0.06910264 -0.02985207 0 0 0 0
0.05179851 0.06660430 0.00570079 0 0 0 0
-0.06455289 -0.05391832 -0.05316179 0 0 0 0
0.01706592 -0.07490034 0.10000000 0 0 0 0
0.00244395 -0.01869236 0.10000000 0 0 0 0
-0.06038461 0.05815433 0.02439722 0 0 0 0
0.09863537 -0.00485466 0.01404812 0 0 0 0
0.00497705 -0.01564175 -0.10000000 0 0 0 0
-0.07082592 -0.04161416 0.10000000 0 0 0 0
0.04023943 -0.03494311 -0.10000000 0 0 0 0
-0.05445700 0.06398796 0.00618318 0 0 0 0
0.05616153 -0.01365423 -0.10000000 0 0 0 0
0.05571358 -0.06275131 0.07408465 0 0 0 0
-0.03613526 0.07990466 -0.09075379 0 0 0 0
0.02576854 -0.05831603 -0.10000000 0 0 0 0
0.03067822 -0.03570614 -0.10000000 0 0 0 0
0.00094024 -0.03029436 -0.10000000 0 0 0 0
0.00104380 -0.01518643 0.10000000 0 0 0 0
0.02947432 -0.01731054 0.10000000 0 0 0 0
0.00397177 -0.01370823 -0.10000000 0 0 0 0
0.01146862 0.09546047 -0.06096356 0 0 0 0
-0.04749207 -0.07053503 -0.09166287 0 0 0 0
0.00746800 -0.01493236 -0.10000000 0 0 0 0
0.03515444 0.03652059 -0.10000000 0 0 0 0
-0.04458513 0.05395918 -0.10000000 0 0 0 0
0.08164319 0.03390971 0.09575680 0 0 0 0
-0.02963404 -0.08452512 0.01939788 0 0 0 0
0.09253867 -0.01704205 -0.00041568 0 0 0 0
0.01811038 0.09203961 -0.07462137 0 0 0 0
0.01194128 -0.06120553 0.10000000 0 0 0 0
-0.00648417 0.00674791 -0.10000000 0 0 0 0
-0.05164032 0.05423848 -0.10000000 0 0 0 0
0.02064483 -0.00137960 -0.10000000 0 0 0 0
0.09478134 0.01335570 0.03433564 0 0 0 0
-0.06495972 0.05337428 0.04176531 0 0 0 0
-0.04388699 0.04533277 -0.10000000 0 0 0 0
0.00706163 0.00040014 0.10000000 0 0 0 0
-0.00120629 0.04044452 -0.10000000 0 0 0 0
0.08659150 -0.02648666 0.01351588 0 0 0 0
-0.01838089 0.09170382 -0.06201462 0 0 0 0
0.01162177 -0.07423876 -0.10000000 0 0 0 0
0.01817184 0.00980797 0.10000000 0 0 0 0
-0.01176409 0.09538717 0.07071324 0 0 0 0
0.08961952 0.02184035 -0.03812483 0 0 0 0
0.00912284 -0.02180555 0.10000000 0 0 0 0
0.03004456 -0.08413809 0.08262491 0 0 0 0
0.06651632 0.04995102 0.10000000 0 0 0 0
-0.00247336 0.03785030 -0.10000000 0 0 0 0
0.03034965 -0.06548001 -0.10000000 0 0 0 0
0.00613381 -0.06096502 0.10000000 0 0 0 0
0.02822555 -0.00705865 -0.10000000 0 0 0 0
-0.00369581 0.01400718 -0.10000000 0 0 0 0
0.08469553 -0.02933083 -0.03959531 0 0 0 0
-0.03384075 -0.08155724 0.07497819 0 0 0 0
-0.05804310 -0.02047590 -0.10000000 0 0 0 0
-0.03735705 0.07872289 -0.00425231 0 0 0 0
0.07276508 0.04494608 -0.05642275 0 0 0 0
-0.07243124 -0.01530008 0.10000000 0 0 0 0
0.07692039 0.04002266 0.05363793 0 0 0 0
0.09026843 -0.00253539 0.10000000 0 0 0 0
-0.01328252 -0.03464622 -0.10000000 0 0 0 0
0.01097813 -0.01835313 -0.10000000 0 0 0 0
-0.03958771 -0.07704702 0.03483249 0 0 0 0
0.00711616 0.00343034 -0.10000000 0 0 0 0
-0.03697460 0.01099973 -0.10000000 0 0 0 0
0.01702024 -0.01200979 0.10000000 0 0 0 0
-0.00802871 -0.08137576 -0.10000000 0 0 0 0
0.00492251 -0.00167430 -0.10000000 0 0 0 0
-0.02645712 0.08663159 -0.05356148 0 0 0 0
0.06939490 -0.04849819 -0.04389430 0 0 0 0
0.09752180 0.00716759 -0.09559882 0 0 0 0
0.01308242 -0.00192701 -0.10000000 0 0 0 0
0.01215688 -0.06420516 -0.10000000 0 0 0 0
-0.05019370 -0.01189761 -0.10000000 0 0 0 0
-0.09490985 -0.01314446 -0.08861117 0 0 0 0
-0.04670597 0.04296535 0.10000000 0 0 0 0
-0.06068133 -0.05821230 -0.02015864 0 0 0 0
-0.09923758 0.00143473 -0.01748257 0 0 0 0
0.07734462 -0.03943609 -0.04031015 0 0 0 0
0.00727437 0.04149006 -0.10000000 0 0 0 0
0.02825878 0.07837036 -0.10000000 0 0 0 0
-0.07654615 0.04009425 0.02265521 0 0 0 0
0.05360675 0.04304934 -0.10000000 0 0 0 0
-0.04412086 -0.06388233 -0.10000000 0 0 0 0
-0.04105630 -0.00299170 -0.10000000 0 0 0 0
-0.00432924 0.00549903 -0.10000000 0 0 0 0
0.02463545 -0.01681095 0.10000000 0 0 0 0
-0.01673961 0.09274564 -0.04847563 0 0 0 0
-0.01022824 0.08726455 -0.10000000 0 0 0 0
-0.02481873 0.00873045 0.10000000 0 0 0 0
-0.05882577 0.05980990 0.00525707 0 0 0 0
0.04580685 -0.03199258 -0.10000000 0 0 0 0
0.06543684 0.04086117 -0.10000000 0 0 0 0
0.01684322 -0.00022562 -0.10000000 0 0 0 0
-0.00556282 -0.01052811 -0.10000000 0 0 0 0
-0.04803118 0.02079662 0.10000000 0 0 0 0
-0.00546350 0.09832497 -0.09407964 0 0 0 0
-0.05552646 -0.06293546 -0.03639263 0 0 0 0
-0.08375350 0.03074399 0.03616140 0 0 0 0
0.01374725 -0.02213495 -0.10000000 0 0 0 0
0.00290842 -0.01083259 -0.10000000 0 0 0 0
-0.07206324 0.02578621 0.10000000 0 0 0 0
0.08989234 0.02153501 0.04289314 0 0 0 0
0.01615425 -0.09324145 -0.04315358 0 0 0 0
-0.04148621 0.06826283 -0.10000000 0 0 0 0
-0.06622444 -0.05240708 0.09028584 0 0 0 0
0.00630170 0.00508842 -0.10000000 0 0 0 0
-0.06028945 -0.05857396 -0.01392527 0 0 0 0
0.09626976 0.00976816 -0.04707843 0 0 0 0
0.09886610 0.00364290 0.05663311 0 0 0 0
0.00223234 0.02811848 -0.10000000 0 0 0 0
-0.00975360 -0.00508188 -0.10000000 0 0 0 0
-0.00913318 0.09676582 -0.07554436 0 0 0 0
0.00009528 -0.02872432 -0.10000000 0 0 0 0
0.08629610 -0.02730317 -0.07279424 0 0 0 0
-0.06928048 -0.03220201 -0.10000000 0 0 0 0
-0.03270006 -0.08247825 0.01217820 0 0 0 0
0.02774149 -0.08594698 -0.01663972 0 0 0 0
0.00458515 0.03707630 0.10000000 0 0 0 0
0.00200671 0.09939443 0.04370345 0 0 0 0
-0.03313105 0.08213027 -0.06576435 0 0 0 0
0.06553519 -0.05277051 -0.00384981 0 0 0 0
-0.01739570 -0.01160307 0.10000000 0 0 0 0
0.00025669 0.07630493 -0.10000000 0 0 0 0
-0.00012058 0.01083974 0.10000000 0 0 0 0
0.02961439 -0.01579736 -0.10000000 0 0 0 0
-0.00940923 0.09666400 -0.06056991 0 0 0 0
-0.04497640 -0.07246433 -0.01547524 0 0 0 0
-0.08503526 0.02880262 -0.07693468 0 0 0 0
-0.04046252 -0.07621075 -0.03486709 0 0 0 0
0.08402140 0.02751179 -0.10000000 0 0 0 0
-0.09890103 0.00355740 -0.04338008 0 0 0 0
-0.03621543 -0.07984893 0.02796673 0 0 0 0
-0.06432709 0.05417108 -0.09714798 0 0 0 0
0.03901318 0.01979323 0.10000000 0 0 0 0
-0.04516149 0.01222103 -0.10000000 0 0 0 0
0.02909962 0.02259281 -0.10000000 0 0 0 0
0.02347684 -0.08870308 0.00503206 0 0 0 0
0.02308538 -0.08897516 -0.02358376 0 0 0 0
0.00051689 -0.09593874 0.10000000 0 0 0 0
0.01931215 -0.01681002 -0.10000000 0 0 0 0
-0.05420898 0.06448447 0.09596656 0 0 0 0
-0.00271005 -0.05572388 -0.10000000 0 0 0 0
0.05929261 -0.05949395 -0.06837134 0 0 0 0
0.00744219 -0.09753430 -0.00497115 0 0 0 0
-0.01248586 0.03534120 -0.10000000 0 0 0 0
0.07502688 0.00442915 -0.10000000 0 0 0 0
0.03632054 -0.03670184 0.10000000 0 0 0 0
0.03251042 -0.00772372 0.10000000 0 0 0 0
-0.03994213 0.06942051 0.10000000 0 0 0 0
0.04637272 0.06695606 -0.10000000 0 0 0 0
0.03153972 0.02741820 -0.10000000 0 0 0 0
-0.01582955 -0.00028978 -0.10000000 0 0 0 0
0.00944329 0.00246299 0.10000000 0 0 0 0
0.04414808 -0.01973318 -0.10000000 0 0 0 0
-0.08076327 -0.03470928 -0.06163695 0 0 0 0
0.03323168 0.07806058 0.10000000 0 0 0 0
-0.09129293 0.01908972 -0.01408927 0 0 0 0
0.02239048 -0.00313500 -0.10000000 0 0 0 0
-0.03988846 0.01481235 -0.10000000 0 0 0 0
0.09849993 0.00453903 -0.04806832 0 0 0 0
-0.02740094 0.08606867 0.01100573 0 0 0 0
-0.01981951 -0.05945061 -0.10000000 0 0 0 0
0.01916414 -0.01440248 0.10000000 0 0 0 0
0.03868008 -0.07764991 0.06712078 0 0 0 0
0.00198993 -0.01101683 -0.10000000 0 0 0 0
-0.06836545 -0.04989191 -0.09063514 0 0 0 0
0.04042540 -0.01644503 -0.10000000 0 0 0 0
0.06708626 0.01810406 0.10000000 0 0 0 0
-0.09907517 0.00252713 -0.03829040 0 0 0 0
0.00291490 -0.00991457 -0.10000000 0 0 0 0
0.03084412 -0.06861801 -0.10000000 0 0 0 0
0.07874747 0.03749644 0.00519388 0 0 0 0
-0.03479244 0.02012915 -0.10000000 0 0 0 0
0.09522291 0.01255890 -0.00616805 0 0 0 0
-0.06265889 0.05578826 -0.04866333 0 0 0 0
-0.03980460 -0.07693439 0.03196739 0 0 0 0
-0.01571459 -0.06126914 0.10000000 0 0 0 0
-0.08509589 0.00796971 0.10000000 0 0 0 0
-0.07157078 0.00294547 -0.10000000 0 0 0 0
0.09300478 0.01654971 -0.00858724 0 0 0 0
-0.00197114 -0.09924933 0.02737496 0 0 0 0
-0.05853594 -0.05997369 0.06184886 0 0 0 0
-0.00032551 0.00828298 0.10000000 0 0 0 0
-0.04855042 0.06297691 0.10000000 0 0 0 0
-0.00115150 0.04246670 -0.10000000 0 0 0 0
-0.03845697 0.00035031 -0.10000000 0 0 0 0
0.09955581 -0.00070583 0.09728023 0 0 0 0
-0.03932002 -0.05938428 -0.10000000 0 0 0 0
-0.05472431 0.06371004 -0.01840926 0 0 0 0
0.02834728 -0.01363657 -0.10000000 0 0 0 0
0.05401700 -0.00442448 -0.10000000 0 0 0 0
0.05397437 -0.06440216 0.02863759 0 0 0 0
0.07061475 -0.01533679 -0.10000000 0 0 0 0
-0.05472145 0.00156540 -0.10000000 0 0 0 0
-0.00792960 0.09728326 -0.06279156 0 0 0 0
0.01246400 0.03063683 0.10000000 0 0 0 0
0.06985016 -0.04009195 -0.10000000 0 0 0 0
-0.05836407 -0.06035089 -0.06888308 0 0 0 0
0.02137562 0.04036864 -0.10000000 0 0 0 0
0.08909982 -0.01890063 0.10000000 0 0 0 0
0.07244162 -0.04508772 0.06793516 0 0 0 0
-0.06963439 -0.04846971 0.05879088 0 0 0 0
-0.03408717 -0.07341466 -0.10000000 0 0 0 0
0.04104416 0.07586302 -0.03382028 0 0 0 0
0.03012841 -0.08407981 0.06256547 0 0 0 0
0.07733279 -0.03945245 0.01913075 0 0 0 0
0.03704593 -0.05488595 -0.10000000 0 0 0 0
0.08235803 0.03283736 -0.01727816 0 0 0 0
-0.06440612 0.05419658 -0.04487735 0 0 0 0
0.03727430 0.00852617 0.10000000 0 0 0 0
0.00103094 -0.09930767 -0.01566875 0 0 0 0
0.09970150 -0.00090609 -0.04793262 0 0 0 0
-0.03063549 -0.08377273 -0.07634973 0 0 0 0
0.02020023 0.02452354 -0.10000000 0 0 0 0
0.09256342 0.01700137 -0.02005060 0 0 0 0
0.09937714 -0.00049592 0.00264977 0 0 0 0
0.02182609 0.04463103 -0.10000000 0 0 0 0
-0.02788467 -0.01800865 -0.10000000 0 0 0 0
0.00884387 0.09681236 0.00770415 0 0 0 0
-0.03190860 -0.01087492 0.10000000 0 0 0 0
0.07628480 -0.04041572 0.06033120 0 0 0 0
0.00393105 -0.00855523 -0.10000000 0 0 0 0
-0.05961372 -0.00386934 -0.10000000 0 0 0 0
0.01702908 0.02482904 -0.10000000 0 0 0 0
0.02032785 0.02392326 0.10000000 0 0 0 0
0.00368180 -0.01050645 -0.10000000 0 0 0 0
0.07483998 -0.01383228 -0.10000000 0 0 0 0
0.07107086 0.04696259 -0.07592098 0 0 0 0
0.06430911 0.05429205 0.05236662 0 0 0 0
-0.02202027 -0.00474009 -0.10000000 0 0 0 0
0.02847966 0.08538070 0.02454903 0 0 0 0
0.07866853 -0.03756337 0.01419780 0 0 0 0
0.07785963 -0.03872401 0.08788233 0 0 0 0
-0.02779495 -0.04985901 -0.10000000 0 0 0 0
0.00127171 -0.00713119 0.10000000 0 0 0 0
0.06382973 0.05455984 0.09244104 0 0 0 0
-0.07755473 0.00516805 0.10000000 0 0 0 0
-0.00942829 -0.02758112 0.10000000 0 0 0 0
-0.09002362 -0.02133808 -0.02880937 0 0 0 0
-0.01306376 0.01555373 -0.10000000 0 0 0 0
0.04764802 0.07015522 -0.00230298 0 0 0 0
-0.00081689 0.00759010 -0.10000000 0 0 0 0
-0.08968212 0.00634518 0.10000000 0 0 0 0
-0.01900312 0.09142453 -0.01041118 0 0 0 0
0.03109046 -0.01884099 -0.10000000 0 0 0 0
0.04639919 0.04362417 -0.10000000 0 0 0 0
0.05184179 -0.00723341 -0.10000000 0 0 0 0
-0.01881172 0.00738875 -0.10000000 0 0 0 0
0.01781354 0.03026094 -0.10000000 0 0 0 0
-0.04707912 0.01951415 -0.10000000 0 0 0 0
0.02062227 -0.03132848 0.10000000 0 0 0 0
0.00718774 -0.09709947 -0.10000000 0 0 0 0
0.03213517 -0.05545392 0.10000000 0 0 0 0
-0.09937184 -0.00240521 -0.00636505 0 0 0 0
0.06588300 0.01300868 -0.10000000 0 0 0 0
-0.00933366 0.01289186 -0.10000000 0 0 0 0
-0.03224863 -0.04994331 -0.10000000 0 0 0 0
-0.00500723 0.00394022 -0.10000000 0 0 0 0
-0.03817379 -0.05182017 -0.10000000 0 0 0 0
-0.02969291 0.03396361 -0.10000000 0 0 0 0
-0.05741401 -0.00261279 -0.10000000 0 0 0 0
0.06306005 -0.05192025 0.10000000 0 0 0 0
0.00450104 -0.02373067 0.10000000 0 0 0 0
-0.00031055 -0.02756104 -0.10000000 0 0 0 0
0.05342643 0.06500219 0.02403134 0 0 0 0
-0.08911474 -0.02316213 0.06391276 0 0 0 0
-0.00943513 0.04705388 -0.10000000 0 0 0 0
0.07335506 -0.04392140 0.00093076 0 0 0 0
-0.01649453 -0.01302959 0.10000000 0 0 0 0
0.01102574 0.09571654 0.06487564 0 0 0 0
-0.00650513 -0.00351278 -0.10000000 0 0 0 0
-0.08402552 -0.00189695 -0.10000000 0 0 0 0
-0.01733335 0.05240443 0.10000000 0 0 0 0
0.08714066 0.02591493 -0.08963088 0 0 0 0
0.01013179 0.00681702 -0.10000000 0 0 0 0
-0.03171418 0.01467122 -0.10000000 0 0 0 0
-0.04484769 0.00465362 0.10000000 0 0 0 0
-0.02210446 -0.00029664 -0.10000000 0 0 0 0
-0.02307183 0.08898459 0.09723501 0 0 0 0
-0.09106902 0.01976987 -0.09964439 0 0 0 0
-0.07794555 -0.03829857 0.08917447 0 0 0 0
0.00214898 -0.01097126 -0.10000000 0 0 0 0
0.06625098 -0.05238097 0.03731172 0 0 0 0
-0.06563932 0.05270218 0.02657530 0 0 0 0
0.00285634 0.09930767 0.08031841 0 0 0 0
-0.08359791 0.02321387 -0.10000000 0 0 0 0
0.02663789 -0.06100225 -0.10000000 0 0 0 0
0.02919368 0.01603007 0.10000000 0 0 0 0
0.00308236 0.01050495 -0.10000000 0 0 0 0
0.00848790 0.00236828 -0.10000000 0 0 0 0
-0.09915246 0.00200726 0.02516198 0 0 0 0
0.07990728 0.02730360 -0.10000000 0 0 0 0
0.04653327 0.02320257 -0.10000000 0 0 0 0
-0.02654177 -0.04861891 -0.10000000 0 0 0 0
-0.04233002 -0.04438458 -0.10000000 0 0 0 0
-0.06046323 0.05809192 0.07838918 0 0 0 0
-0.01918145 -0.09124090 0.08370499 0 0 0 0
0.07804652 0.02055717 0.10000000 0 0 0 0
0.05152096 -0.02107735 -0.10000000 0 0 0 0
0.01279293 0.00290701 -0.10000000 0 0 0 0
0.00226661 -0.00024485 -0.10000000 0 0 0 0
-0.03292555 -0.08205224 -0.02456367 0 0 0 0
-0.00878593 -0.05146492 -0.10000000 0 0 0 0
0.04311325 -0.01778768 -0.10000000 0 0 0 0
0.00371876 -0.00233002 -0.10000000 0 0 0 0
0.01689769 0.01549080 0.10000000 0 0 0 0
-0.03347626 0.08163850 0.08049327 0 0 0 0
-0.09508242 -0.01223431 0.06818246 0 0 0 0
-0.01915333 0.01276242 -0.10000000 0 0 0 0
0.09887721 -0.00385864 0.02694820 0 0 0 0
0.04052167 -0.02501921 -0.10000000 0 0 0 0
-0.07592866 -0.04088662 0.03772960 0 0 0 0
0.01155693 0.08405332 0.10000000 0 0 0 0
-0.09343127 0.01533000 -0.03087937 0 0 0 0
-0.03725095 -0.07880381 0.09048554 0 0 0 0
0.03334805 0.04865630 -0.10000000 0 0 0 0
-0.01825698 -0.00360121 0.10000000 0 0 0 0
0.00825834 0.00223118 -0.10000000 0 0 0 0
0.04307075 0.00083203 -0.10000000 0 0 0 0
0.06306572 -0.03847431 0.10000000 0 0 0 0
0.04610812 -0.07165244 -0.04676275 0 0 0 0
-0.01607872 -0.09303506 0.07212783 0 0 0 0
0.00301070 0.01750269 -0.10000000 0 0 0 0
-0.05538518 -0.06310011 0.08787531 0 0 0 0
0.01109351 -0.01120353 -0.10000000 0 0 0 0
0.03395356 0.03257491 -0.10000000 0 0 0 0
-0.03860166 -0.07771324 0.06082439 0 0 0 0
-0.03596958 -0.04949256 -0.10000000 0 0 0 0
-0.03801740 -0.07818497 -0.06690972 0 0 0 0
0.00452108 -0.08633989 0.10000000 0 0 0 0
-0.00139320 0.02405776 -0.10000000 0 0 0 0
0.04536659 -0.07234629 0.08503848 0 0 0 0
-0.03912288 -0.07729240 -0.05872633 0 0 0 0
-0.01692645 0.04282173 -0.10000000 0 0 0 0
-0.00464015 0.00995845 -0.10000000 0 0 0 0
0.01520174 0.05986385 -0.10000000 0 0 0 0
0.00122382 0.03519770 -0.10000000 0 0 0 0
0.01093288 0.01596983 0.10000000 0 0 0 0
0.00662676 0.09769031 0.06715589 0 0 0 0
-0.05739298 -0.00156935 0.10000000 0 0 0 0
0.06590971 0.05239950 -0.09234308 0 0 0 0
-0.04164576 0.02482683 0.10000000 0 0 0 0
-0.00259182 0.09930767 0.09906285 0 0 0 0
0.09112170 -0.01937117 0.02230900 0 0 0 0
0.01980934 -0.00246208 0.10000000 0 0 0 0
-0.03451677 -0.05234599 -0.10000000 0 0 0 0
-0.04663304 -0.07117748 -0.04791624 0 0 0 0
0.00991687 -0.00124239 -0.10000000 0 0 0 0
-0.01523332 0.00438019 -0.10000000 0 0 0 0
-0.00232032 -0.02233191 0.10000000 0 0 0 0
0.00082859 0.05541534 -0.10000000 0 0 0 0
-0.04297341 -0.07082405 -0.10000000 0 0 0 0
-0.03523172 0.08037579 0.10000000 0 0 0 0
-0.01674137 -0.03123239 0.10000000 0 0 0 0
0.00879595 0.06770007 0.10000000 0 0 0 0
0.02071853 -0.04346705 0.10000000 0 0 0 0
0.06154677 -0.05728336 0.09013128 0 0 0 0
-0.01727176 0.02646403 -0.10000000 0 0 0 0
0.06398587 0.05455304 -0.08484723 0 0 0 0
0.09644787 -0.00956105 -0.05075965 0 0 0 0
0.08052971 0.03503222 0.02730209 0 0 0 0
0.00087338 -0.02399686 -0.10000000 0 0 0 0
-0.03501747 0.07080963 -0.10000000 0 0 0 0
0.00006328 0.06681807 -0.10000000 0 0 0 0
-0.02584437 -0.08706141 -0.01454176 0 0 0 0
-0.04369985 -0.04000416 0.10000000 0 0 0 0
0.04699764 -0.07071733 0.08028775 0 0 0 0
0.06810620 0.04994077 0.07690675 0 0 0 0
-0.07849080 -0.03785132 -0.03157965 0 0 0 0
-0.01612735 -0.00315837 0.10000000 0 0 0 0
0.01236679 -0.03467931 -0.10000000 0 0 0 0
0.01626596 0.00035134 -0.10000000 0 0 0 0
-0.02284379 0.07652833 0.10000000 0 0 0 0
0.07407960 -0.04325417 0.02158788 0 0 0 0
-0.00267758 -0.09930767 -0.05775319 0 0 0 0
0.00664033 -0.02966757 0.10000000 0 0 0 0
0.08326303 -0.03147975 0.09065836 0 0 0 0
-0.00831361 0.04586584 -0.10000000 0 0 0 0
0.02552227 -0.05225141 -0.10000000 0 0 0 0
0.05076415 -0.06746189 -0.06155457 0 0 0 0
-0.00388405 -0.00605174 0.10000000 0 0 0 0
0.04035326 0.04104700 -0.10000000 0 0 0 0
0.03471043 0.01598282 -0.10000000 0 0 0 0
0.00304210 0.01033374 0.10000000 0 0 0 0
0.04487010 0.01319106 0.10000000 0 0 0 0
-0.07432375 -0.01061780 -0.10000000 0 0 0 0
0.08912820 -0.02314352 0.05391843 0 0 0 0
0.06375993 -0.05483253 -0.08693527 0 0 0 0
-0.05428547 -0.06411505 -0.00213791 0 0 0 0
0.04724545 0.02080216 -0.10000000 0 0 0 0
0.04241280 -0.02471349 -0.10000000 0 0 0 0
0.01772290 0.09140370 -0.10000000 0 0 0 0
-0.00240682 0.03253702 -0.10000000 0 0 0 0
-0.03185594 -0.02706370 0.10000000 0 0 0 0
0.07035868 -0.04741935 0.02900844 0 0 0 0
-0.00747842 0.03925224 -0.10000000 0 0 0 0
-0.02251672 0.08937041 0.05816786 0 0 0 0
-0.00949037 -0.00371865 0.10000000 0 0 0 0
-0.05913252 0.05964170 -0.07122375 0 0 0 0
0.03829876 -0.02119925 -0.10000000 0 0 0 0
0.07080372 0.04697431 -0.04720988 0 0 0 0
0.05574854 -0.03358757 0.10000000 0 0 0 0
0.08729149 0.02566702 0.04013819 0 0 0 0
-0.07972809 0.02792958 -0.10000000 0 0 0 0
-0.07469231 0.04232127 -0.00558407 0 0 0 0
-0.08980438 0.02166697 -0.02616099 0 0 0 0
0.07971077 0.03603345 -0.07961412 0 0 0 0
-0.01616509 -0.02810987 -0.10000000 0 0 0 0
0.04127764 -0.05488179 -0.10000000 0 0 0 0
0.01186102 0.00349897 -0.10000000 0 0 0 0
0.00879152 0.00119394 -0.10000000 0 0 0 0
0.09828087 0.00507513 0.03999064 0 0 0 0
0.04607231 -0.03465961 -0.10000000 0 0 0 0
0.01986452 -0.09113614 -0.00760693 0 0 0 0
0.08299492 0.03181925 0.08915184 0 0 0 0
0.00485038 0.02641695 -0.10000000 0 0 0 0
0.00284235 0.00079859 -0.10000000 0 0 0 0
-0.03098316 -0.08378406 0.06483727 0 0 0 0
0.02591909 -0.08701375 -0.02105230 0 0 0 0
0.00078192 0.09956411 0.08847848 0 0 0 0
0.06300634 0.05564953 0.01151709 0 0 0 0
0.07449664 -0.04255540 -0.06158591 0 0 0 0
0.03484853 0.08060753 -0.00418955 0 0 0 0
0.04139874 0.03609828 -0.10000000 0 0 0 0
0.06868925 -0.04946133 0.01800753 0 0 0 0
-0.03112047 0.00987097 -0.10000000 0 0 0 0
0.06792445 0.05041962 0.02228829 0 0 0 0
0.03736249 0.02178992 -0.10000000 0 0 0 0
-0.00827114 -0.09708379 -0.01045187 0 0 0 0
-0.08791411 -0.02464360 -0.09062830 0 0 0 0
-0.07266486 0.04474730 0.04141570 0 0 0 0
-0.05118112 -0.05505828 -0.10000000 0 0 0 0
0.08497259 -0.02928153 -0.07741614 0 0 0 0
0.07365958 -0.04372434 0.03311602 0 0 0 0
-0.01019807 0.09637304 0.09823272 0 0 0 0
0.09893399 -0.00347671 0.01166930 0 0 0 0
-0.07939908 0.03659549 0.09985775 0 0 0 0
0.07946698 -0.03650161 0.07163139 0 0 0 0
-0.09379738 -0.01490342 -0.09084101 0 0 0 0
0.01001185 0.00626248 -0.10000000 0 0 0 0
-0.09656890 -0.00959633 -0.04134488 0 0 0 0
0.03474035 0.04439672 0.10000000 0 0 0 0
0.03328134 0.02496172 0.10000000 0 0 0 0
-0.00464841 -0.02327612 -0.10000000 0 0 0 0
0.06799521 0.05033494 0.01792995 0 0 0 0
0.02829066 -0.08550125 -0.07573159 0 0 0 0
-0.03018399 0.05206419 -0.10000000 0 0 0 0
0.01735138 -0.09243054 0.02580045 0 0 0 0
0.05750313 0.01173903 -0.10000000 0 0 0 0
-0.00672567 -0.07805907 -0.10000000 0 0 0 0
-0.02468885 -0.08805620 -0.09290548 0 0 0 0
0.05142685 0.06697007 -0.00715377 0 0 0 0
-0.04833668 -0.06955998 0.07512721 0 0 0 0
-0.02525906 -0.08743469 -0.07917456 0 0 0 0
-0.01172813 -0.09532682 0.02087755 0 0 0 0
0.01710988 0.00522401 0.10000000 0 0 0 0
-0.04062518 0.07622515 -0.00172783 0 0 0 0
-0.03610635 0.07972798 0.05111468 0 0 0 0
0.00344987 0.00327729 -0.10000000 0 0 0 0
0.04944206 -0.06858503 -0.02686428 0 0 0 0
-0.09961156 -0.00181855 -0.09344523 0 0 0 0
-0.03803630 -0.03950233 -0.10000000 0 0 0 0
-0.04273527 0.07440136 -0.00195554 0 0 0 0
-0.01141211 -0.09554418 0.02020390 0 0 0 0
-0.07410108 -0.04323012 -0.05272387 0 0 0 0
-0.03774489 0.02919964 0.10000000 0 0 0 0
-0.03002827 -0.08422894 -0.09537979 0 0 0 0
-0.09823029 0.00569604 0.05419276 0 0 0 0
-0.03537204 -0.03315135 -0.10000000 0 0 0 0
-0.00276871 -0.08315410 -0.10000000 0 0 0 0
0.08483142 0.02912699 0.08068474 0 0 0 0
-0.09063049 -0.02017860 -0.02883103 0 0 0 0
0.05374401 -0.06468964 0.01472612 0 0 0 0
-0.02965883 0.00436426 -0.10000000 0 0 0 0
-0.05232356 0.05330618 -0.10000000 0 0 0 0
-0.00466660 -0.00080276 -0.10000000 0 0 0 0
-0.00087611 -0.01124543 0.10000000 0 0 0 0
0.03510091 -0.02164364 -0.10000000 0 0 0 0
-0.03141248 -0.08318900 0.07264561 0 0 0 0
-0.00250217 0.09930767 0.09198037 0 0 0 0
-0.00792869 0.00616153 0.10000000 0 0 0 0
0.07148591 0.04615753 -0.08862223 0 0 0 0
-0.04493213 0.07274725 -0.08696751 0 0 0 0
0.04688598 0.07102439 0.07244884 0 0 0 0
0.05501818 -0.00192981 0.10000000 0 0 0 0
-0.08225155 -0.03265152 0.00308441 0 0 0 0
0.09818494 0.00579022 -0.09772189 0 0 0 0
-0.03357454 -0.00457176 0.10000000 0 0 0 0
-0.04248267 0.00433356 -0.10000000 0 0 0 0
-0.04015893 -0.01619094 0.10000000 0 0 0 0
0.01496952 0.06521048 -0.10000000 0 0 0 0
-0.00233256 -0.03074918 -0.10000000 0 0 0 0
-0.08711194 0.02596215 0.09972791 0 0 0 0
-0.05712809 -0.06149158 -0.08218493 0 0 0 0
-0.07754714 -0.03880980 0.06048448 0 0 0 0
0.05747176 -0.06123050 -0.09062468 0 0 0 0
0.03535584 -0.00882087 -0.10000000 0 0 0 0
0.09943889 0.00008060 -0.07350786 0 0 0 0
-0.01296620 0.09468915 0.03885172 0 0 0 0
0.02351962 0.06071879 0.10000000 0 0 0 0
0.06879706 -0.04937546 -0.05867958 0 0 0 0
-0.00434423 -0.00550406 -0.10000000 0 0 0 0
0.09668994 0.00889542 0.02704475 0 0 0 0
-0.03119328 -0.07636663 -0.10000000 0 0 0 0
0.02450401 -0.00232446 -0.10000000 0 0 0 0
-0.09882805 0.00373602 -0.03524559 0 0 0 0
0.03555006 0.08017713 -0.05839733 0 0 0 0
0.08309526 -0.03169050 -0.04710028 0 0 0 0
-0.02423826 0.07719387 -0.10000000 0 0 0 0
0.07241769 -0.04539186 -0.06446233 0 0 0 0
-0.07630312 -0.04039379 -0.00827748 0 0 0 0
0.03416886 0.08111815 0.01598644 0 0 0 0
-0.00149284 0.08955781 -0.10000000 0 0 0 0
0.06224263 0.00981761 -0.10000000 0 0 0 0
-0.06376556 0.05462717 0.01658517 0 0 0 0
0.07965552 0.00676515 0.10000000 0 0 0 0
-0.00282818 -0.09930767 0.03558678 0 0 0 0
-0.05413190 -0.03098155 -0.10000000 0 0 0 0
-0.04457103 -0.00978485 0.10000000 0 0 0 0
-0.02170539 0.00566238 -0.10000000 0 0 0 0
-0.01761614 -0.02875407 -0.10000000 0 0 0 0
0.06747542 -0.05073486 0.05397823 0 0 0 0
-0.00519916 0.02533474 0.10000000 0 0 0 0
0.02109385 0.06112917 -0.10000000 0 0 0 0
0.08959524 -0.02188025 -0.04397394 0 0 0 0
0.02922060 0.01738773 -0.10000000 0 0 0 0
-0.01639917 0.01920151 -0.10000000 0 0 0 0
-0.08907310 -0.02276398 -0.04279524 0 0 0 0
-0.00441525 0.01420435 -0.10000000 0 0 0 0
-0.06702443 -0.05120802 0.04120929 0 0 0 0
-0.01602793 -0.09311219 0.05959315 0 0 0 0
-0.05890257 0.00089726 0.10000000 0 0 0 0
0.03410714 0.08131434 0.09481277 0 0 0 0
-0.00283529 -0.09238026 -0.10000000 0 0 0 0
-0.02367384 0.01956667 -0.10000000 0 0 0 0
0.00449828 -0.00361478 -0.10000000 0 0 0 0
0.09939134 0.00235748 -0.08686592 0 0 0 0
0.08287328 0.02097466 -0.10000000 0 0 0 0
0.06407526 0.05445298 0.03363185 0 0 0 0
0.09351727 0.01517283 0.07385360 0 0 0 0
-0.09166557 0.01847720 -0.01540914 0 0 0 0
0.00915259 -0.04080461 0.10000000 0 0 0 0
-0.00577374 -0.01102237 -0.10000000 0 0 0 0
0.03732408 -0.04671285 0.10000000 0 0 0 0
-0.01907934 0.07652135 -0.10000000 0 0 0 0
-0.00412643 -0.00010618 -0.10000000 0 0 0 0
0.00078235 0.01757294 -0.10000000 0 0 0 0
0.03069175 0.03880725 -0.10000000 0 0 0 0
-0.04740685 0.07046333 0.06974868 0 0 0 0
0.00274891 0.09912066 -0.09132111 0 0 0 0
0.00189633 -0.03931921 0.10000000 0 0 0 0
-0.05956659 -0.04516947 0.10000000 0 0 0 0
0.01510895 0.01549121 -0.10000000 0 0 0 0
-0.00671108 -0.03004132 0.10000000 0 0 0 0
0.07118259 -0.00919244 -0.10000000 0 0 0 0
0.03821440 0.07807878 -0.01242718 0 0 0 0
0.00632602 -0.03741391 0.10000000 0 0 0 0
-0.04268283 -0.02919412 -0.10000000 0 0 0 0
-0.01937558 -0.09138797 -0.02194422 0 0 0 0
0.01486556 -0.07155551 -0.10000000 0 0 0 0
0.09382644 0.01460787 -0.03139036 0 0 0 0
0.02483037 -0.05755402 0.10000000 0 0 0 0
-0.00685687 -0.09783577 0.05866458 0 0 0 0
0.00291527 -0.01869465 -0.10000000 0 0 0 0
-0.08975837 0.02173600 -0.09030464 0 0 0 0
0.03352458 -0.08181252 0.00282599 0 0 0 0
-0.05180395 0.04985478 -0.10000000 0 0 0 0
-0.02220695 -0.07788118 0.10000000 0 0 0 0
-0.00483141 0.01067977 -0.10000000 0 0 0 0
-0.09524496 0.00579409 -0.10000000 0 0 0 0
0.00398274 0.03124266 0.10000000 0 0 0 0
-0.06763932 0.03441609 -0.10000000 0 0 0 0
0.01090843 0.09602483 0.05038534 0 0 0 0
-0.06322916 0.01645306 -0.10000000 0 0 0 0
0.06666563 -0.02020250 -0.10000000 0 0 0 0
0.02001266 -0.04582698 -0.10000000 0 0 0 0
-0.00874189 -0.03182572 -0.10000000 0 0 0 0
0.01503882 0.09392634 0.04489121 0 0 0 0
0.02691298 -0.01565174 -0.10000000 0 0 0 0
-0.03127645 -0.00142961 0.10000000 0 0 0 0
0.09734016 0.00737733 -0.07546491 0 0 0 0
-0.01885180 0.01861059 -0.10000000 0 0 0 0
-0.04938851 -0.06863446 0.03530126 0 0 0 0
-0.06913264 -0.04899613 -0.06678808 0 0 0 0
-0.07716447 -0.02044608 -0.10000000 0 0 0 0
0.05126461 -0.02504878 -0.10000000 0 0 0 0
0.02499167 0.02074435 0.10000000 0 0 0 0
-0.00003878 0.09528945 0.10000000 0 0 0 0
0.05345326 0.06513765 -0.07819702 0 0 0 0
-0.08544483 -0.02820680 -0.05824526 0 0 0 0
0.04071166 -0.06937481 0.10000000 0 0 0 0
0.02606723 0.08691927 0.02573023 0 0 0 0
-0.05876961 -0.05986882 0.06185251 0 0 0 0
0.05654305 -0.00891268 -0.10000000 0 0 0 0
0.05079693 -0.06733461 -0.05550467 0 0 0 0
0.01603351 -0.09306121 0.04821387 0 0 0 0
0.05624534 -0.06230627 0.04392065 0 0 0 0
-0.05360632 -0.05199150 -0.10000000 0 0 0 0
-0.03183251 0.08289535 0.08269142 0 0 0 0
0.08551826 0.02813480 0.06249742 0 0 0 0
-0.04800986 -0.06990681 -0.01601463 0 0 0 0
0.00395923 0.00518716 -0.10000000 0 0 0 0
-0.01256922 -0.00510186 -0.10000000 0 0 0 0
0.07201139 0.04591322 0.09421062 0 0 0 0
0.01500194 0.03682598 -0.10000000 0 0 0 0
-0.00064624 -0.00067319 0.10000000 0 0 0 0
0.07601433 -0.01021600 -0.10000000 0 0 0 0
-0.07540371 -0.04156023 -0.05433147 0 0 0 0
-0.05766345 -0.00145715 -0.10000000 0 0 0 0
-0.01311238 0.09475037 0.07121336 0 0 0 0
0.02142776 0.00522214 0.10000000 0 0 0 0
-0.07550019 0.04135457 0.03556783 0 0 0 0
-0.05223525 0.00486908 0.10000000 0 0 0 0
0.01968436 0.04588331 -0.10000000 0 0 0 0
0.07390903 0.01345904 0.10000000 0 0 0 0
-0.08197937 0.03340539 -0.06481149 0 0 0 0
0.05673431 0.06200422 0.05093209 0 0 0 0
0.06023332 0.05608953 0.10000000 0 0 0 0
-0.00273575 0.01667654 0.10000000 0 0 0 0
0.08334248 0.03136057 -0.07226332 0 0 0 0
-0.00344059 -0.01222303 -0.10000000 0 0 0 0
0.06838300 -0.04963091 0.03627351 0 0 0 0
-0.03740001 -0.05456691 0.10000000 0 0 0 0
0.05614244 -0.05557812 -0.10000000 0 0 0 0
-0.06115551 0.05736558 0.06720997 0 0 0 0
-0.06326015 -0.04203247 -0.10000000 0 0 0 0
0.08486855 -0.02903312 -0.07356939 0 0 0 0
-0.05537277 0.06343271 0.09016834 0 0 0 0
-0.03023830 -0.08407114 0.04355618 0 0 0 0
0.09932623 -0.00083835 -0.06336857 0 0 0 0
-0.00708310 -0.07681157 -0.10000000 0 0 0 0
0.04217707 0.07488383 0.07271530 0 0 0 0
-0.01641776 -0.04147536 -0.10000000 0 0 0 0
0.00868126 0.05445998 -0.10000000 0 0 0 0
-0.07564794 0.04117777 -0.07227379 0 0 0 0
-0.04022624 -0.06859079 -0.10000000 0 0 0 0
-0.02586070 0.07760192 -0.10000000 0 0 0 0
-0.01774144 0.01510321 0.10000000 0 0 0 0
0.00878032 -0.00125898 -0.10000000 0 0 0 0
0.03303650 -0.08205850 0.01398118 0 0 0 0
-0.07815775 0.03802627 0.09408999 0 0 0 0
0.01053484 0.01387982 0.10000000 0 0 0 0
0.00063973 0.00463758 -0.10000000 0 0 0 0
-0.03693063 0.07733795 -0.10000000 0 0 0 0
-0.00421394 0.00877023 -0.10000000 0 0 0 0
0.00850504 -0.09684100 0.00960033 0 0 0 0
-0.06240316 -0.05632472 -0.05619926 0 0 0 0
0.01884220 0.05459393 -0.10000000 0 0 0 0
0.01715966 0.01710978 -0.10000000 0 0 0 0
-0.01847453 0.05087234 -0.10000000 0 0 0 0
0.00878443 -0.09671636 0.09150729 0 0 0 0
0.03029798 -0.08402631 -0.03254954 0 0 0 0
0.06255378 -0.04978847 -0.10000000 0 0 0 0
0.06054600 -0.05795462 -0.10000000 0 0 0 0
-0.07676703 -0.03981082 0.05270705 0 0 0 0
-0.04657883 0.00110826 -0.10000000 0 0 0 0
-0.01309689 0.03261114 -0.10000000 0 0 0 0
-0.09581892 -0.01110025 -0.02158340 0 0 0 0
0.02193669 0.02963046 -0.10000000 0 0 0 0
-0.07719027 -0.03933224 -0.09446051 0 0 0 0
0.05936812 0.05924087 -0.03890348 0 0 0 0
0.00082635 -0.00863660 -0.10000000 0 0 0 0
0.00247481 -0.00602672 -0.10000000 0 0 0 0
0.01559714 -0.09331354 -0.02518640 0 0 0 0
0.09292044 -0.01672489 -0.09517790 0 0 0 0
0.09891845 0.00328306 0.06889458 0 0 0 0
-0.03309652 -0.08215814 -0.02503075 0 0 0 0
-0.08275353 0.03212900 0.08945988 0 0 0 0
0.01686934 0.00132725 0.10000000 0 0 0 0
0.01743605 -0.05897333 -0.10000000 0 0 0 0
-0.03334313 0.01223706 -0.10000000 0 0 0 0
0.08615656 0.02753254 0.03209158 0 0 0 0
0.04950258 0.00704647 -0.10000000 0 0 0 0
0.03578698 0.01634701 0.10000000 0 0 0 0
0.03392480 -0.00930419 -0.10000000 0 0 0 0
0.09524960 -0.01200720 0.01350330 0 0 0 0
0.07566731 0.04115459 0.09990489 0 0 0 0
-0.03504299 -0.08046143 0.00003984 0 0 0 0
-0.01391833 -0.03705467 -0.10000000 0 0 0 0
0.01468957 0.03249191 0.10000000 0 0 0 0
-0.01625295 -0.06800036 -0.10000000 0 0 0 0
-0.03220027 -0.08259714 -0.03660531 0 0 0 0
-0.00364127 -0.01367555 0.10000000 0 0 0 0
0.08140420 0.03386045 0.07954849 0 0 0 0
0.08072101 0.03473711 -0.01544407 0 0 0 0
-0.00286090 -0.09901383 0.05574070 0 0 0 0
0.01464461 -0.02118836 0.10000000 0 0 0 0
0.01512365 0.09357794 -0.09299137 0 0 0 0
0.08667974 0.02652887 0.05967917 0 0 0 0
0.08052932 -0.03533677 0.06678214 0 0 0 0
-0.00597853 0.02938401 0.10000000 0 0 0 0
-0.01831398 -0.03075338 -0.10000000 0 0 0 0
0.00102480 -0.09949981 -0.06047731 0 0 0 0
0.02794374 -0.08572250 -0.03247698 0 0 0 0
-0.03854388 -0.07783124 -0.03110767 0 0 0 0
-0.07155074 0.04645912 0.06053874 0 0 0 0
-0.01245701 0.09495141 -0.08889414 0 0 0 0
-0.02273315 0.06011640 -0.10000000 0 0 0 0
-0.04232675 0.02185421 0.10000000 0 0 0 0
-0.05798195 0.06069522 -0.09913204 0 0 0 0
-0.07811064 0.03808672 -0.01343890 0 0 0 0
-0.06176844 0.05679244 0.08283840 0 0 0 0
0.01404391 0.09421171 0.04029759 0 0 0 0
0.09665675 0.00904984 0.06857654 0 0 0 0
0.06558493 -0.05303646 0.02679059 0 0 0 0
0.04793494 0.07017745 -0.07261566 0 0 0 0
0.01027766 0.01713565 -0.10000000 0 0 0 0
-0.09318203 -0.01598454 0.04996786 0 0 0 0
0.06121101 -0.05734103 0.07635827 0 0 0 0
0.01469980 0.00192948 -0.10000000 0 0 0 0
-0.06919806 0.04892750 -0.05086718 0 0 0 0
-0.05862078 -0.03065456 -0.10000000 0 0 0 0
0.00583270 -0.08221541 -0.10000000 0 0 0 0
0.04086042 0.01718185 0.10000000 0 0 0 0
0.04084281 0.07610407 0.01965255 0 0 0 0
0.03685469 0.02329769 -0.10000000 0 0 0 0
0.07798221 -0.03855452 0.06235587 0 0 0 0
-0.01910958 0.03182200 -0.10000000 0 0 0 0
-0.05055948 0.06395832 -0.10000000 0 0 0 0
0.01403354 -0.01844819 -0.10000000 0 0 0 0
0.02967070 -0.08439794 0.03825788 0 0 0 0
-0.09331439 0.01590661 0.08882964 0 0 0 0
0.02345738 0.00074012 -0.10000000 0 0 0 0
-0.06327561 -0.05534811 -0.04230880 0 0 0 0
-0.09238759 0.01723720 0.07846422 0 0 0 0
-0.06549172 -0.05281612 0.03401985 0 0 0 0
-0.07134681 0.04667307 -0.01905232 0 0 0 0
0.04130565 -0.07563701 -0.03015137 0 0 0 0
-0.01100096 -0.09597132 -0.02411493 0 0 0 0
0.02017128 -0.02294823 0.10000000 0 0 0 0
0.02669106 0.02176934 -0.10000000 0 0 0 0
0.08804639 0.02463929 0.08301015 0 0 0 0
0.03342063 0.08168030 0.09206145 0 0 0 0
0.07326657 0.04402729 -0.01555230 0 0 0 0
0.06771643 0.00151472 0.10000000 0 0 0 0
0.00923260 0.00588409 -0.10000000 0 0 0 0
-0.00236281 -0.01574164 0.10000000 0 0 0 0
-0.01264227 0.00718866 -0.10000000 0 0 0 0
-0.00960117 0.01899024 0.10000000 0 0 0 0
0.09271928 -0.01425978 0.10000000 0 0 0 0
-0.04703061 -0.07068884 0.05022600 0 0 0 0
0.03359913 0.06102677 0.10000000 0 0 0 0
-0.00304295 -0.01653464 0.10000000 0 0 0 0
-0.06116379 0.05771206 0.01969216 0 0 0 0
0.01636213 -0.09162416 0.10000000 0 0 0 0
0.03439682 -0.01853728 -0.10000000 0 0 0 0
-0.00244093 -0.02412995 -0.10000000 0 0 0 0
-0.09000368 -0.02136799 -0.09490224 0 0 0 0
-0.01334473 -0.04340486 -0.10000000 0 0 0 0
0.00650014 -0.09631919 0.10000000 0 0 0 0
-0.07352943 -0.04396529 -0.06013339 0 0 0 0
-0.05829538 0.06021044 -0.09613232 0 0 0 0
0.08952911 -0.02207991 0.00963103 0 0 0 0
0.00651786 0.00452002 0.10000000 0 0 0 0
0.00236003 0.00500957 0.10000000 0 0 0 0
-0.09544924 0.01164237 -0.04066233 0 0 0 0
0.03292711 0.08205107 -0.01004977 0 0 0 0
-0.03124518 0.02428696 -0.10000000 0 0 0 0
-0.00358363 0.00366736 0.10000000 0 0 0 0
-0.08901827 -0.02284623 -0.02517295 0 0 0 0
-0.01747383 0.00288020 -0.10000000 0 0 0 0
0.05726145 -0.06122797 0.07998738 0 0 0 0
-0.02367138 0.00406146 -0.10000000 0 0 0 0
-0.01917531 0.01461686 0.10000000 0 0 0 0
-0.05314337 -0.06540549 -0.02817858 0 0 0 0
-0.05423879 -0.06415813 -0.02739416 0 0 0 0
-0.09073322 0.02026037 0.05948389 0 0 0 0
-0.02841561 -0.01301402 0.10000000 0 0 0 0
0.01989379 -0.00787137 -0.10000000 0 0 0 0
0.03638957 0.01898928 -0.10000000 0 0 0 0
0.05611857 -0.06235274 0.00545113 0 0 0 0
0.05300345 0.01625380 0.10000000 0 0 0 0
0.06469937 0.04807582 -0.10000000 0 0 0 0
0.06980737 0.04816654 -0.09831886 0 0 0 0
-0.09602088 0.01060599 0.03667536 0 0 0 0
-0.01240735 0.06536815 -0.10000000 0 0 0 0
0.07743103 -0.03931662 0.03548897 0 0 0 0
0.00392284 0.00564541 -0.10000000 0 0 0 0
0.00281968 -0.00113260 0.10000000 0 0 0 0
0.01448580 0.01572924 0.10000000 0 0 0 0
-0.01090761 0.00552829 0.10000000 0 0 0 0
-0.03793159 -0.01274149 -0.10000000 0 0 0 0
-0.01516353 -0.00241623 -0.10000000 0 0 0 0
-0.09195062 0.01800865 0.00088269 0 0 0 0
-0.03280761 0.00731450 0.10000000 0 0 0 0
-0.01566572 -0.00082248 -0.10000000 0 0 0 0
0.09576692 0.01081257 0.06117715 0 0 0 0
-0.06231307 -0.05625644 -0.06651080 0 0 0 0
-0.02418103 -0.08812223 0.06531439 0 0 0 0
-0.00016494 -0.01545723 -0.10000000 0 0 0 0
-0.01199375 -0.09519000 -0.09613568 0 0 0 0
-0.01346338 0.02749753 0.10000000 0 0 0 0
0.02919426 0.00557011 0.10000000 0 0 0 0
0.01099502 0.05438377 -0.10000000 0 0 0 0
0.01482577 0.00879861 -0.10000000 0 0 0 0
0.03094297 -0.02676826 0.10000000 0 0 0 0
-0.01721835 0.08108792 0.10000000 0 0 0 0
-0.03870505 0.04200939 -0.10000000 0 0 0 0
-0.00589988 0.01326932 -0.10000000 0 0 0 0
0.04663030 0.07118000 0.07348448 0 0 0 0
0.06079571 0.02782439 -0.10000000 0 0 0 0
0.04848337 0.06821132 -0.10000000 0 0 0 0
-0.04004479 -0.05983721 0.10000000 0 0 0 0
0.00787578 -0.00710678 0.10000000 0 0 0 0
0.03276851 0.08217023 0.05678410 0 0 0 0
-0.06536128 0.05301342 0.09023853 0 0 0 0
-0.03404362 -0.02397839 -0.10000000 0 0 0 0
-0.02355370 0.00762596 -0.10000000 0 0 0 0
0.01829253 -0.09175491 0.04186705 0 0 0 0
0.00488564 0.05086660 0.10000000 0 0 0 0
0.07276660 -0.04494413 -0.00619352 0 0 0 0
0.09144419 0.01896116 -0.05629363 0 0 0 0
0.06503057 0.02035971 -0.10000000 0 0 0 0
0.07161398 -0.04257523 -0.10000000 0 0 0 0
-0.00248877 0.00589242 0.10000000 0 0 0 0
-0.09483728 -0.01326375 0.03591863 0 0 0 0
-0.08919082 0.02254504 -0.00545384 0 0 0 0
0.04937150 -0.06899284 -0.06940456 0 0 0 0
0.03392612 -0.08148832 0.03454936 0 0 0 0
-0.06845909 0.00004156 0.10000000 0 0 0 0
0.01307627 0.01563765 -0.10000000 0 0 0 0
0.00132316 -0.00224900 -0.10000000 0 0 0 0
-0.04589019 0.04463238 -0.10000000 0 0 0 0
-0.00619619 -0.00114261 0.10000000 0 0 0 0
-0.00177211 -0.09948096 -0.04333611 0 0 0 0
-0.00167864 0.00726381 -0.10000000 0 0 0 0
0.03574825 -0.03460604 0.10000000 0 0 0 0
-0.01517067 0.02261268 -0.10000000 0 0 0 0
-0.02962600 0.02455900 -0.10000000 0 0 0 0
-0.06747454 0.05095797 -0.00411068 0 0 0 0
0.07975162 0.02946895 0.10000000 0 0 0 0
0.01872526 0.09160174 -0.09677996 0 0 0 0
-0.01371043 -0.09451892 0.03811208 0 0 0 0
0.06327941 -0.05534386 -0.05030469 0 0 0 0
0.03640295 0.07948849 0.04665504 0 0 0 0
-0.01339947 -0.02972288 -0.10000000 0 0 0 0
-0.05901901 0.05565089 -0.10000000 0 0 0 0
-0.00730615 -0.07972658 -0.10000000 0 0 0 0
-0.04644384 -0.07138138 0.06041206 0 0 0 0
-0.00504391 -0.02169708 -0.10000000 0 0 0 0
-0.01139839 -0.01109758 -0.10000000 0 0 0 0
0.04869973 0.01570843 0.10000000 0 0 0 0
0.00510317 -0.09825230 -0.08358777 0 0 0 0
0.04977889 -0.01597775 -0.10000000 0 0 0 0
-0.00850852 0.08469761 0.10000000 0 0 0 0
-0.02663094 -0.08655976 -0.06552417 0 0 0 0
-0.01429269 -0.04782905 0.10000000 0 0 0 0
-0.08229263 -0.00656221 -0.10000000 0 0 0 0
0.01241992 0.09515079 0.08502514 0 0 0 0
0.01267355 -0.00375932 0.10000000 0 0 0 0
0.01670462 -0.02787627 -0.10000000 0 0 0 0
0.04740981 -0.07046060 0.07915469 0 0 0 0
-0.01487177 -0.00334478 -0.10000000 0 0 0 0
0.02695679 0.00014459 -0.10000000 0 0 0 0
0.09381774 0.01493960 0.06639793 0 0 0 0
-0.05458974 0.06383424 -0.00619042 0 0 0 0
-0.02200682 -0.08950888 0.06859376 0 0 0 0
-0.03159714 0.03273880 -0.10000000 0 0 0 0
-0.07471238 0.02595215 -0.10000000 0 0 0 0
-0.00838182 0.03839336 -0.10000000 0 0 0 0
-0.02513427 -0.08779863 -0.00154022 0 0 0 0
0.04623203 0.06804106 -0.10000000 0 0 0 0
-0.05710929 -0.06161081 0.01150755 0 0 0 0
-0.04222544 -0.02304263 0.10000000 0 0 0 0
-0.02938699 0.00265265 0.10000000 0 0 0 0
0.07667649 -0.03992701 -0.00057239 0 0 0 0
0.04115113 0.00548593 -0.10000000 0 0 0 0
0.00688298 0.00609407 0.10000000 0 0 0 0
-0.00942908 -0.01355372 -0.10000000 0 0 0 0
-0.08793882 -0.02478802 0.09424373 0 0 0 0
0.09951808 -0.00045208 0.01100484 0 0 0 0
0.05443192 0.05642532 0.10000000 0 0 0 0
0.02495243 0.08790378 -0.01686010 0 0 0 0
-0.04629608 -0.05708949 0.10000000 0 0 0 0
-0.02327237 0.02129348 -0.10000000 0 0 0 0
0.02095398 0.00111771 -0.10000000 0 0 0 0
-0.01181557 -0.09550026 -0.06482196 0 0 0 0
0.01789290 -0.09198600 0.04839020 0 0 0 0
-0.01108728 -0.00754395 0.10000000 0 0 0 0
-0.02821949 -0.07176381 -0.10000000 0 0 0 0
0.03762522 0.07881807 -0.07897697 0 0 0 0
0.03760416 -0.00421994 -0.10000000 0 0 0 0
-0.00712954 0.05632479 0.10000000 0 0 0 0
0.00692541 -0.09758016 0.02538653 0 0 0 0
0.00579872 -0.00730967 -0.10000000 0 0 0 0
-0.07939434 -0.03669487 -0.03875046 0 0 0 0
-0.02180984 0.02207061 -0.10000000 0 0 0 0
0.07150216 0.04613857 -0.03600532 0 0 0 0
0.02609931 0.03115859 -0.10000000 0 0 0 0
-0.02915738 0.08475474 0.07874373 0 0 0 0
0.07266276 -0.01895534 -0.10000000 0 0 0 0
0.06018903 0.04495480 -0.10000000 0 0 0 0
-0.09556918 0.01171144 -0.06839494 0 0 0 0
0.04920273 0.04223963 -0.10000000 0 0 0 0
-0.06779371 0.01891190 -0.10000000 0 0 0 0
0.02965004 -0.02790225 -0.10000000 0 0 0 0
-0.05639263 -0.06217035 -0.02011450 0 0 0 0
0.01408402 0.09418852 0.08165096 0 0 0 0
0.05217024 0.06606720 0.00011483 0 0 0 0
0.03618447 0.06687904 -0.10000000 0 0 0 0
0.00550195 -0.00641828 0.10000000 0 0 0 0
0.00145736 -0.00356577 -0.10000000 0 0 0 0
-0.00293241 -0.05095679 -0.10000000 0 0 0 0
-0.03567246 -0.00963372 -0.10000000 0 0 0 0
-0.06456396 0.05390593 -0.03555742 0 0 0 0
-0.05413088 0.06425771 -0.06978512 0 0 0 0
0.08246186 0.03268160 0.01757143 0 0 0 0
0.06740448 0.05072626 -0.02015663 0 0 0 0
0.02312596 -0.01214686 -0.10000000 0 0 0 0
-0.03173754 0.01742348 -0.10000000 0 0 0 0
-0.00490582 -0.00384079 -0.10000000 0 0 0 0
0.00904416 0.01969338 -0.10000000 0 0 0 0
-0.05711579 -0.00435159 -0.10000000 0 0 0 0
-0.01446975 0.01659743 0.10000000 0 0 0 0
0.00661443 0.06064849 0.10000000 0 0 0 0
-0.06691174 0.03311259 0.10000000 0 0 0 0
-0.03076851 0.05842074 0.10000000 0 0 0 0
-0.00428537 -0.04076391 0.10000000 0 0 0 0
-0.07242434 -0.04538333 0.05681881 0 0 0 0
0.00236528 0.00744565 0.10000000 0 0 0 0
-0.04758965 -0.07029463 0.05513742 0 0 0 0
0.03411266 0.08131050 -0.02039826 0 0 0 0
-0.07617092 -0.04057575 -0.07931060 0 0 0 0
-0.01967952 -0.00340892 -0.10000000 0 0 0 0
0.08089352 0.03490097 0.00302200 0 0 0 0
0.01666152 0.01276842 -0.10000000 0 0 0 0
0.00777025 0.03557665 -0.10000000 0 0 0 0
-0.08722687 -0.01778350 0.10000000 0 0 0 0
-0.08418994 0.03028582 0.06643058 0 0 0 0
-0.06140961 0.05743689 -0.08701279 0 0 0 0
-0.09713863 -0.00787054 0.07010119 0 0 0 0
0.00638795 -0.04756091 -0.10000000 0 0 0 0
-0.00412244 -0.09861403 -0.09562609 0 0 0 0
0.09000646 0.02120434 -0.04939721 0 0 0 0
0.08443515 0.02972144 -0.02401930 0 0 0 0
0.04020910 -0.04155140 -0.10000000 0 0 0 0
0.09383281 -0.01482983 0.00078393 0 0 0 0
0.01465195 -0.02024214 -0.10000000 0 0 0 0
0.04795850 -0.06988685 0.01860713 0 0 0 0
-0.00593962 0.01316782 0.10000000 0 0 0 0
0.01033955 0.00344719 -0.10000000 0 0 0 0
-0.05813435 0.02958305 -0.10000000 0 0 0 0
0.07912039 -0.03679101 -0.00580131 0 0 0 0
-0.06346063 -0.05514099 -0.02163870 0 0 0 0
-0.04358008 0.00790105 -0.10000000 0 0 0 0
-0.05924907 -0.00624771 -0.10000000 0 0 0 0
0.06326486 0.05515249 -0.02782960 0 0 0 0
0.00834618 0.03388972 0.10000000 0 0 0 0
0.00355071 -0.09355485 -0.10000000 0 0 0 0
0.04391285 -0.03057913 -0.10000000 0 0 0 0
0.02636136 0.08673169 0.06335222 0 0 0 0
0.00464333 -0.09842190 0.02867075 0 0 0 0
-0.03730823 -0.07875756 -0.07507046 0 0 0 0
0.03135800 -0.08354500 0.05960460 0 0 0 0
0.01775442 -0.07187614 0.10000000 0 0 0 0
0.01943955 -0.06833091 -0.10000000 0 0 0 0
0.00159822 0.00025401 -0.10000000 0 0 0 0
0.02229510 0.07069949 -0.10000000 0 0 0 0
-0.01659109 -0.00570526 -0.10000000 0 0 0 0
0.07099485 0.04670722 0.09319358 0 0 0 0
-0.00566447 0.00616373 -0.10000000 0 0 0 0
-0.00688268 0.07405390 -0.10000000 0 0 0 0
0.02255891 0.08915676 0.06524312 0 0 0 0
-0.02322585 -0.05418838 -0.10000000 0 0 0 0
0.02721073 0.06442405 -0.10000000 0 0 0 0
-0.07780571 -0.01426338 -0.10000000 0 0 0 0
-0.06142466 -0.05030192 -0.10000000 0 0 0 0
0.00695956 0.00194765 -0.10000000 0 0 0 0
0.01660708 -0.00900909 -0.10000000 0 0 0 0
0.02972902 -0.02939490 0.10000000 0 0 0 0
0.07822404 -0.03822016 -0.07538579 0 0 0 0
0.01630297 -0.00415390 -0.10000000 0 0 0 0
0.05729677 0.02231168 -0.10000000 0 0 0 0
-0.00707001 0.01322738 0.10000000 0 0 0 0
0.09900580 -0.00299373 0.07463036 0 0 0 0
0.06872652 0.04924637 0.03083197 0 0 0 0
0.04598527 0.00440474 0.10000000 0 0 0 0
0.04418364 0.05364541 -0.10000000 0 0 0 0
0.09300998 -0.01609985 -0.00111565 0 0 0 0
0.07160348 -0.04601733 -0.01270258 0 0 0 0
-0.03606981 -0.07906120 -0.10000000 0 0 0 0
-0.04397322 -0.00198641 0.10000000 0 0 0 0
-0.02497513 -0.01498195 -0.10000000 0 0 0 0
-0.02565427 -0.00656261 0.10000000 0 0 0 0
-0.03348942 -0.08184092 0.08667447 0 0 0 0
0.04178883 0.02748748 0.10000000 0 0 0 0
-0.01833605 -0.02788394 0.10000000 0 0 0 0
-0.04008891 -0.07667048 0.09984542 0 0 0 0
0.00710868 -0.02213799 -0.10000000 0 0 0 0
-0.03585605 -0.07507197 0.10000000 0 0 0 0
0.02745808 0.02525963 -0.10000000 0 0 0 0
-0.02419138 -0.02015834 0.10000000 0 0 0 0
-0.00075012 -0.00593440 -0.10000000 0 0 0 0
-0.01392474 0.02572441 0.10000000 0 0 0 0
-0.07849462 0.02757006 -0.10000000 0 0 0 0
0.04909682 0.06890365 -0.00212656 0 0 0 0
0.05383126 -0.06481095 -0.04841961 0 0 0 0
-0.00572522 -0.01388936 -0.10000000 0 0 0 0
