ply
format ascii 1.0
comment https://github.com/mikedh/trimesh
element vertex 1122
property float x
property float y
property float z
property uchar red
property uchar green
property uchar blue
property uchar alpha
end_header
-0.00385682 0.09614318 0.07026686 0 0 0 0
0.06703468 0.02150428 0.10000000 0 0 0 0
0.05613344 -0.04386656 0.06476197 0 0 0 0
0.04255843 0.05744157 -0.06585071 0 0 0 0
0.01388366 -0.00547901 -0.10000000 0 0 0 0
0.00385254 -0.01511822 -0.10000000 0 0 0 0
0.02884622 0.04876075 -0.10000000 0 0 0 0
-0.04882815 -0.05117186 0.09991378 0 0 0 0
0.08322088 0.01677911 -0.09597609 0 0 0 0
-0.01226433 0.08773567 0.05772876 0 0 0 0
-0.00368065 0.08208904 -0.10000000 0 0 0 0
-0.02997020 -0.02858811 0.10000000 0 0 0 0
-0.02457293 0.05403905 -0.10000000 0 0 0 0
-0.01052160 -0.03924011 -0.10000000 0 0 0 0
-0.08340047 -0.01659953 0.03154504 0 0 0 0
0.02864468 -0.03970426 0.10000000 0 0 0 0
-0.08308335 0.01691665 0.00574521 0 0 0 0
0.00469841 -0.00205529 -0.10000000 0 0 0 0
0.09272429 -0.00727572 0.05743008 0 0 0 0
0.09808205 -0.00191795 -0.08549228 0 0 0 0
0.02203148 -0.00199195 -0.10000000 0 0 0 0
-0.08149625 0.01850375 0.01075122 0 0 0 0
0.09760392 -0.00239608 0.02662469 0 0 0 0
-0.01837296 -0.07943136 -0.10000000 0 0 0 0
0.04926766 -0.03737144 -0.10000000 0 0 0 0
0.01120389 -0.00653880 -0.10000000 0 0 0 0
0.01313455 0.02640185 -0.10000000 0 0 0 0
0.01057999 0.08942001 -0.00631129 0 0 0 0
-0.01242680 -0.08757319 -0.01297629 0 0 0 0
-0.06788025 0.01630224 -0.10000000 0 0 0 0
0.00205877 0.09790336 0.09970970 0 0 0 0
0.03717390 -0.04804620 0.10000000 0 0 0 0
0.02291539 -0.07708461 -0.05786398 0 0 0 0
-0.03072981 0.02073671 -0.10000000 0 0 0 0
0.08732012 0.01267988 -0.02423589 0 0 0 0
0.02724608 -0.03222933 -0.10000000 0 0 0 0
0.05238823 0.04761177 0.07321747 0 0 0 0
-0.00464119 0.02083292 0.10000000 0 0 0 0
0.01364263 -0.00137409 -0.10000000 0 0 0 0
-0.02818608 -0.03550053 -0.10000000 0 0 0 0
-0.02793876 0.04077951 -0.10000000 0 0 0 0
0.05442886 0.02692457 -0.10000000 0 0 0 0
-0.02561811 -0.01580879 0.10000000 0 0 0 0
-0.06669441 0.01409178 -0.10000000 0 0 0 0
-0.03728367 0.06271634 0.04499713 0 0 0 0
-0.03822029 -0.06177970 -0.02223461 0 0 0 0
0.05231382 -0.02509489 0.10000000 0 0 0 0
0.05866529 0.04133471 -0.09024806 0 0 0 0
-0.03746500 -0.06253500 0.04264567 0 0 0 0
0.01057705 0.01981469 -0.10000000 0 0 0 0
-0.06243598 -0.03756402 -0.06956892 0 0 0 0
-0.07908901 0.02091099 0.07734493 0 0 0 0
0.04424428 -0.01025240 -0.10000000 0 0 0 0
0.06887536 0.03112464 0.09095698 0 0 0 0
0.05740222 -0.01626905 -0.10000000 0 0 0 0
0.05980618 -0.04019382 0.03101363 0 0 0 0
0.01244802 -0.08755197 -0.02845380 0 0 0 0
0.00005310 0.00922411 0.10000000 0 0 0 0
0.07321990 -0.02678010 -0.05686771 0 0 0 0
-0.03413443 -0.05343782 -0.10000000 0 0 0 0
-0.09876792 -0.00123208 -0.03690317 0 0 0 0
-0.06471576 -0.03528424 -0.04659138 0 0 0 0
-0.05864855 0.04135145 0.09311126 0 0 0 0
-0.04250744 -0.05749255 0.09339464 0 0 0 0
-0.00540821 -0.07869119 -0.10000000 0 0 0 0
-0.07694475 0.01206127 0.10000000 0 0 0 0
0.00872876 0.00976068 0.10000000 0 0 0 0
-0.04904895 0.05095105 -0.08554076 0 0 0 0
-0.05775505 0.01307895 -0.10000000 0 0 0 0
0.00057505 0.03905790 0.10000000 0 0 0 0
0.04016049 0.05983951 -0.02478178 0 0 0 0
0.05288313 -0.03043589 0.10000000 0 0 0 0
0.01781998 0.01739233 -0.10000000 0 0 0 0
0.01276332 0.08723668 0.07951274 0 0 0 0
-0.02400497 0.06188181 -0.10000000 0 0 0 0
0.00963566 -0.08539751 0.10000000 0 0 0 0
-0.06660111 -0.03339889 0.03449222 0 0 0 0
0.01467492 0.03605345 -0.10000000 0 0 0 0
-0.06175454 0.03824546 -0.07155024 0 0 0 0
-0.03633156 0.06366844 0.04524698 0 0 0 0
-0.04004426 0.00443525 0.10000000 0 0 0 0
0.01405435 -0.08594565 -0.09414043 0 0 0 0
-0.00273253 -0.05297658 -0.10000000 0 0 0 0
-0.06471220 -0.03528780 -0.07068737 0 0 0 0
-0.00935306 0.00379193 0.10000000 0 0 0 0
0.09784826 -0.00215174 0.04226385 0 0 0 0
0.07182442 0.02817558 -0.01147599 0 0 0 0
0.09857561 -0.00128305 0.07281861 0 0 0 0
0.01963488 0.08036511 -0.06965242 0 0 0 0
0.02299621 -0.03777645 0.10000000 0 0 0 0
-0.00319192 -0.00258730 0.10000000 0 0 0 0
0.00259097 -0.02977076 0.10000000 0 0 0 0
-0.04425041 0.05574960 -0.08807499 0 0 0 0
0.02856992 -0.02687763 -0.10000000 0 0 0 0
-0.05683871 0.00886728 0.10000000 0 0 0 0
0.08366685 -0.01633316 -0.08902527 0 0 0 0
-0.08910447 -0.01089553 0.00639641 0 0 0 0
0.01770998 0.00090748 -0.10000000 0 0 0 0
-0.04266910 0.01434574 0.10000000 0 0 0 0
-0.02480704 -0.00202899 0.10000000 0 0 0 0
-0.03131570 -0.01423259 -0.10000000 0 0 0 0
-0.01698742 -0.02810196 0.10000000 0 0 0 0
0.00715701 0.00601489 0.10000000 0 0 0 0
-0.08538707 0.01461294 -0.09042932 0 0 0 0
0.06032845 0.03967155 -0.09823979 0 0 0 0
-0.00555014 -0.00334650 -0.10000000 0 0 0 0
0.02757826 -0.03063340 -0.10000000 0 0 0 0
0.02252563 -0.07747437 -0.06295846 0 0 0 0
0.04366980 -0.05633020 -0.03719911 0 0 0 0
0.00027078 -0.09907795 0.04381295 0 0 0 0
0.00075927 0.01901056 -0.10000000 0 0 0 0
0.02316389 -0.07683610 -0.06880029 0 0 0 0
0.04528550 0.05471449 -0.06066375 0 0 0 0
-0.09394033 0.00605966 -0.02173811 0 0 0 0
-0.01882262 0.08117738 -0.04424892 0 0 0 0
-0.05631654 -0.02035336 -0.10000000 0 0 0 0
-0.03608353 0.05677216 0.10000000 0 0 0 0
-0.04819405 -0.05180595 0.01230631 0 0 0 0
0.00151284 0.00042504 0.10000000 0 0 0 0
0.03951652 -0.06048349 -0.09385902 0 0 0 0
0.03432928 0.05292209 0.10000000 0 0 0 0
-0.00307030 0.05513626 0.10000000 0 0 0 0
0.06922281 0.03077719 -0.02091863 0 0 0 0
-0.01794526 -0.00686866 -0.10000000 0 0 0 0
-0.00287541 0.01235702 0.10000000 0 0 0 0
0.00625592 -0.09374408 0.02802330 0 0 0 0
-0.01378204 -0.08621795 0.06335718 0 0 0 0
0.01048283 0.08951716 -0.08133796 0 0 0 0
-0.05289425 0.04710574 -0.03307932 0 0 0 0
-0.02991087 -0.03169271 -0.10000000 0 0 0 0
-0.01816954 0.00469214 -0.10000000 0 0 0 0
0.04851875 0.01832388 -0.10000000 0 0 0 0
0.02749341 -0.01371961 -0.10000000 0 0 0 0
-0.03607808 -0.06392191 0.07527690 0 0 0 0
0.06979077 0.03020923 -0.03133876 0 0 0 0
0.08663117 -0.01336883 0.02826818 0 0 0 0
0.04131600 0.02544572 0.10000000 0 0 0 0
-0.01852047 0.00642801 -0.10000000 0 0 0 0
-0.01657099 0.01351100 0.10000000 0 0 0 0
-0.00424628 0.09540165 -0.10000000 0 0 0 0
-0.02235487 0.00952192 -0.10000000 0 0 0 0
-0.03929020 0.06070980 -0.01990790 0 0 0 0
-0.08454238 -0.01545762 0.04089047 0 0 0 0
0.05672165 0.03187887 0.10000000 0 0 0 0
-0.00690764 0.09309237 -0.03650889 0 0 0 0
-0.03861276 0.01025827 0.10000000 0 0 0 0
0.02387168 0.06320023 -0.10000000 0 0 0 0
0.00559880 -0.00370278 -0.10000000 0 0 0 0
-0.01698077 0.00737178 -0.10000000 0 0 0 0
0.00269131 0.00230242 0.10000000 0 0 0 0
0.08223610 0.01776390 -0.06438573 0 0 0 0
-0.00900837 0.04994931 -0.10000000 0 0 0 0
0.03785019 0.06214980 0.02637481 0 0 0 0
0.00110583 -0.00424673 0.10000000 0 0 0 0
0.08972689 0.01027311 -0.06424286 0 0 0 0
-0.01329598 -0.07988685 0.10000000 0 0 0 0
0.04480749 0.05519251 0.00533784 0 0 0 0
0.03939502 0.04164821 -0.10000000 0 0 0 0
0.08760675 0.01239325 0.00557363 0 0 0 0
0.07250582 -0.02749419 0.04861813 0 0 0 0
0.05059103 0.04940896 0.09384229 0 0 0 0
0.00193571 -0.09806429 0.08662875 0 0 0 0
-0.05610160 0.04389840 -0.05504143 0 0 0 0
0.04245859 0.00030082 -0.10000000 0 0 0 0
0.05773863 0.00383051 -0.10000000 0 0 0 0
0.06443278 -0.03556722 -0.07854526 0 0 0 0
-0.01218503 0.05451394 0.10000000 0 0 0 0
0.00077379 0.00375924 0.10000000 0 0 0 0
0.00938085 0.08109948 0.10000000 0 0 0 0
0.03640139 -0.06359861 -0.05373245 0 0 0 0
-0.02927297 -0.07072703 0.04674423 0 0 0 0
0.05718613 -0.04281387 -0.03929664 0 0 0 0
-0.09683200 0.00316800 -0.09263892 0 0 0 0
-0.00084009 0.01669877 -0.10000000 0 0 0 0
0.06519248 0.03480753 -0.06754497 0 0 0 0
-0.00059665 -0.00376923 -0.10000000 0 0 0 0
0.08038545 0.00509312 0.10000000 0 0 0 0
0.04190479 0.03963953 0.10000000 0 0 0 0
-0.05343349 -0.00964333 -0.10000000 0 0 0 0
-0.09942155 -0.00012996 0.04595520 0 0 0 0
-0.05556021 0.04443979 0.01258217 0 0 0 0
-0.01371563 0.00204427 -0.10000000 0 0 0 0
-0.02993815 -0.01156150 -0.10000000 0 0 0 0
0.00497373 0.00810182 -0.10000000 0 0 0 0
0.03770190 0.06229810 0.02420412 0 0 0 0
-0.00034043 0.00989872 0.10000000 0 0 0 0
-0.04723856 -0.05276144 0.00103602 0 0 0 0
-0.08784384 0.01215617 -0.01814927 0 0 0 0
-0.02288420 -0.02538368 -0.10000000 0 0 0 0
0.03817508 -0.02783857 -0.10000000 0 0 0 0
0.02391441 0.04703590 -0.10000000 0 0 0 0
0.04701119 -0.05298882 0.06164229 0 0 0 0
0.02563789 -0.02049770 0.10000000 0 0 0 0
-0.07647268 -0.02352731 -0.01599176 0 0 0 0
-0.04959487 0.05040513 0.08669890 0 0 0 0
0.08702938 -0.01297062 0.01323587 0 0 0 0
-0.01088803 -0.00771975 0.10000000 0 0 0 0
-0.00031598 0.02382576 0.10000000 0 0 0 0
0.01551925 -0.08448075 0.08431342 0 0 0 0
-0.01175992 0.07344783 -0.10000000 0 0 0 0
-0.04668327 -0.05331672 -0.03498404 0 0 0 0
0.00002705 -0.01014599 -0.10000000 0 0 0 0
-0.05384453 0.03477215 0.10000000 0 0 0 0
0.02233012 0.07766987 -0.06649639 0 0 0 0
-0.01653177 -0.08346823 0.07746106 0 0 0 0
0.02653404 -0.00457464 -0.10000000 0 0 0 0
-0.09445979 -0.00554020 0.04946432 0 0 0 0
0.01148468 0.08851533 0.00360768 0 0 0 0
0.04800584 -0.05199416 -0.00507338 0 0 0 0
-0.01474814 -0.07437084 0.10000000 0 0 0 0
-0.08744239 -0.01255761 -0.01732573 0 0 0 0
0.01701841 0.00867843 0.10000000 0 0 0 0
0.00101774 0.02775018 -0.10000000 0 0 0 0
-0.05542950 0.04457051 -0.00456721 0 0 0 0
-0.04951598 -0.02203278 0.10000000 0 0 0 0
0.00693891 0.00361088 -0.10000000 0 0 0 0
0.05488192 -0.04511808 -0.00704347 0 0 0 0
-0.08649896 -0.01350105 -0.05804855 0 0 0 0
0.07507743 0.00472952 0.10000000 0 0 0 0
-0.05808780 -0.04191221 0.05693957 0 0 0 0
0.01804429 -0.08195571 -0.08345165 0 0 0 0
0.02108666 0.02150135 0.10000000 0 0 0 0
0.09703009 -0.00296991 0.03813233 0 0 0 0
-0.09655316 0.00344684 -0.06155398 0 0 0 0
0.01044322 -0.02444512 0.10000000 0 0 0 0
0.02232509 0.02308487 -0.10000000 0 0 0 0
0.03733205 0.06266795 -0.00646596 0 0 0 0
-0.02938792 -0.07061209 -0.00154892 0 0 0 0
-0.00314989 0.01841258 0.10000000 0 0 0 0
0.04277770 0.01636587 0.10000000 0 0 0 0
0.05222793 -0.04777207 -0.03037431 0 0 0 0
-0.03374457 -0.03620223 -0.10000000 0 0 0 0
-0.04530628 0.05469372 0.05961723 0 0 0 0
0.01818499 0.01347523 0.10000000 0 0 0 0
0.00384565 -0.00318174 -0.10000000 0 0 0 0
0.04267997 -0.05732002 0.02465585 0 0 0 0
0.05044664 -0.04955336 -0.01137581 0 0 0 0
-0.02677267 0.04625548 0.10000000 0 0 0 0
0.00613162 0.09386837 0.00372209 0 0 0 0
0.01976849 -0.00960812 0.10000000 0 0 0 0
-0.00912013 -0.00982872 -0.10000000 0 0 0 0
0.00175365 -0.00002799 -0.10000000 0 0 0 0
-0.01621692 -0.08378308 -0.01632087 0 0 0 0
-0.04827165 0.01372038 -0.10000000 0 0 0 0
-0.04045859 0.05954141 0.01459117 0 0 0 0
0.00026063 -0.01856977 -0.10000000 0 0 0 0
-0.00370449 0.09629551 0.02607863 0 0 0 0
-0.00095774 0.02751523 -0.10000000 0 0 0 0
0.02311045 -0.00342225 -0.10000000 0 0 0 0
0.06922514 -0.01465247 -0.10000000 0 0 0 0
-0.07401551 -0.02598449 0.01687063 0 0 0 0
0.02440514 -0.07559486 0.07487973 0 0 0 0
-0.02464120 0.00769468 0.10000000 0 0 0 0
-0.05123409 0.03848054 -0.10000000 0 0 0 0
-0.03192220 0.03991478 -0.10000000 0 0 0 0
-0.05931780 -0.04068220 -0.09643505 0 0 0 0
-0.01518586 0.08481414 0.01879873 0 0 0 0
-0.04402702 0.03237632 -0.10000000 0 0 0 0
0.06054918 -0.03945083 -0.08578606 0 0 0 0
0.02499468 0.06775056 0.10000000 0 0 0 0
-0.07583553 -0.02416447 0.01169318 0 0 0 0
-0.05295949 -0.04704051 -0.07948468 0 0 0 0
-0.00087668 -0.09907795 0.07775144 0 0 0 0
0.02927087 0.07072913 -0.05284528 0 0 0 0
-0.07767221 -0.02232780 -0.07317282 0 0 0 0
0.02149483 -0.07850517 -0.00345208 0 0 0 0
-0.00696011 0.09303989 0.06558351 0 0 0 0
-0.02223116 0.03783710 0.10000000 0 0 0 0
-0.09843032 -0.00156968 -0.00111472 0 0 0 0
-0.05791915 -0.00554018 0.10000000 0 0 0 0
-0.00221262 0.06185921 -0.10000000 0 0 0 0
-0.00554190 0.09445810 -0.02855330 0 0 0 0
-0.05008721 0.00016555 0.10000000 0 0 0 0
0.02293577 0.06999304 -0.10000000 0 0 0 0
-0.01649926 0.08350074 0.03521989 0 0 0 0
-0.00077543 -0.00324014 0.10000000 0 0 0 0
-0.07276068 -0.02723932 -0.03297854 0 0 0 0
0.04227569 0.05031567 0.10000000 0 0 0 0
-0.02177305 0.07822695 -0.02176744 0 0 0 0
-0.01029019 0.03370089 -0.10000000 0 0 0 0
0.06433448 0.00868191 -0.10000000 0 0 0 0
0.02555135 -0.07444865 0.03986809 0 0 0 0
0.06965482 0.00769958 -0.10000000 0 0 0 0
-0.01636676 -0.00421955 -0.10000000 0 0 0 0
-0.04177879 -0.01923225 -0.10000000 0 0 0 0
-0.06285955 0.03714046 0.03938103 0 0 0 0
-0.04534319 -0.00067830 -0.10000000 0 0 0 0
-0.05660035 -0.01392471 0.10000000 0 0 0 0
0.02816503 -0.00354982 0.10000000 0 0 0 0
-0.00511857 0.09488143 -0.07716271 0 0 0 0
-0.07370189 -0.02629811 -0.06316081 0 0 0 0
0.08391026 -0.01608973 0.03847153 0 0 0 0
-0.09720255 -0.00279746 -0.03971210 0 0 0 0
0.08718716 -0.01281284 -0.08346409 0 0 0 0
0.08124708 0.01875292 -0.00552120 0 0 0 0
-0.08224559 0.01350273 -0.10000000 0 0 0 0
0.00684037 0.09315963 -0.09273390 0 0 0 0
0.01160701 0.04032381 0.10000000 0 0 0 0
0.04823976 -0.01083359 -0.10000000 0 0 0 0
-0.00042131 -0.00559586 -0.10000000 0 0 0 0
-0.06111892 0.03888107 -0.02664402 0 0 0 0
-0.01926007 -0.06794439 -0.10000000 0 0 0 0
-0.01528191 0.00800483 -0.10000000 0 0 0 0
-0.06362259 0.03637741 0.02414741 0 0 0 0
0.01250394 -0.03394210 -0.10000000 0 0 0 0
-0.02449704 0.07550295 0.03475623 0 0 0 0
-0.05822168 -0.04177833 -0.06382660 0 0 0 0
0.02375071 0.03136794 -0.10000000 0 0 0 0
0.01720182 0.04045246 -0.10000000 0 0 0 0
-0.01290781 -0.08709218 0.05354561 0 0 0 0
0.08185969 0.01814030 0.08003454 0 0 0 0
0.04803925 0.02158391 -0.10000000 0 0 0 0
-0.06732930 -0.01683881 0.10000000 0 0 0 0
-0.05530561 0.04469439 0.08471037 0 0 0 0
-0.05425998 -0.01933339 0.10000000 0 0 0 0
0.00081209 -0.00723785 -0.10000000 0 0 0 0
0.06337500 -0.03662500 -0.08572774 0 0 0 0
-0.02345303 0.04807764 0.10000000 0 0 0 0
-0.00122810 -0.03516725 -0.10000000 0 0 0 0
0.06602300 0.03397701 -0.03249013 0 0 0 0
-0.03764279 -0.01066973 0.10000000 0 0 0 0
0.02420280 -0.07579720 -0.00347521 0 0 0 0
0.04627714 0.05372285 0.09598424 0 0 0 0
0.07271151 0.02728849 0.06057854 0 0 0 0
0.01001096 0.01374773 0.10000000 0 0 0 0
0.05022442 0.02871375 0.10000000 0 0 0 0
-0.06915526 -0.03084474 0.09645845 0 0 0 0
-0.00361124 0.03361130 -0.10000000 0 0 0 0
0.05708896 -0.04291103 0.06158566 0 0 0 0
-0.01621924 0.06718560 -0.10000000 0 0 0 0
0.06511771 0.03488229 0.07704368 0 0 0 0
0.01546338 -0.05412638 0.10000000 0 0 0 0
0.06654993 -0.03345007 0.05491772 0 0 0 0
0.06298237 -0.03701764 -0.09504472 0 0 0 0
0.07269485 0.02730515 0.09119306 0 0 0 0
-0.03162370 0.01999748 -0.10000000 0 0 0 0
-0.05502637 -0.03076001 -0.10000000 0 0 0 0
-0.02828975 0.07171025 -0.05814324 0 0 0 0
0.06319441 0.03174444 -0.10000000 0 0 0 0
-0.01276105 0.08723895 0.00338314 0 0 0 0
-0.00083772 0.03077058 -0.10000000 0 0 0 0
0.01840344 -0.01700790 -0.10000000 0 0 0 0
0.03706898 0.02684353 -0.10000000 0 0 0 0
-0.08183830 -0.01816170 -0.09577732 0 0 0 0
0.01886604 -0.05489494 0.10000000 0 0 0 0
-0.07336503 0.01307127 -0.10000000 0 0 0 0
-0.05009188 0.04990812 -0.07127967 0 0 0 0
-0.08861116 0.01138884 -0.08104695 0 0 0 0
-0.01201040 -0.07474261 0.10000000 0 0 0 0
0.01132736 -0.08867264 -0.00357960 0 0 0 0
0.03353165 0.00044426 -0.10000000 0 0 0 0
-0.01780064 0.08219936 -0.00630528 0 0 0 0
-0.03686301 0.06313699 0.09018742 0 0 0 0
0.02415770 0.07584231 -0.08122654 0 0 0 0
0.01881746 -0.08118254 0.03763270 0 0 0 0
-0.01113053 0.00093303 -0.10000000 0 0 0 0
-0.01032201 -0.08967798 -0.03625525 0 0 0 0
-0.03357288 -0.06642712 0.04297495 0 0 0 0
-0.05313070 -0.04686930 0.06292810 0 0 0 0
0.04780259 0.05219742 -0.00924279 0 0 0 0
-0.02355262 0.07644738 0.08928073 0 0 0 0
0.03183804 -0.06816196 -0.08157839 0 0 0 0
-0.00900652 0.02314954 -0.10000000 0 0 0 0
0.09673744 0.00326255 0.01260240 0 0 0 0
0.03243436 0.02467118 -0.10000000 0 0 0 0
-0.00004721 0.09975896 -0.08406718 0 0 0 0
0.00295592 -0.00401321 -0.10000000 0 0 0 0
-0.06652369 -0.03347632 0.08693455 0 0 0 0
0.01853762 -0.06548011 0.10000000 0 0 0 0
-0.01562273 -0.08437727 0.07951280 0 0 0 0
0.04706052 0.04802845 -0.10000000 0 0 0 0
0.02798412 -0.07201588 0.02741935 0 0 0 0
0.05015102 -0.04984898 -0.05236313 0 0 0 0
0.05306556 0.03524315 -0.10000000 0 0 0 0
-0.05445058 0.00054261 -0.10000000 0 0 0 0
0.00152760 0.00964553 0.10000000 0 0 0 0
0.03841010 -0.02899614 -0.10000000 0 0 0 0
-0.04321675 -0.05678325 -0.01134800 0 0 0 0
-0.00570239 -0.09429761 0.06103314 0 0 0 0
-0.02755930 0.07244071 0.01046426 0 0 0 0
0.03963006 -0.05050121 -0.10000000 0 0 0 0
0.04464795 -0.02161374 0.10000000 0 0 0 0
-0.01047762 -0.01690210 -0.10000000 0 0 0 0
-0.00165412 0.02156737 -0.10000000 0 0 0 0
-0.07295734 0.02704266 -0.04673462 0 0 0 0
0.08810144 -0.01189856 0.07745934 0 0 0 0
-0.02261988 -0.02342167 -0.10000000 0 0 0 0
0.05218425 0.04781576 -0.01529171 0 0 0 0
-0.00638052 -0.00078347 -0.10000000 0 0 0 0
-0.04230559 0.02739624 -0.10000000 0 0 0 0
0.00620191 -0.01282058 -0.10000000 0 0 0 0
-0.01669125 -0.08330874 0.06872679 0 0 0 0
0.01110368 0.02057655 -0.10000000 0 0 0 0
0.02543741 0.07456259 -0.03709229 0 0 0 0
-0.01590507 -0.00200437 0.10000000 0 0 0 0
-0.03845879 0.06154121 -0.07571017 0 0 0 0
-0.00074912 0.02904605 0.10000000 0 0 0 0
-0.01515227 -0.07969212 -0.10000000 0 0 0 0
-0.01382686 -0.00215570 -0.10000000 0 0 0 0
-0.03779874 0.01507344 0.10000000 0 0 0 0
0.07760065 -0.02239935 0.09581380 0 0 0 0
-0.00593740 0.06320623 -0.10000000 0 0 0 0
-0.00386356 -0.01998999 -0.10000000 0 0 0 0
-0.04709660 -0.00037939 -0.10000000 0 0 0 0
-0.00669450 0.01056270 0.10000000 0 0 0 0
0.01890975 0.00968623 0.10000000 0 0 0 0
0.00672804 0.01214010 -0.10000000 0 0 0 0
-0.03903668 0.01495062 0.10000000 0 0 0 0
-0.00518486 -0.02209421 -0.10000000 0 0 0 0
0.04758469 0.03851974 -0.10000000 0 0 0 0
-0.00400307 -0.00848104 0.10000000 0 0 0 0
0.09955598 0.00044401 0.05012872 0 0 0 0
0.00920312 -0.09079688 0.08990767 0 0 0 0
-0.01602135 0.00343406 -0.10000000 0 0 0 0
-0.04792154 -0.05207846 0.00258059 0 0 0 0
-0.07675926 0.02324074 -0.04511461 0 0 0 0
-0.03139595 -0.00324138 -0.10000000 0 0 0 0
0.00231544 -0.01515325 -0.10000000 0 0 0 0
0.00077034 -0.09907795 0.01661870 0 0 0 0
0.00823991 -0.09176009 0.03760643 0 0 0 0
-0.00645545 -0.00169339 0.10000000 0 0 0 0
0.05418338 0.04581662 -0.04021852 0 0 0 0
-0.03515968 0.04666011 -0.10000000 0 0 0 0
0.03785479 -0.06214521 0.07374407 0 0 0 0
0.04688975 -0.04782398 0.10000000 0 0 0 0
-0.03222027 0.00330831 -0.10000000 0 0 0 0
0.00940258 0.09059742 0.09598787 0 0 0 0
-0.06817373 -0.00065609 -0.10000000 0 0 0 0
-0.04983630 0.05016370 0.09945275 0 0 0 0
0.00120243 -0.09879757 0.06417952 0 0 0 0
-0.09380772 -0.00619228 0.09151887 0 0 0 0
0.00974330 -0.09025670 0.07070065 0 0 0 0
-0.06619636 -0.03380365 0.09538032 0 0 0 0
-0.00372715 0.01478087 0.10000000 0 0 0 0
-0.03608777 0.06391223 -0.01797233 0 0 0 0
0.01014350 0.03444172 0.10000000 0 0 0 0
-0.01398269 -0.04506235 0.10000000 0 0 0 0
0.00685317 0.00734093 -0.10000000 0 0 0 0
0.01529799 0.05747367 -0.10000000 0 0 0 0
-0.06764308 -0.03235693 0.03778330 0 0 0 0
0.04867912 0.05132087 -0.07994793 0 0 0 0
-0.03298166 -0.06701834 -0.04642606 0 0 0 0
-0.05473206 -0.04526794 0.04237927 0 0 0 0
-0.03542548 -0.06457452 -0.02765867 0 0 0 0
0.00887005 -0.05005495 -0.10000000 0 0 0 0
0.01218746 -0.00648569 0.10000000 0 0 0 0
0.01921139 -0.05990590 -0.10000000 0 0 0 0
-0.07731193 0.02268806 0.06234978 0 0 0 0
0.07807623 0.02192377 -0.05462031 0 0 0 0
0.07334580 -0.02665420 0.00901815 0 0 0 0
-0.06890830 0.03109170 0.00292068 0 0 0 0
-0.04742601 0.03310315 -0.10000000 0 0 0 0
-0.00704275 0.05223764 -0.10000000 0 0 0 0
0.01692083 -0.06515978 -0.10000000 0 0 0 0
-0.05179184 -0.04820816 -0.07319976 0 0 0 0
-0.00214614 -0.09785385 0.09889859 0 0 0 0
-0.08959551 0.01040449 -0.04915785 0 0 0 0
-0.02300829 0.07000028 -0.10000000 0 0 0 0
-0.02881843 -0.07094307 -0.10000000 0 0 0 0
-0.05330609 -0.00557650 0.10000000 0 0 0 0
-0.01239711 0.08760289 -0.06811336 0 0 0 0
0.03684045 0.01363673 -0.10000000 0 0 0 0
0.01789559 0.08210441 0.08327518 0 0 0 0
0.01796331 0.01288763 -0.10000000 0 0 0 0
-0.00951090 -0.01484374 0.10000000 0 0 0 0
0.06543257 -0.03456743 -0.03987845 0 0 0 0
-0.01261945 0.08738054 -0.03846855 0 0 0 0
-0.09779878 -0.00220122 0.00789624 0 0 0 0
0.04006305 0.05421177 0.10000000 0 0 0 0
0.00677371 0.09322629 -0.08205099 0 0 0 0
-0.07445401 -0.02554599 -0.09012396 0 0 0 0
-0.01786155 -0.08213846 -0.09194903 0 0 0 0
0.05160268 -0.01663990 -0.10000000 0 0 0 0
-0.04894523 0.05105477 0.08960672 0 0 0 0
0.03665934 0.06334066 -0.02310744 0 0 0 0
-0.04657080 0.05342920 -0.07315847 0 0 0 0
-0.01445663 0.08554337 -0.02251403 0 0 0 0
0.05696051 0.04303949 0.02118134 0 0 0 0
0.06318441 -0.03681559 -0.04756622 0 0 0 0
0.08728347 0.01271653 -0.07455774 0 0 0 0
0.04407553 0.05592447 0.09452510 0 0 0 0
0.03830536 -0.06169464 -0.01681734 0 0 0 0
0.00590635 0.03197138 0.10000000 0 0 0 0
-0.01460655 -0.08539345 -0.00272588 0 0 0 0
-0.03790293 0.00923912 -0.10000000 0 0 0 0
-0.05227301 0.04772700 0.09621418 0 0 0 0
-0.02424698 0.04930633 0.10000000 0 0 0 0
0.08358938 -0.01641062 0.05921240 0 0 0 0
-0.01203602 -0.03230421 -0.10000000 0 0 0 0
0.04313549 -0.02751849 0.10000000 0 0 0 0
0.00596901 0.00079952 -0.10000000 0 0 0 0
0.00210585 -0.00650340 -0.10000000 0 0 0 0
0.01391641 0.08608359 0.03412734 0 0 0 0
0.00361103 -0.00021397 -0.10000000 0 0 0 0
-0.00406639 -0.02351657 -0.10000000 0 0 0 0
-0.03163001 -0.03522515 0.10000000 0 0 0 0
-0.03826413 0.02659418 -0.10000000 0 0 0 0
0.04902441 0.02669129 -0.10000000 0 0 0 0
0.00446936 0.00364371 0.10000000 0 0 0 0
0.05942083 -0.03439605 0.10000000 0 0 0 0
0.02716658 0.00320783 -0.10000000 0 0 0 0
0.00122261 -0.02021414 0.10000000 0 0 0 0
-0.08412771 -0.01587229 -0.08844969 0 0 0 0
-0.02703906 -0.07296094 -0.08639347 0 0 0 0
-0.00465221 -0.09534779 -0.05796127 0 0 0 0
-0.00764418 -0.00380223 0.10000000 0 0 0 0
-0.00326777 -0.09673223 0.08515593 0 0 0 0
0.03877189 -0.06122810 0.00714599 0 0 0 0
-0.03215930 -0.06784070 -0.00768160 0 0 0 0
0.05788675 0.04211325 0.04924668 0 0 0 0
-0.02705939 0.05682973 -0.10000000 0 0 0 0
0.01171729 -0.00207094 -0.10000000 0 0 0 0
-0.07009029 0.02522952 -0.10000000 0 0 0 0
0.07290453 0.00785549 -0.10000000 0 0 0 0
-0.03606558 -0.02679867 0.10000000 0 0 0 0
0.01350635 0.08649366 0.02859848 0 0 0 0
0.00734242 -0.00688657 -0.10000000 0 0 0 0
0.00325057 0.02192102 -0.10000000 0 0 0 0
0.08921531 -0.01078469 -0.05154450 0 0 0 0
-0.01779575 0.08220425 0.01341534 0 0 0 0
0.07331479 0.02668520 -0.06200239 0 0 0 0
0.01212339 0.07900111 0.10000000 0 0 0 0
-0.02742473 -0.02624513 -0.10000000 0 0 0 0
-0.01664263 -0.08335737 0.01162177 0 0 0 0
-0.00312245 -0.09687755 0.03135438 0 0 0 0
0.09981100 0.00018900 -0.05690990 0 0 0 0
0.03507151 -0.03802515 0.10000000 0 0 0 0
0.01819224 0.08180776 0.00666513 0 0 0 0
0.00689047 0.01313934 -0.10000000 0 0 0 0
0.02043801 0.00558404 0.10000000 0 0 0 0
0.09816328 0.00183672 -0.09164205 0 0 0 0
-0.05632003 0.00052686 -0.10000000 0 0 0 0
0.08588316 0.01411684 -0.00947776 0 0 0 0
0.03960761 0.06039239 -0.06123387 0 0 0 0
0.00434217 0.02790570 -0.10000000 0 0 0 0
0.03494055 0.04778188 -0.10000000 0 0 0 0
0.03673916 0.00298200 -0.10000000 0 0 0 0
0.02813157 0.00544059 -0.10000000 0 0 0 0
0.06215075 -0.03784925 0.01491543 0 0 0 0
0.03871841 -0.02303704 -0.10000000 0 0 0 0
-0.07592990 -0.02407010 -0.03299388 0 0 0 0
0.03537396 0.06462603 -0.03024394 0 0 0 0
0.00121612 0.09878388 0.06727441 0 0 0 0
-0.09944134 0.00016303 0.09078115 0 0 0 0
-0.00429931 -0.01808514 -0.10000000 0 0 0 0
0.01961243 -0.02062633 -0.10000000 0 0 0 0
-0.02415032 0.07584968 -0.00124151 0 0 0 0
0.02388407 -0.01858228 -0.10000000 0 0 0 0
-0.04344573 -0.05655428 -0.00568461 0 0 0 0
-0.03746618 0.06253381 -0.07083365 0 0 0 0
-0.09606787 0.00393213 -0.06676061 0 0 0 0
0.00104095 -0.01073888 -0.10000000 0 0 0 0
0.07518883 0.02481116 0.04945295 0 0 0 0
0.03435290 0.00140786 -0.10000000 0 0 0 0
-0.03362936 -0.02712263 -0.10000000 0 0 0 0
0.01298404 0.07103088 0.10000000 0 0 0 0
0.08771218 -0.01228783 -0.09928000 0 0 0 0
-0.00200592 0.02073724 -0.10000000 0 0 0 0
0.07965639 -0.02034361 -0.09659956 0 0 0 0
-0.00564064 -0.06769548 0.10000000 0 0 0 0
0.02786814 -0.07213186 -0.03009360 0 0 0 0
0.01618603 -0.07715601 -0.10000000 0 0 0 0
0.07023798 0.01157072 -0.10000000 0 0 0 0
-0.00884211 -0.04627788 0.10000000 0 0 0 0
-0.00194694 0.09805305 0.04037901 0 0 0 0
0.01562485 -0.08437515 0.07431154 0 0 0 0
-0.09869818 -0.00107832 0.06027737 0 0 0 0
-0.04990916 0.05009084 -0.06092474 0 0 0 0
0.04203274 0.05796726 0.02552489 0 0 0 0
0.01125103 -0.00199173 0.10000000 0 0 0 0
-0.09520619 0.00479381 -0.05241973 0 0 0 0
-0.06635773 0.01698294 -0.10000000 0 0 0 0
-0.06250654 -0.00881469 0.10000000 0 0 0 0
-0.08868070 -0.01131930 0.02435597 0 0 0 0
0.04171832 0.05828168 0.09616245 0 0 0 0
0.01100700 0.02822849 -0.10000000 0 0 0 0
-0.01370640 0.01133054 -0.10000000 0 0 0 0
0.00615129 -0.00310949 0.10000000 0 0 0 0
-0.00125456 -0.01127608 -0.10000000 0 0 0 0
-0.04215552 0.05784448 -0.07192780 0 0 0 0
0.03185408 -0.06814592 0.06534185 0 0 0 0
0.00330292 -0.04077319 0.10000000 0 0 0 0
-0.06228717 -0.03771283 -0.09847103 0 0 0 0
-0.00264970 0.01367957 0.10000000 0 0 0 0
-0.07640208 0.00298399 -0.10000000 0 0 0 0
0.09255742 0.00744257 0.04676728 0 0 0 0
0.08218288 -0.01781711 -0.05885180 0 0 0 0
0.04816877 -0.01251167 0.10000000 0 0 0 0
0.04593150 -0.05406851 0.05560895 0 0 0 0
0.00368316 0.09631684 0.08634338 0 0 0 0
-0.00668668 -0.00414117 -0.10000000 0 0 0 0
0.08929395 0.01070605 -0.04894312 0 0 0 0
0.08871760 0.01128240 -0.09188600 0 0 0 0
-0.03665124 0.06334876 0.05880968 0 0 0 0
-0.03612361 -0.03730246 -0.10000000 0 0 0 0
-0.07679366 -0.02320635 0.08704662 0 0 0 0
-0.05696503 0.04303496 0.03267812 0 0 0 0
-0.02373394 -0.07626607 -0.08499856 0 0 0 0
-0.00173986 0.00814778 -0.10000000 0 0 0 0
-0.06766917 -0.03233084 -0.00939305 0 0 0 0
-0.00142055 0.00333279 -0.10000000 0 0 0 0
0.00690811 -0.00525220 -0.10000000 0 0 0 0
0.01222228 -0.08777772 -0.06329381 0 0 0 0
-0.09265385 0.00734615 -0.03798955 0 0 0 0
-0.01103503 -0.08896497 0.00141659 0 0 0 0
0.00471139 0.07257941 -0.10000000 0 0 0 0
0.04176226 -0.02650901 -0.10000000 0 0 0 0
-0.09861892 -0.00121070 0.04196827 0 0 0 0
0.05279649 0.04720351 0.04713602 0 0 0 0
-0.02594544 0.05058903 -0.10000000 0 0 0 0
0.01006223 -0.00775219 -0.10000000 0 0 0 0
0.01554270 -0.08445730 0.09302761 0 0 0 0
0.00033151 0.09949670 -0.04577220 0 0 0 0
0.04285321 -0.05714679 0.04737076 0 0 0 0
0.00743853 0.07291544 -0.10000000 0 0 0 0
0.09802264 -0.00197736 0.04514289 0 0 0 0
0.02908975 -0.07091025 0.04481924 0 0 0 0
0.00542320 0.00516490 -0.10000000 0 0 0 0
-0.00432393 0.01578417 -0.10000000 0 0 0 0
-0.01642183 0.00829984 -0.10000000 0 0 0 0
0.03075853 -0.01411695 -0.10000000 0 0 0 0
0.01392469 -0.03366078 0.10000000 0 0 0 0
0.00112516 -0.01946635 -0.10000000 0 0 0 0
0.05295009 0.01778585 -0.10000000 0 0 0 0
-0.08016387 0.01253624 0.10000000 0 0 0 0
-0.01658778 0.08341222 -0.05710047 0 0 0 0
-0.08975297 0.01024703 -0.06510361 0 0 0 0
0.07791417 0.02208583 -0.02402386 0 0 0 0
0.01161074 0.00423012 0.10000000 0 0 0 0
-0.09171844 -0.00828156 -0.02711728 0 0 0 0
0.08311104 -0.01688896 0.08011823 0 0 0 0
0.00781683 -0.00653938 -0.10000000 0 0 0 0
-0.00979121 0.09020878 0.02037381 0 0 0 0
0.04682956 -0.03094548 -0.10000000 0 0 0 0
0.00693316 0.09306684 -0.06914089 0 0 0 0
0.00246938 0.01115827 -0.10000000 0 0 0 0
-0.01220910 0.02998231 0.10000000 0 0 0 0
-0.06885637 0.03114364 0.06795597 0 0 0 0
-0.04110155 -0.05889845 0.07722111 0 0 0 0
-0.02668888 0.00142277 -0.10000000 0 0 0 0
0.02387281 0.07612719 -0.09357618 0 0 0 0
0.01488289 -0.00151636 0.10000000 0 0 0 0
0.00280554 0.02442189 -0.10000000 0 0 0 0
-0.04449750 -0.05550250 0.05694895 0 0 0 0
0.02419557 0.07316305 -0.10000000 0 0 0 0
0.04873568 0.05126432 -0.06101001 0 0 0 0
0.02800326 0.07199673 0.06713033 0 0 0 0
-0.00024549 0.00406939 -0.10000000 0 0 0 0
0.01047812 0.00230254 -0.10000000 0 0 0 0
0.00393753 0.00026041 -0.10000000 0 0 0 0
0.00435671 -0.09564330 0.09759893 0 0 0 0
0.00602844 0.00969282 -0.10000000 0 0 0 0
0.05689462 0.04310538 0.00346303 0 0 0 0
0.02978331 0.05192324 -0.10000000 0 0 0 0
0.01445456 0.05729331 -0.10000000 0 0 0 0
0.06699987 -0.03300013 -0.08193834 0 0 0 0
0.04520250 0.01371129 -0.10000000 0 0 0 0
-0.02347028 0.07652972 -0.06144423 0 0 0 0
-0.00573814 0.00656064 -0.10000000 0 0 0 0
0.02480985 -0.07519015 0.02155414 0 0 0 0
0.00590840 0.01210475 -0.10000000 0 0 0 0
0.00337541 0.00283238 -0.10000000 0 0 0 0
-0.04312455 0.05687545 0.09577585 0 0 0 0
0.07629964 0.00660104 -0.10000000 0 0 0 0
-0.09352657 0.00647343 0.00313445 0 0 0 0
0.09028768 -0.00971232 0.05915657 0 0 0 0
0.02009326 0.04113530 -0.10000000 0 0 0 0
-0.01010153 0.01758275 -0.10000000 0 0 0 0
-0.06595646 0.03404355 0.00755949 0 0 0 0
0.00063029 0.01899811 0.10000000 0 0 0 0
-0.07675673 -0.02324327 0.06991122 0 0 0 0
0.06590295 0.03409705 0.02886212 0 0 0 0
0.04785937 -0.05214063 0.05271805 0 0 0 0
0.03795697 -0.01259129 0.10000000 0 0 0 0
-0.02261020 0.07738980 0.07245982 0 0 0 0
-0.00680283 -0.03522323 0.10000000 0 0 0 0
0.02975857 -0.07024143 0.04494530 0 0 0 0
-0.05063317 0.04936682 -0.04247381 0 0 0 0
0.01436043 -0.08563957 0.07046281 0 0 0 0
0.03137571 0.06862430 0.05102964 0 0 0 0
0.01119083 0.00523876 -0.10000000 0 0 0 0
0.00679159 0.09320841 -0.00500165 0 0 0 0
0.04844109 0.02547677 -0.10000000 0 0 0 0
0.04715326 0.02288451 -0.10000000 0 0 0 0
0.02478525 0.07521475 0.06981751 0 0 0 0
0.00183735 -0.02611046 0.10000000 0 0 0 0
0.01876746 0.08123254 0.07930473 0 0 0 0
-0.01166661 0.06007733 -0.10000000 0 0 0 0
0.01298580 -0.01783918 -0.10000000 0 0 0 0
0.01891075 -0.03645881 -0.10000000 0 0 0 0
-0.04638315 -0.05361686 -0.08742462 0 0 0 0
0.00987702 0.09012298 -0.03390911 0 0 0 0
-0.01947526 0.05686278 -0.10000000 0 0 0 0
-0.07882304 -0.02117696 0.09419294 0 0 0 0
-0.09514442 -0.00485558 0.09775718 0 0 0 0
-0.06511524 -0.03488476 0.03574200 0 0 0 0
-0.00758755 -0.01312525 -0.10000000 0 0 0 0
0.03690250 0.00610459 -0.10000000 0 0 0 0
-0.04225324 -0.02130969 -0.10000000 0 0 0 0
-0.00082246 0.09917755 0.06372423 0 0 0 0
0.04299071 -0.00106523 -0.10000000 0 0 0 0
0.00200589 0.00768842 -0.10000000 0 0 0 0
-0.00175996 0.03411854 -0.10000000 0 0 0 0
0.09647731 0.00352268 0.08932562 0 0 0 0
-0.01792302 -0.00448848 -0.10000000 0 0 0 0
-0.04577592 0.05422408 -0.01684702 0 0 0 0
-0.04953756 -0.04922296 -0.10000000 0 0 0 0
-0.01795175 -0.08204825 -0.02541603 0 0 0 0
-0.02324473 0.04810444 -0.10000000 0 0 0 0
-0.00690911 0.01962047 0.10000000 0 0 0 0
0.05422954 -0.01660881 0.10000000 0 0 0 0
0.08654054 -0.01345946 -0.06711049 0 0 0 0
-0.04848240 0.05151759 -0.00694941 0 0 0 0
-0.08176555 -0.00374611 0.10000000 0 0 0 0
-0.03300622 -0.06340604 -0.10000000 0 0 0 0
-0.01581801 0.02170353 -0.10000000 0 0 0 0
0.03418470 -0.06581531 -0.06391133 0 0 0 0
-0.00291833 -0.00160542 -0.10000000 0 0 0 0
-0.00422496 0.01630244 0.10000000 0 0 0 0
0.04154757 -0.00031199 -0.10000000 0 0 0 0
-0.00838705 0.09161295 0.06120603 0 0 0 0
-0.04009081 0.00903818 -0.10000000 0 0 0 0
0.02359071 -0.07640930 0.08333614 0 0 0 0
-0.08604591 -0.00906858 -0.10000000 0 0 0 0
-0.01946109 -0.02395025 -0.10000000 0 0 0 0
0.03753847 0.02476308 -0.10000000 0 0 0 0
-0.04059790 0.04595590 0.10000000 0 0 0 0
-0.04127375 -0.05872626 0.09256721 0 0 0 0
-0.00278039 -0.09022506 -0.10000000 0 0 0 0
0.03659712 -0.06340288 0.01506199 0 0 0 0
0.06554274 -0.03445727 0.09588754 0 0 0 0
0.03433892 -0.04823420 -0.10000000 0 0 0 0
0.00409092 -0.00401409 -0.10000000 0 0 0 0
-0.00249999 -0.03990415 -0.10000000 0 0 0 0
-0.03970025 -0.06029975 -0.01660042 0 0 0 0
-0.04926179 0.02871058 -0.10000000 0 0 0 0
-0.00946594 0.09053406 0.08854581 0 0 0 0
0.00648903 -0.09351097 0.03857832 0 0 0 0
-0.00272529 -0.02980556 -0.10000000 0 0 0 0
0.00557864 -0.01144350 -0.10000000 0 0 0 0
-0.08284162 -0.01715837 -0.06957966 0 0 0 0
-0.00102930 0.02624978 -0.10000000 0 0 0 0
-0.05360661 0.03931383 -0.10000000 0 0 0 0
0.05981849 -0.02931662 0.10000000 0 0 0 0
-0.03466651 -0.05265707 -0.10000000 0 0 0 0
-0.04853399 0.05146601 -0.03481660 0 0 0 0
-0.02685310 0.07020150 -0.10000000 0 0 0 0
-0.02914824 0.07085176 0.09635578 0 0 0 0
0.00956578 -0.02184577 0.10000000 0 0 0 0
-0.02636128 -0.01370045 -0.10000000 0 0 0 0
-0.04907172 0.05092828 -0.04341866 0 0 0 0
-0.06687230 0.03312770 0.02328877 0 0 0 0
0.03898334 0.06101666 -0.02661278 0 0 0 0
0.00370189 0.00044423 -0.10000000 0 0 0 0
0.02454935 -0.07545064 0.00590745 0 0 0 0
-0.02833979 -0.01436265 -0.10000000 0 0 0 0
0.09592517 0.00407483 0.07961414 0 0 0 0
-0.03777963 -0.06222037 -0.09894920 0 0 0 0
0.01998105 0.08001895 0.01610222 0 0 0 0
-0.04357515 0.05642485 0.02350460 0 0 0 0
0.07575883 -0.02424118 -0.05529119 0 0 0 0
-0.03640937 -0.00722181 -0.10000000 0 0 0 0
0.09645574 -0.00354426 -0.05254925 0 0 0 0
0.01757192 0.05509113 -0.10000000 0 0 0 0
-0.02664232 0.07335768 0.00124231 0 0 0 0
0.05717680 -0.04282320 0.00046848 0 0 0 0
-0.04295329 0.00195752 0.10000000 0 0 0 0
-0.01111722 0.06436154 -0.10000000 0 0 0 0
-0.07012207 -0.02987793 -0.08189569 0 0 0 0
-0.08650389 0.01349611 0.09139650 0 0 0 0
0.04666483 -0.03590721 -0.10000000 0 0 0 0
-0.04936522 0.05063478 -0.08559165 0 0 0 0
0.00341937 0.02879846 -0.10000000 0 0 0 0
0.01503539 0.02613806 -0.10000000 0 0 0 0
-0.00601234 0.02292035 0.10000000 0 0 0 0
0.02126232 -0.07873768 -0.05876449 0 0 0 0
0.03775990 -0.06098879 0.10000000 0 0 0 0
-0.04253225 -0.05451206 -0.10000000 0 0 0 0
-0.02637413 -0.06684520 -0.10000000 0 0 0 0
0.01829169 0.03342120 -0.10000000 0 0 0 0
0.04841627 0.01454079 -0.10000000 0 0 0 0
0.04972835 -0.00198822 -0.10000000 0 0 0 0
0.03255848 0.06744152 -0.06176646 0 0 0 0
-0.07031365 0.02968636 -0.01237894 0 0 0 0
0.02751236 -0.04985624 0.10000000 0 0 0 0
-0.03752292 -0.03378243 0.10000000 0 0 0 0
0.00007219 -0.01911647 0.10000000 0 0 0 0
-0.01326373 0.00839368 -0.10000000 0 0 0 0
-0.05724361 -0.04275639 0.05730586 0 0 0 0
-0.00179067 0.00022706 0.10000000 0 0 0 0
-0.01332773 0.08667227 0.06252452 0 0 0 0
0.06439786 -0.03560214 0.07329421 0 0 0 0
0.09014890 -0.00174707 -0.10000000 0 0 0 0
-0.01015517 -0.08984483 -0.03543951 0 0 0 0
0.04216601 0.04555496 -0.10000000 0 0 0 0
-0.00045791 -0.05308942 -0.10000000 0 0 0 0
-0.01368818 0.02549936 0.10000000 0 0 0 0
0.00067581 -0.04072779 0.10000000 0 0 0 0
0.05203999 -0.04796001 -0.00210457 0 0 0 0
-0.01164185 -0.08835815 -0.03506707 0 0 0 0
-0.00219269 0.01484674 -0.10000000 0 0 0 0
0.07066274 0.02933726 -0.00371213 0 0 0 0
0.03530993 0.06469007 -0.00052893 0 0 0 0
-0.03184452 -0.00171332 -0.10000000 0 0 0 0
-0.02014099 0.04628729 -0.10000000 0 0 0 0
-0.04770029 0.05229971 0.01459675 0 0 0 0
0.04425207 -0.01539416 -0.10000000 0 0 0 0
-0.00572029 -0.09303210 -0.10000000 0 0 0 0
-0.00266415 0.03305290 -0.10000000 0 0 0 0
0.02577801 0.07422199 0.00577481 0 0 0 0
0.06186444 0.03813557 0.02022997 0 0 0 0
-0.03928337 -0.01366128 -0.10000000 0 0 0 0
-0.01441065 -0.08341204 -0.10000000 0 0 0 0
-0.07159291 0.02840709 -0.08936380 0 0 0 0
0.02631597 0.00275481 -0.10000000 0 0 0 0
-0.00518736 0.00999845 0.10000000 0 0 0 0
0.02697545 0.07302456 -0.03702995 0 0 0 0
-0.09771572 0.00228428 -0.00157557 0 0 0 0
-0.01240723 0.08759277 -0.01065438 0 0 0 0
0.08121163 -0.01878837 0.05349129 0 0 0 0
0.00997511 -0.01023817 -0.10000000 0 0 0 0
-0.03918987 0.00079277 0.10000000 0 0 0 0
0.02134963 0.00344113 -0.10000000 0 0 0 0
0.03517570 0.06482431 0.00537134 0 0 0 0
0.00710957 -0.09289043 0.08537708 0 0 0 0
-0.01551496 -0.07816833 -0.10000000 0 0 0 0
-0.00834303 -0.00817445 0.10000000 0 0 0 0
-0.07809906 -0.02190095 0.07783820 0 0 0 0
-0.03523264 0.06476737 0.06659950 0 0 0 0
0.06844141 0.03155860 0.03362411 0 0 0 0
-0.05437611 0.02450878 -0.10000000 0 0 0 0
-0.01379612 -0.08620389 0.01783114 0 0 0 0
0.07093262 0.02906738 0.05484127 0 0 0 0
0.04916594 0.03259503 -0.10000000 0 0 0 0
-0.03161573 0.00164726 -0.10000000 0 0 0 0
0.01687182 0.00246636 -0.10000000 0 0 0 0
0.04202940 -0.05797059 -0.05513559 0 0 0 0
-0.07309053 0.02690947 0.07203130 0 0 0 0
-0.04331965 -0.01112024 -0.10000000 0 0 0 0
0.04735290 0.05264710 0.06651698 0 0 0 0
-0.01818780 -0.00863544 -0.10000000 0 0 0 0
0.07664950 -0.01017094 -0.10000000 0 0 0 0
-0.01408896 0.08591104 0.08910602 0 0 0 0
-0.04899901 -0.01911268 -0.10000000 0 0 0 0
0.07827652 0.02172348 -0.04955739 0 0 0 0
0.05920558 0.03863641 -0.10000000 0 0 0 0
0.05620743 0.00989379 0.10000000 0 0 0 0
0.00232718 -0.00264946 -0.10000000 0 0 0 0
0.00381263 0.09618737 -0.02120398 0 0 0 0
0.03095820 -0.05391988 -0.10000000 0 0 0 0
-0.02111275 -0.02334649 -0.10000000 0 0 0 0
-0.05441874 0.04558126 0.00045008 0 0 0 0
-0.01493141 0.02534697 -0.10000000 0 0 0 0
-0.06162368 -0.03837632 0.08263604 0 0 0 0
0.03685204 -0.06314795 -0.03424335 0 0 0 0
-0.03779469 -0.06220531 0.08993985 0 0 0 0
-0.00446574 -0.00954777 -0.10000000 0 0 0 0
-0.00215147 -0.05954726 -0.10000000 0 0 0 0
-0.01212822 0.00436129 0.10000000 0 0 0 0
0.01913856 0.05877986 -0.10000000 0 0 0 0
0.00456778 0.00657905 0.10000000 0 0 0 0
0.01663907 -0.08336093 0.01759906 0 0 0 0
0.01105819 -0.00547475 -0.10000000 0 0 0 0
0.02314813 -0.07685187 -0.06710263 0 0 0 0
-0.03873522 0.00523906 -0.10000000 0 0 0 0
-0.00334743 -0.01208899 -0.10000000 0 0 0 0
0.04127152 0.05872849 -0.05112497 0 0 0 0
0.04282460 0.05717541 -0.01992309 0 0 0 0
0.00770197 -0.00227917 -0.10000000 0 0 0 0
0.00983066 0.00037439 -0.10000000 0 0 0 0
-0.01896881 0.08103119 -0.04124118 0 0 0 0
-0.00817080 0.02301889 0.10000000 0 0 0 0
0.00059918 0.02228275 -0.10000000 0 0 0 0
0.07620203 0.02379797 0.04327513 0 0 0 0
-0.01871531 -0.01181511 -0.10000000 0 0 0 0
-0.00463043 0.01957085 -0.10000000 0 0 0 0
0.00182322 -0.01221972 0.10000000 0 0 0 0
0.01239157 0.06433306 0.10000000 0 0 0 0
0.01619021 0.08380979 -0.01807478 0 0 0 0
-0.07973586 0.02026414 0.08229595 0 0 0 0
0.02290041 0.02630187 -0.10000000 0 0 0 0
-0.02352815 -0.02273649 -0.10000000 0 0 0 0
-0.02104568 -0.07895432 0.07033524 0 0 0 0
-0.00893361 0.00746477 -0.10000000 0 0 0 0
0.07617979 -0.00830015 0.10000000 0 0 0 0
-0.03828088 -0.02248327 -0.10000000 0 0 0 0
0.01644259 -0.03739056 0.10000000 0 0 0 0
0.01192428 0.01042562 0.10000000 0 0 0 0
-0.09590168 -0.00409832 -0.00610775 0 0 0 0
-0.00676512 0.09323488 -0.09018467 0 0 0 0
-0.00737835 0.09262165 -0.08099390 0 0 0 0
-0.03865951 0.06134050 -0.02881088 0 0 0 0
0.07710059 -0.00596828 -0.10000000 0 0 0 0
0.05005056 -0.04994944 -0.02985262 0 0 0 0
0.05742716 0.04257284 -0.07516710 0 0 0 0
0.07634576 0.02365424 0.04598230 0 0 0 0
-0.08394909 -0.00951592 -0.10000000 0 0 0 0
-0.05153948 -0.04846052 -0.07424100 0 0 0 0
-0.04164235 -0.05835766 0.00528300 0 0 0 0
0.05751158 -0.04248843 -0.02659481 0 0 0 0
0.01887913 0.02836452 0.10000000 0 0 0 0
0.00839396 0.09160604 0.06657968 0 0 0 0
0.01224517 -0.00146549 -0.10000000 0 0 0 0
-0.06669489 -0.00263195 0.10000000 0 0 0 0
-0.00353924 0.06490518 -0.10000000 0 0 0 0
0.09877367 0.00122633 -0.08290140 0 0 0 0
0.00302772 -0.00312366 -0.10000000 0 0 0 0
-0.03533999 -0.06466001 0.07825553 0 0 0 0
0.00915482 0.09084518 -0.04793953 0 0 0 0
-0.08349929 -0.01650071 0.07988353 0 0 0 0
-0.04567052 0.05432947 -0.05734168 0 0 0 0
0.03880780 -0.01109774 -0.10000000 0 0 0 0
0.09448050 0.00551950 0.00883504 0 0 0 0
0.02244196 -0.07755804 -0.04798606 0 0 0 0
0.00152603 0.02973913 0.10000000 0 0 0 0
-0.06281109 0.03718891 0.04808091 0 0 0 0
-0.05430443 0.04569557 0.05378668 0 0 0 0
-0.08779249 -0.01220752 -0.02514518 0 0 0 0
-0.00107501 -0.03099766 0.10000000 0 0 0 0
-0.05282833 0.04717167 -0.06733184 0 0 0 0
0.01136799 0.07687540 -0.10000000 0 0 0 0
-0.00730946 -0.00347551 -0.10000000 0 0 0 0
0.02559662 -0.07440338 0.08863959 0 0 0 0
0.09850550 0.00140015 0.04730875 0 0 0 0
0.08789527 0.01210473 -0.07291473 0 0 0 0
0.04800958 -0.05199042 0.09099814 0 0 0 0
0.00515634 -0.09484366 -0.04858614 0 0 0 0
-0.00419819 0.01503307 0.10000000 0 0 0 0
-0.05567896 0.04432104 -0.09113835 0 0 0 0
0.01147155 -0.01201111 -0.10000000 0 0 0 0
-0.04921069 -0.05078930 0.02177955 0 0 0 0
0.06684323 -0.03315677 0.01500678 0 0 0 0
0.08526678 0.01473322 -0.00147089 0 0 0 0
0.00722205 0.06166191 0.10000000 0 0 0 0
0.09637585 0.00362415 0.04257729 0 0 0 0
-0.06331330 -0.03668670 0.02100780 0 0 0 0
0.08830411 -0.01169589 -0.06440672 0 0 0 0
-0.04038063 0.05961937 0.01081945 0 0 0 0
-0.00124623 -0.01428384 -0.10000000 0 0 0 0
0.08342037 -0.01657964 -0.00695793 0 0 0 0
-0.04156344 0.05843655 0.08116674 0 0 0 0
-0.04949100 -0.05050900 0.07045762 0 0 0 0
-0.06237695 -0.03649759 -0.10000000 0 0 0 0
-0.00695475 0.08663570 -0.10000000 0 0 0 0
-0.03542143 0.06457858 -0.06075215 0 0 0 0
-0.04846194 -0.02315409 -0.10000000 0 0 0 0
-0.02987642 -0.07012358 0.05103167 0 0 0 0
-0.07606216 -0.02393784 -0.07725533 0 0 0 0
0.00416063 0.00210747 -0.10000000 0 0 0 0
-0.05083468 0.04916532 -0.09165418 0 0 0 0
0.03139791 0.06860209 -0.01367660 0 0 0 0
0.00051143 0.06275184 -0.10000000 0 0 0 0
0.07297839 0.01226172 0.10000000 0 0 0 0
-0.00460967 0.00969243 0.10000000 0 0 0 0
-0.00796989 0.01069979 -0.10000000 0 0 0 0
-0.01587326 0.06351574 -0.10000000 0 0 0 0
0.00126058 -0.09873942 -0.04038919 0 0 0 0
0.03586966 0.04507812 0.10000000 0 0 0 0
-0.03657274 -0.02667246 -0.10000000 0 0 0 0
-0.00451068 -0.01835389 -0.10000000 0 0 0 0
0.07023261 -0.02976739 -0.06650285 0 0 0 0
0.03396504 -0.06603496 0.04506544 0 0 0 0
-0.04311421 0.00072803 0.10000000 0 0 0 0
0.02594976 0.01325361 0.10000000 0 0 0 0
0.00501155 0.01772393 -0.10000000 0 0 0 0
-0.06268284 -0.01102647 0.10000000 0 0 0 0
0.01405428 -0.00487041 -0.10000000 0 0 0 0
0.06432775 -0.03567225 0.04154279 0 0 0 0
0.02178783 -0.07821217 -0.05130106 0 0 0 0
-0.07163414 0.02836586 -0.07422905 0 0 0 0
0.00126079 -0.01975560 -0.10000000 0 0 0 0
0.07470196 0.01980475 -0.10000000 0 0 0 0
0.07210076 0.02789924 0.03401050 0 0 0 0
0.00760635 0.09239365 0.00945820 0 0 0 0
-0.05425532 0.00465774 -0.10000000 0 0 0 0
-0.02162933 -0.07837067 -0.06298651 0 0 0 0
0.01892230 0.03178447 -0.10000000 0 0 0 0
0.02403168 0.00669309 0.10000000 0 0 0 0
-0.01391559 0.00047069 -0.10000000 0 0 0 0
0.01275748 -0.06398107 -0.10000000 0 0 0 0
-0.05084019 -0.04915981 0.03503260 0 0 0 0
-0.04909873 -0.05090128 -0.03536709 0 0 0 0
0.00223295 0.02076588 0.10000000 0 0 0 0
0.06634857 0.03365143 -0.01614338 0 0 0 0
0.00937018 -0.00662564 0.10000000 0 0 0 0
0.00666259 0.03339648 -0.10000000 0 0 0 0
0.01977130 0.08022870 0.04020501 0 0 0 0
0.09300967 0.00699033 -0.01256667 0 0 0 0
-0.01145727 0.08753116 0.10000000 0 0 0 0
-0.00305554 0.00317827 0.10000000 0 0 0 0
-0.01707823 -0.01014604 0.10000000 0 0 0 0
0.03574837 0.00167733 0.10000000 0 0 0 0
-0.04330429 0.04557498 0.10000000 0 0 0 0
0.01086547 -0.02069172 0.10000000 0 0 0 0
0.01154165 0.08845834 0.05137783 0 0 0 0
-0.06703205 -0.03296795 0.04673193 0 0 0 0
-0.00468393 0.03096994 -0.10000000 0 0 0 0
0.02779630 -0.00154651 -0.10000000 0 0 0 0
0.01287414 0.03344660 0.10000000 0 0 0 0
0.07247409 0.02752591 0.07008834 0 0 0 0
-0.00908165 0.00289144 -0.10000000 0 0 0 0
0.00841878 -0.09158122 -0.09214224 0 0 0 0
0.05291117 -0.04708882 -0.02136706 0 0 0 0
0.01411803 0.00371179 0.10000000 0 0 0 0
0.05252383 0.04747616 -0.07704829 0 0 0 0
0.04179668 0.00076979 -0.10000000 0 0 0 0
-0.02695450 0.00171781 -0.10000000 0 0 0 0
-0.00736456 0.09263544 -0.09422591 0 0 0 0
0.03611205 0.06388795 -0.02512163 0 0 0 0
-0.03743681 -0.00970630 0.10000000 0 0 0 0
0.02289641 -0.06627317 -0.10000000 0 0 0 0
-0.01229457 0.04410627 -0.10000000 0 0 0 0
0.00629938 -0.00180616 0.10000000 0 0 0 0
-0.01059185 0.00627117 -0.10000000 0 0 0 0
0.04418836 0.05581164 0.05248596 0 0 0 0
-0.07505121 -0.00054897 -0.10000000 0 0 0 0
0.01249264 -0.00390797 0.10000000 0 0 0 0
0.00331447 0.09668553 0.06043966 0 0 0 0
0.05527638 -0.01801095 -0.10000000 0 0 0 0
-0.08191444 -0.01808556 -0.05573260 0 0 0 0
0.00115976 0.00264983 -0.10000000 0 0 0 0
-0.09836933 0.00163067 0.05580180 0 0 0 0
-0.02996511 -0.07003488 0.04103519 0 0 0 0
-0.01722229 -0.03564372 -0.10000000 0 0 0 0
0.05560720 -0.03608953 -0.10000000 0 0 0 0
-0.00438683 -0.00265001 0.10000000 0 0 0 0
-0.02401384 0.07598616 -0.03067574 0 0 0 0
-0.06501003 0.02955787 -0.10000000 0 0 0 0
0.00142774 -0.01064507 -0.10000000 0 0 0 0
0.04152044 -0.03859697 -0.10000000 0 0 0 0
0.00918592 -0.09081408 -0.06054117 0 0 0 0
0.01687558 0.00412090 -0.10000000 0 0 0 0
0.08602525 0.01397476 0.08064229 0 0 0 0
-0.07163133 -0.02166985 -0.10000000 0 0 0 0
-0.09298246 0.00701753 -0.07671549 0 0 0 0
0.07203488 0.00326804 0.10000000 0 0 0 0
0.02090093 0.03771895 0.10000000 0 0 0 0
0.02056970 0.07943030 0.02170683 0 0 0 0
0.03149653 0.06850347 -0.03294412 0 0 0 0
-0.00411090 -0.00284104 -0.10000000 0 0 0 0
-0.00764811 -0.09235190 0.06876443 0 0 0 0
-0.06214832 -0.03785168 -0.03252436 0 0 0 0
-0.03256644 -0.01130741 0.10000000 0 0 0 0
0.05571933 0.04428067 0.03160754 0 0 0 0
-0.00999070 0.08904958 0.10000000 0 0 0 0
-0.01576469 -0.01543205 -0.10000000 0 0 0 0
0.02429536 -0.07570463 0.04090612 0 0 0 0
0.05935828 -0.04064172 0.04575314 0 0 0 0
-0.00266177 -0.09733823 -0.09956882 0 0 0 0
-0.09864797 0.00116216 0.09706978 0 0 0 0
-0.02957977 0.02256050 -0.10000000 0 0 0 0
-0.02946527 0.07053474 0.05881299 0 0 0 0
0.03198810 0.01890805 0.10000000 0 0 0 0
0.02772497 0.00071336 -0.10000000 0 0 0 0
0.01822500 -0.08177499 0.04778593 0 0 0 0
0.07415685 0.02584315 -0.09145643 0 0 0 0
-0.00283942 -0.00835537 -0.10000000 0 0 0 0
-0.07828284 0.02171716 -0.06449517 0 0 0 0
0.03476842 0.06523158 0.09866651 0 0 0 0
-0.01496023 -0.08503977 -0.08102388 0 0 0 0
0.01515495 0.08484505 -0.05368690 0 0 0 0
-0.01400183 -0.01723078 0.10000000 0 0 0 0
-0.05671452 0.04328548 0.00563213 0 0 0 0
-0.00867915 0.00969932 0.10000000 0 0 0 0
0.03725661 0.04157073 0.10000000 0 0 0 0
-0.00299635 -0.09700365 -0.06666348 0 0 0 0
0.05881028 -0.00913619 -0.10000000 0 0 0 0
0.07205539 -0.01615750 -0.10000000 0 0 0 0
0.02678210 0.06952427 0.10000000 0 0 0 0
0.01801529 0.00390335 0.10000000 0 0 0 0
0.05832899 -0.04167101 -0.02101967 0 0 0 0
-0.07825603 0.02174397 0.05294203 0 0 0 0
0.02489489 -0.03274305 -0.10000000 0 0 0 0
-0.06337328 0.01796826 -0.10000000 0 0 0 0
-0.00341532 -0.00501358 -0.10000000 0 0 0 0
-0.00162179 -0.04877502 -0.10000000 0 0 0 0
0.03872348 0.06127653 -0.03535465 0 0 0 0
0.01378331 -0.02898216 -0.10000000 0 0 0 0
0.03723072 -0.06276928 -0.02988578 0 0 0 0
-0.01653361 0.08346640 0.09885518 0 0 0 0
0.08030546 0.01969454 -0.04614263 0 0 0 0
-0.02962037 0.01297407 -0.10000000 0 0 0 0
0.00646104 0.00178735 -0.10000000 0 0 0 0
0.04432631 -0.04023339 -0.10000000 0 0 0 0
0.01648281 -0.04048085 0.10000000 0 0 0 0
-0.04715877 -0.04407548 -0.10000000 0 0 0 0
-0.02377490 0.05976649 0.10000000 0 0 0 0
-0.01368997 -0.02646249 0.10000000 0 0 0 0
-0.00469942 0.01974409 0.10000000 0 0 0 0
-0.06180781 0.01728369 -0.10000000 0 0 0 0
-0.05295718 0.04704281 0.01242158 0 0 0 0
0.05495208 -0.04504792 0.03305184 0 0 0 0
-0.02662873 -0.07337127 0.00918964 0 0 0 0
0.05403256 -0.01645179 0.10000000 0 0 0 0
0.01267588 -0.00477648 -0.10000000 0 0 0 0
0.07899959 0.02100042 0.07138823 0 0 0 0
-0.09862588 -0.00119908 -0.02801409 0 0 0 0
-0.05822148 -0.03847976 -0.10000000 0 0 0 0
0.06799559 -0.03200441 -0.01365000 0 0 0 0
-0.07487228 0.02512772 0.09160741 0 0 0 0
0.03396386 -0.02233570 -0.10000000 0 0 0 0
0.00667681 0.09332319 -0.07740874 0 0 0 0
-0.00129340 -0.02775159 -0.10000000 0 0 0 0
-0.00243810 0.09756190 0.07420100 0 0 0 0
0.03474696 0.04172267 -0.10000000 0 0 0 0
0.02050535 0.00993099 0.10000000 0 0 0 0
0.01327071 0.00164506 0.10000000 0 0 0 0
-0.04923070 0.00075200 -0.10000000 0 0 0 0
-0.05491980 -0.04508020 -0.00613740 0 0 0 0
0.00089123 -0.06962629 0.10000000 0 0 0 0
-0.05570294 -0.04429706 0.03068609 0 0 0 0
-0.02627623 -0.02633665 -0.10000000 0 0 0 0
-0.04424945 0.02200559 -0.10000000 0 0 0 0
0.00025616 0.01569859 -0.10000000 0 0 0 0
-0.09610801 0.00389198 0.03006919 0 0 0 0
0.04994523 -0.04587597 -0.10000000 0 0 0 0
-0.00973395 0.09026604 0.00011136 0 0 0 0
-0.09919195 0.00080805 0.08684258 0 0 0 0
0.07544746 -0.02455254 -0.02759875 0 0 0 0
-0.03366154 -0.06633846 0.04883869 0 0 0 0
-0.06730429 0.03269571 -0.04220219 0 0 0 0
-0.00537178 0.09462822 0.03841114 0 0 0 0
