ply
format ascii 1.0
comment https://github.com/mikedh/trimesh
element vertex 1120
property float x
property float y
property float z
property uchar red
property uchar green
property uchar blue
property uchar alpha
end_header
-0.06207490 -0.09134535 0.02683935 0 0 0 0
-0.08479302 0.08063637 -0.01391233 0 0 0 0
-0.02331318 0.09945415 -0.00378316 0 0 0 0
-0.06518789 0.07457076 0.05364009 0 0 0 0
-0.09949197 -0.01311059 -0.00207471 0 0 0 0
0.02835288 0.09640647 -0.02425725 0 0 0 0
0.09688127 0.05130334 -0.01055259 0 0 0 0
-0.09404112 0.03504800 -0.03125697 0 0 0 0
-0.08491601 0.01265241 -0.05193204 0 0 0 0
0.08725001 0.03622734 -0.04651973 0 0 0 0
0.06261025 -0.06484562 -0.06425146 0 0 0 0
-0.02267792 0.03422514 -0.09325059 0 0 0 0
-0.09072220 0.06624109 -0.02331136 0 0 0 0
0.00312229 -0.09366851 -0.03343747 0 0 0 0
0.01558720 -0.06981748 -0.07082830 0 0 0 0
0.05419680 -0.02589102 -0.08321621 0 0 0 0
0.07447996 0.05681369 -0.05950680 0 0 0 0
-0.06639609 -0.06150249 -0.06404887 0 0 0 0
0.03328503 -0.08988445 0.04139860 0 0 0 0
0.05532867 -0.02967678 -0.08238014 0 0 0 0
0.00856175 0.03389312 0.09359737 0 0 0 0
0.02234617 -0.09487850 -0.02931998 0 0 0 0
0.07775430 0.04172950 -0.06002622 0 0 0 0
0.04412749 0.01817579 0.08936488 0 0 0 0
-0.08589286 0.02687551 0.05036817 0 0 0 0
-0.01200350 0.01811454 0.09770989 0 0 0 0
0.05728952 0.09599315 0.01123743 0 0 0 0
0.05484167 0.09382782 0.02372201 0 0 0 0
0.01463501 -0.09446590 -0.03138476 0 0 0 0
-0.06053377 -0.08766372 -0.03796523 0 0 0 0
-0.00609745 -0.02448979 -0.09671052 0 0 0 0
0.04509405 0.06518616 -0.07217450 0 0 0 0
0.02645248 -0.06523734 0.07475281 0 0 0 0
-0.04610594 0.09410731 -0.02817514 0 0 0 0
0.06339597 -0.03480888 -0.07576824 0 0 0 0
-0.09032122 0.06279550 -0.02952349 0 0 0 0
-0.08261629 -0.03861061 -0.05381445 0 0 0 0
0.04054729 0.09854693 0.00898188 0 0 0 0
-0.02406265 0.09806386 -0.01771333 0 0 0 0
0.09006785 0.04115255 0.03954938 0 0 0 0
-0.00095263 0.07741037 0.06278184 0 0 0 0
0.06413062 -0.05472206 -0.06983301 0 0 0 0
0.04964690 0.02763239 -0.08595422 0 0 0 0
-0.05646548 0.06110330 -0.07086314 0 0 0 0
0.01619492 -0.05137166 -0.08522824 0 0 0 0
-0.06212037 -0.07104181 -0.05998797 0 0 0 0
-0.01762844 -0.06285708 0.07737632 0 0 0 0
0.05043166 -0.02949582 -0.08540020 0 0 0 0
0.05686017 -0.02838783 -0.08144196 0 0 0 0
-0.08094350 0.03054427 -0.05727666 0 0 0 0
-0.00373100 0.08873394 -0.04525297 0 0 0 0
-0.08115353 0.00332300 -0.05780411 0 0 0 0
-0.09571136 0.04068809 -0.02365200 0 0 0 0
0.04437530 -0.08589430 0.04806215 0 0 0 0
0.09026492 -0.03760817 -0.04024365 0 0 0 0
0.06025427 0.02795739 -0.07856246 0 0 0 0
-0.06635663 -0.06586894 -0.06143073 0 0 0 0
0.09903538 -0.03317222 0.00488754 0 0 0 0
-0.00757073 0.08009496 0.05902638 0 0 0 0
0.04711495 -0.03376071 -0.08638321 0 0 0 0
0.09940589 -0.01711410 -0.00415712 0 0 0 0
-0.08528665 0.01838947 0.05130083 0 0 0 0
-0.04506140 -0.05859957 -0.07690845 0 0 0 0
-0.00191091 0.08239047 -0.05608202 0 0 0 0
-0.03595144 -0.06816518 0.07113064 0 0 0 0
-0.01452837 0.07458808 0.06626412 0 0 0 0
0.04172149 0.09031138 -0.03966185 0 0 0 0
-0.02594233 -0.00530150 0.09633878 0 0 0 0
0.06610188 -0.05906193 -0.06555922 0 0 0 0
-0.00689388 0.06333406 0.07702454 0 0 0 0
0.08052858 0.08210568 -0.02419391 0 0 0 0
0.02369984 -0.03220295 -0.09346668 0 0 0 0
-0.03964024 -0.04889771 0.08382892 0 0 0 0
0.06798495 -0.05084785 -0.06811305 0 0 0 0
-0.09862859 0.04261401 -0.00586667 0 0 0 0
0.03150516 0.09495343 -0.02914927 0 0 0 0
0.02675587 -0.09922948 -0.00132821 0 0 0 0
0.08486046 0.00356481 -0.05239291 0 0 0 0
0.01038084 -0.07005499 -0.07073842 0 0 0 0
0.08563973 -0.00621073 0.05102221 0 0 0 0
0.02689418 0.02977752 -0.09402608 0 0 0 0
0.03821818 0.01752870 -0.09200917 0 0 0 0
-0.06354008 0.07577024 -0.05413411 0 0 0 0
-0.08944763 0.06154323 0.03326657 0 0 0 0
0.08902205 0.07653053 0.00008274 0 0 0 0
-0.09037539 0.04011707 -0.03973814 0 0 0 0
0.00131635 0.08829222 -0.04556509 0 0 0 0
0.07654870 0.08281651 -0.02923275 0 0 0 0
0.01877425 0.09885388 -0.00757415 0 0 0 0
0.02276428 0.09270328 0.03548113 0 0 0 0
0.07294558 -0.04197651 -0.06536289 0 0 0 0
0.06253917 0.04939315 -0.07285091 0 0 0 0
-0.06188183 -0.03054282 -0.07721761 0 0 0 0
-0.02848414 -0.09389445 -0.03168738 0 0 0 0
0.09772228 -0.03891411 0.01495777 0 0 0 0
0.05977430 0.07629402 -0.05528359 0 0 0 0
0.01053274 0.00177140 -0.09906563 0 0 0 0
0.05771458 -0.02125357 -0.08119523 0 0 0 0
-0.08395161 -0.06567976 -0.04033906 0 0 0 0
-0.07388623 0.03083177 0.06637733 0 0 0 0
-0.02508783 0.09715509 -0.02172903 0 0 0 0
0.07530203 -0.07718683 -0.04092050 0 0 0 0
-0.00116500 0.08374913 0.05367826 0 0 0 0
-0.09390546 0.00164645 -0.03294443 0 0 0 0
-0.09866707 0.02624281 -0.00994174 0 0 0 0
-0.00641567 0.06625222 0.07433016 0 0 0 0
0.02018770 0.09950032 -0.00388498 0 0 0 0
0.02711558 0.00793651 -0.09576852 0 0 0 0
0.05832159 0.09312269 -0.02462527 0 0 0 0
0.07350102 -0.09050743 0.00964367 0 0 0 0
-0.02351804 -0.01327730 -0.09685874 0 0 0 0
0.02204457 -0.09916653 -0.00089045 0 0 0 0
0.05475003 -0.09689108 -0.00084893 0 0 0 0
-0.04881503 0.08475277 0.04869420 0 0 0 0
0.09588979 0.00189205 0.02626934 0 0 0 0
-0.03247786 0.09213365 -0.03596940 0 0 0 0
-0.07103416 0.04180251 -0.06752042 0 0 0 0
0.01639029 -0.05060703 0.08561790 0 0 0 0
0.09270766 0.02260999 0.03625041 0 0 0 0
0.04808592 -0.09768023 0.00753816 0 0 0 0
0.06121747 0.04830774 -0.07401740 0 0 0 0
0.07285766 -0.08510436 -0.03032789 0 0 0 0
-0.09107427 -0.05668098 -0.03120629 0 0 0 0
0.08638126 0.07924201 -0.01260260 0 0 0 0
-0.07127980 0.00516812 -0.06944805 0 0 0 0
0.01414365 -0.04373474 -0.08952458 0 0 0 0
0.06093499 -0.09451923 -0.01554298 0 0 0 0
0.01723142 0.09193470 0.03735480 0 0 0 0
0.03385215 -0.08876327 0.04376937 0 0 0 0
-0.07333599 0.08033700 -0.03828777 0 0 0 0
0.09362780 0.02056857 -0.03329227 0 0 0 0
-0.08947916 -0.07359944 -0.01398781 0 0 0 0
-0.08217697 0.08520277 -0.00727441 0 0 0 0
0.02190248 0.03300973 -0.09338887 0 0 0 0
-0.08886109 0.01753744 -0.04494153 0 0 0 0
-0.09685291 0.01355753 0.02172051 0 0 0 0
0.02636535 0.05313456 -0.08376465 0 0 0 0
0.08774199 0.03648755 -0.04599778 0 0 0 0
0.03551131 -0.03108574 -0.09163553 0 0 0 0
-0.07688828 -0.03077252 -0.06267516 0 0 0 0
0.09663825 0.05189376 0.01441425 0 0 0 0
0.04702190 0.07969074 -0.05658808 0 0 0 0
-0.08918311 0.00022649 0.04397475 0 0 0 0
0.06638936 0.05321648 -0.06809989 0 0 0 0
-0.02037552 -0.02893401 -0.09469654 0 0 0 0
0.01323471 -0.01438687 0.09819533 0 0 0 0
-0.01239610 -0.03742424 0.09213410 0 0 0 0
-0.02446494 0.04649667 -0.08747266 0 0 0 0
0.04098289 0.07063702 0.06805069 0 0 0 0
-0.08744355 0.00414784 -0.04762037 0 0 0 0
-0.06749698 0.07044611 -0.05621674 0 0 0 0
0.06642061 -0.05822430 -0.06584492 0 0 0 0
0.05632693 0.05904658 -0.07209271 0 0 0 0
0.07658567 -0.04052163 -0.06167068 0 0 0 0
0.00833544 0.09916484 0.00929266 0 0 0 0
0.07858369 0.04172652 -0.05942012 0 0 0 0
-0.00332812 0.08383843 -0.05339170 0 0 0 0
0.03006575 0.01486588 -0.09471811 0 0 0 0
-0.06480297 -0.09390865 -0.00853648 0 0 0 0
0.05666993 -0.04283739 -0.07879347 0 0 0 0
0.07407818 -0.00150692 0.06679313 0 0 0 0
0.09786272 0.04214727 0.01348963 0 0 0 0
-0.07974415 -0.08721347 -0.00401420 0 0 0 0
0.07657902 -0.08875729 0.00939479 0 0 0 0
0.02202376 0.08260255 -0.05543515 0 0 0 0
-0.02895261 0.07097267 -0.06910807 0 0 0 0
0.02977052 -0.06349697 -0.07622609 0 0 0 0
-0.08851773 -0.07026927 -0.02645113 0 0 0 0
0.04569902 0.01503882 -0.08831781 0 0 0 0
0.04268584 -0.09869120 -0.00372628 0 0 0 0
-0.01469406 -0.05314915 -0.08415169 0 0 0 0
-0.09452279 -0.02371864 -0.02966387 0 0 0 0
0.06289698 -0.07784284 -0.05119442 0 0 0 0
0.07860999 0.03132257 0.06017812 0 0 0 0
-0.05512280 0.01885248 -0.08276560 0 0 0 0
-0.03709328 0.09305315 -0.03296322 0 0 0 0
-0.08147618 -0.06552824 -0.04422611 0 0 0 0
-0.08454548 0.08140168 0.01373744 0 0 0 0
-0.09600700 -0.01643302 0.02515977 0 0 0 0
0.03981001 -0.05015162 -0.08340695 0 0 0 0
-0.02266345 0.01852527 -0.09660621 0 0 0 0
0.05447360 0.06680025 -0.06733607 0 0 0 0
-0.01069759 0.07493816 -0.06545907 0 0 0 0
0.09824252 0.00114611 -0.01796638 0 0 0 0
0.03557141 0.00268267 -0.09303866 0 0 0 0
0.04733469 -0.03940017 0.08466484 0 0 0 0
0.06420859 0.03125037 -0.07517637 0 0 0 0
0.07988444 0.04425862 0.05657058 0 0 0 0
0.08299501 -0.05102282 -0.05011959 0 0 0 0
0.00323887 0.09907291 0.01046627 0 0 0 0
0.09845300 -0.00804762 -0.01365026 0 0 0 0
0.02113393 -0.08888355 -0.04499147 0 0 0 0
-0.07749094 -0.07725205 -0.03824031 0 0 0 0
0.00887098 -0.04552007 -0.08850662 0 0 0 0
-0.00881586 -0.09932530 0.00443822 0 0 0 0
0.04897653 -0.00579686 -0.08685251 0 0 0 0
0.03610098 -0.07530318 -0.06398518 0 0 0 0
0.09330505 -0.06156868 -0.01994387 0 0 0 0
-0.02154296 -0.05322556 0.08378519 0 0 0 0
0.07383425 -0.08068232 -0.03796101 0 0 0 0
-0.06899094 -0.04877124 -0.06786562 0 0 0 0
0.04349219 0.05757499 -0.07793602 0 0 0 0
-0.05843607 -0.06861149 -0.06387375 0 0 0 0
0.01953949 -0.04369126 -0.08934887 0 0 0 0
0.01835588 0.09905931 0.00935831 0 0 0 0
-0.01318216 0.08365369 -0.05423238 0 0 0 0
-0.09195486 -0.06005330 0.02580339 0 0 0 0
-0.08486181 -0.02383989 -0.05119096 0 0 0 0
0.02065773 0.09858616 -0.01014657 0 0 0 0
-0.07179523 -0.04301175 -0.06652550 0 0 0 0
-0.01403980 -0.03313560 0.09382990 0 0 0 0
0.09254019 0.01655265 -0.03579615 0 0 0 0
0.02590457 0.09896750 -0.00832439 0 0 0 0
0.03264570 -0.09026627 0.04037802 0 0 0 0
0.04658603 -0.09735435 -0.01116823 0 0 0 0
0.04523665 -0.09017055 -0.03927747 0 0 0 0
0.00462799 0.08626260 -0.04946668 0 0 0 0
-0.04359486 0.05901803 -0.07696340 0 0 0 0
-0.06508192 -0.08933295 0.02966952 0 0 0 0
0.03643777 -0.04051997 0.08877350 0 0 0 0
-0.09262906 0.02603406 0.03608596 0 0 0 0
0.09749285 -0.04384321 0.01442481 0 0 0 0
-0.08919176 0.02047333 0.04418679 0 0 0 0
0.04008761 0.02369133 -0.09054203 0 0 0 0
0.04261211 0.09632172 -0.02013204 0 0 0 0
-0.01673692 -0.01161137 0.09796343 0 0 0 0
-0.07939835 0.01024358 0.05996954 0 0 0 0
-0.02395443 0.08473739 -0.05158638 0 0 0 0
-0.08467414 -0.02971691 0.05209870 0 0 0 0
-0.01638468 0.06649412 0.07397050 0 0 0 0
-0.02648427 0.06939951 -0.07102126 0 0 0 0
-0.00633865 0.09695582 -0.02267824 0 0 0 0
-0.09831701 -0.03624301 -0.01079646 0 0 0 0
-0.04532202 -0.07429728 -0.06310012 0 0 0 0
0.07404982 -0.07832648 0.04087532 0 0 0 0
-0.04995392 -0.00629164 -0.08605761 0 0 0 0
0.03038376 -0.08397510 -0.05326238 0 0 0 0
0.08641111 -0.07978676 0.00695949 0 0 0 0
0.02934182 0.09063347 -0.04088371 0 0 0 0
-0.07853042 0.08062162 -0.02980498 0 0 0 0
0.02811771 -0.05266636 -0.08409341 0 0 0 0
-0.08767836 -0.07387520 0.02043906 0 0 0 0
-0.02484339 0.08259088 0.05530710 0 0 0 0
0.06587209 0.07732205 -0.04987507 0 0 0 0
0.00619567 -0.09872017 -0.01163669 0 0 0 0
0.09837945 -0.02956687 -0.01282418 0 0 0 0
0.06589577 -0.08484326 -0.03942397 0 0 0 0
0.05371205 0.00734392 0.08370013 0 0 0 0
0.08872426 0.02892804 0.04408997 0 0 0 0
0.01527597 -0.07142046 -0.06906307 0 0 0 0
0.02851905 -0.01865584 -0.09507681 0 0 0 0
0.03524793 0.09816597 -0.01289448 0 0 0 0
-0.04816179 0.03293031 -0.08604185 0 0 0 0
-0.04773652 0.08157434 0.05358224 0 0 0 0
-0.08293783 0.08226477 0.01669919 0 0 0 0
0.04926500 -0.09778665 -0.00338376 0 0 0 0
0.06629618 0.04274946 0.07170481 0 0 0 0
0.01804902 0.05522795 0.08261472 0 0 0 0
0.08121333 -0.01648307 -0.05787069 0 0 0 0
0.05034743 -0.03916999 -0.08349978 0 0 0 0
-0.01950352 0.02102596 -0.09683481 0 0 0 0
0.00203157 -0.05534655 0.08267712 0 0 0 0
-0.09314650 -0.01835150 -0.03404507 0 0 0 0
0.06758966 -0.02036740 -0.07315671 0 0 0 0
0.07728957 -0.08491949 -0.02307344 0 0 0 0
0.00291563 -0.07421616 -0.06619219 0 0 0 0
0.02634912 -0.04385357 -0.08863808 0 0 0 0
-0.04932735 0.08721200 0.04333089 0 0 0 0
0.01813662 -0.03178885 -0.09432489 0 0 0 0
-0.07581483 -0.05475222 -0.05873063 0 0 0 0
0.08437525 0.02928350 0.05213415 0 0 0 0
-0.04143824 -0.05994395 0.07723559 0 0 0 0
0.07005616 0.08593005 -0.03146258 0 0 0 0
0.08408352 -0.04159152 -0.05111137 0 0 0 0
0.00030887 -0.05256721 0.08447104 0 0 0 0
0.00591469 -0.04640627 -0.08807885 0 0 0 0
0.01035246 -0.07533435 -0.06483615 0 0 0 0
-0.02971516 -0.08238735 -0.05528674 0 0 0 0
0.09660508 0.04719945 -0.01870828 0 0 0 0
0.03677067 -0.09195345 0.03619248 0 0 0 0
0.08483506 -0.08154173 -0.00812274 0 0 0 0
0.04930478 -0.09347097 -0.02875391 0 0 0 0
0.00406674 -0.09955643 -0.00436860 0 0 0 0
0.09041794 0.05071390 -0.03686018 0 0 0 0
0.04861345 0.02787148 0.08619978 0 0 0 0
0.04396704 0.03086922 -0.08805899 0 0 0 0
-0.09908469 0.02654903 0.00439229 0 0 0 0
0.06698970 -0.08978792 -0.02563840 0 0 0 0
0.07672819 0.00702103 -0.06324577 0 0 0 0
0.09767622 0.03627429 -0.01475589 0 0 0 0
-0.04425231 0.06100382 0.07556181 0 0 0 0
0.09963819 -0.00013456 -0.00162026 0 0 0 0
0.05031755 0.02598847 -0.08531451 0 0 0 0
0.06014498 -0.09481967 0.01449887 0 0 0 0
-0.00891475 -0.06642089 -0.07459520 0 0 0 0
0.04467555 -0.07869411 -0.05834368 0 0 0 0
-0.01948005 0.00576793 0.09759042 0 0 0 0
0.07790305 -0.08781043 -0.00930697 0 0 0 0
0.07777019 -0.08843143 -0.00317176 0 0 0 0
-0.08186624 -0.00098018 -0.05696335 0 0 0 0
-0.03811727 -0.09839896 0.00953165 0 0 0 0
0.09478442 -0.05915112 -0.01594887 0 0 0 0
0.08423242 0.01344456 -0.05323770 0 0 0 0
-0.08107595 0.08557890 0.01080566 0 0 0 0
-0.02953917 0.08806799 -0.04565794 0 0 0 0
-0.05270693 -0.01684459 -0.08443757 0 0 0 0
0.02002261 -0.07285185 -0.06742764 0 0 0 0
-0.01802524 0.09904803 0.00971093 0 0 0 0
0.01162446 0.03874156 -0.09198809 0 0 0 0
0.09650160 0.05710473 0.00005132 0 0 0 0
0.09495059 0.05970814 -0.01537883 0 0 0 0
0.03845480 0.02035371 0.09148024 0 0 0 0
0.09635408 -0.01299286 0.02390018 0 0 0 0
-0.07077175 -0.07813936 -0.04469988 0 0 0 0
0.06168742 0.08716084 -0.03688455 0 0 0 0
-0.09103872 -0.06791811 -0.02105556 0 0 0 0
0.07984190 0.01977275 -0.05942193 0 0 0 0
-0.01169006 -0.02974166 0.09526820 0 0 0 0
-0.05355882 0.00011905 0.08382469 0 0 0 0
0.08267422 -0.08242434 -0.01621627 0 0 0 0
-0.07215265 -0.09136091 0.00997163 0 0 0 0
0.03585192 -0.09598963 -0.02495037 0 0 0 0
0.01340028 0.03287655 -0.09385786 0 0 0 0
0.08336805 -0.04895544 -0.05039722 0 0 0 0
0.07785281 0.04128730 0.05983616 0 0 0 0
-0.06303199 0.04469696 0.07376181 0 0 0 0
-0.07357740 -0.06843780 -0.05293108 0 0 0 0
-0.09457495 -0.05586835 -0.02077365 0 0 0 0
-0.03289782 -0.00420065 0.09402777 0 0 0 0
-0.04538471 0.01787556 -0.08848090 0 0 0 0
0.00136008 0.08495826 -0.05202440 0 0 0 0
-0.09242391 0.05634152 -0.02763500 0 0 0 0
0.06481721 -0.01629498 -0.07565515 0 0 0 0
-0.05114031 -0.03944291 -0.08293859 0 0 0 0
-0.03527172 -0.03720557 -0.08963628 0 0 0 0
0.01001263 -0.00582397 -0.09908043 0 0 0 0
-0.09874836 -0.02633406 -0.00719094 0 0 0 0
0.09388392 0.04364397 -0.02943082 0 0 0 0
-0.01403351 0.02272071 -0.09705026 0 0 0 0
-0.03414368 -0.06715281 -0.07275385 0 0 0 0
-0.04175542 0.02923367 0.08953736 0 0 0 0
0.00662888 0.02404036 -0.09657209 0 0 0 0
-0.04741341 -0.08516032 0.04852888 0 0 0 0
0.09413821 0.00165880 -0.03253445 0 0 0 0
0.07790585 -0.04149000 -0.05991337 0 0 0 0
0.09729080 -0.02782310 -0.02004455 0 0 0 0
-0.08370355 -0.07861472 0.02239227 0 0 0 0
0.09630379 0.04154930 -0.02109972 0 0 0 0
-0.01097413 0.09266577 -0.03654051 0 0 0 0
0.00227364 0.02565044 -0.09616881 0 0 0 0
0.05029163 -0.00621610 0.08597642 0 0 0 0
-0.09645586 -0.05662026 -0.00747834 0 0 0 0
-0.09878881 0.03286422 -0.00656265 0 0 0 0
0.00053872 0.00827907 -0.09929194 0 0 0 0
-0.04821255 0.06105998 -0.07410441 0 0 0 0
0.05827184 -0.09635733 -0.00676094 0 0 0 0
-0.09717321 -0.01995921 -0.02000524 0 0 0 0
-0.09155549 0.06937025 -0.01412872 0 0 0 0
0.02510048 -0.00637612 -0.09629758 0 0 0 0
-0.06209509 -0.03031337 -0.07699299 0 0 0 0
-0.08836752 0.04405133 -0.04362419 0 0 0 0
0.09595041 -0.04097832 -0.02481417 0 0 0 0
0.08685213 -0.05163138 0.04314706 0 0 0 0
-0.03597233 0.00971917 0.09276885 0 0 0 0
-0.03452014 0.05538266 -0.08124404 0 0 0 0
0.09873447 -0.03322837 0.00469627 0 0 0 0
-0.07094300 -0.08587243 -0.03125615 0 0 0 0
0.09323470 0.04608310 -0.03002654 0 0 0 0
0.09132966 -0.03577427 -0.03848438 0 0 0 0
0.09896576 -0.01502411 -0.00913782 0 0 0 0
-0.06341429 0.07121320 -0.05874539 0 0 0 0
-0.08706377 -0.07373588 0.02271204 0 0 0 0
-0.09949917 -0.01076170 -0.00337184 0 0 0 0
0.05979376 0.08887682 -0.03520529 0 0 0 0
0.05668439 0.04145905 -0.07920774 0 0 0 0
0.07178476 0.09219706 -0.00348978 0 0 0 0
-0.04262316 -0.09602600 0.02166267 0 0 0 0
-0.00896107 0.01472786 0.09843717 0 0 0 0
-0.01460373 0.08243383 0.05532621 0 0 0 0
-0.07518043 -0.08486591 -0.02736138 0 0 0 0
0.03645598 -0.09869677 -0.00946003 0 0 0 0
0.09043691 -0.02237848 -0.04220421 0 0 0 0
0.00554915 0.04604562 0.08870100 0 0 0 0
-0.06836162 -0.09305101 0.00413623 0 0 0 0
-0.03588134 0.08170272 0.05536081 0 0 0 0
0.04179595 -0.09530913 -0.02513255 0 0 0 0
-0.07353325 0.07678125 -0.04399782 0 0 0 0
0.04815716 0.09781550 -0.00533544 0 0 0 0
-0.00042613 0.00074879 0.09953791 0 0 0 0
0.03315354 -0.09637067 -0.02280244 0 0 0 0
0.09477342 0.04108217 -0.02757991 0 0 0 0
-0.06641838 0.03997958 0.07208677 0 0 0 0
0.09535704 -0.05365461 -0.01793562 0 0 0 0
-0.07510501 0.08037105 -0.03570964 0 0 0 0
0.04355175 -0.00469925 -0.08944537 0 0 0 0
-0.02224506 -0.07856636 -0.06061507 0 0 0 0
0.00124105 0.07399634 -0.06663977 0 0 0 0
-0.01575442 -0.02150687 -0.09725303 0 0 0 0
0.09095611 0.01149486 -0.04064034 0 0 0 0
-0.05875694 0.04787651 -0.07576448 0 0 0 0
-0.03062687 -0.09898873 0.01156431 0 0 0 0
-0.09891795 -0.01219482 -0.01079646 0 0 0 0
0.00015008 0.06123411 0.07882123 0 0 0 0
0.08993607 -0.00398217 0.04222174 0 0 0 0
-0.09941825 -0.01776061 -0.00212974 0 0 0 0
0.07350312 0.03302005 -0.06628355 0 0 0 0
0.02083982 -0.05367451 0.08360867 0 0 0 0
0.08363713 0.06800960 -0.03909283 0 0 0 0
0.04407941 -0.09184634 -0.03630254 0 0 0 0
0.09453933 -0.03891131 0.02870331 0 0 0 0
-0.07085462 -0.02825878 -0.06989311 0 0 0 0
-0.00183306 -0.09937153 -0.00412650 0 0 0 0
0.03715872 -0.05871046 0.07903172 0 0 0 0
0.00997460 -0.08049396 -0.05835722 0 0 0 0
0.05897348 -0.02121864 0.08021893 0 0 0 0
-0.04340535 -0.01211835 -0.08949795 0 0 0 0
0.04531236 0.06478062 -0.07240269 0 0 0 0
-0.00956584 -0.02780199 0.09596626 0 0 0 0
-0.06058320 -0.01323284 0.07915004 0 0 0 0
0.09911877 -0.03708738 -0.00052865 0 0 0 0
-0.09319341 -0.00048202 0.03488637 0 0 0 0
-0.00520617 -0.04337498 -0.08978820 0 0 0 0
0.04372760 -0.08855994 -0.04238571 0 0 0 0
-0.02227221 -0.00828105 0.09703474 0 0 0 0
0.07958662 0.07240397 0.04051387 0 0 0 0
0.04472524 -0.02780764 -0.08815430 0 0 0 0
0.08755934 0.07719149 -0.01262397 0 0 0 0
-0.06748237 0.09371289 -0.00552584 0 0 0 0
0.08919346 -0.07581836 -0.00881406 0 0 0 0
0.06847865 -0.09353955 -0.00381960 0 0 0 0
-0.05472084 0.06433643 -0.06980486 0 0 0 0
0.05479653 0.03907121 0.08085842 0 0 0 0
-0.02215159 0.09813476 -0.01467037 0 0 0 0
0.08788149 -0.05758963 -0.03874281 0 0 0 0
0.09485973 -0.06427612 -0.00661137 0 0 0 0
-0.02280894 -0.04188120 -0.08987992 0 0 0 0
-0.07950071 0.08092476 -0.02845322 0 0 0 0
0.09798906 -0.03662161 0.01558006 0 0 0 0
-0.03690269 -0.09654890 -0.02249436 0 0 0 0
-0.07068413 -0.04801891 -0.06615973 0 0 0 0
0.09768575 -0.04939789 0.00137637 0 0 0 0
-0.09288748 0.06481041 -0.01967358 0 0 0 0
0.05634223 -0.05464407 -0.07446735 0 0 0 0
-0.04556705 0.09847903 -0.00268539 0 0 0 0
-0.08785392 -0.06544498 0.03297984 0 0 0 0
-0.09954347 -0.01610718 -0.00321107 0 0 0 0
-0.00098719 0.07123338 0.06941903 0 0 0 0
0.07041542 -0.04459890 0.06756251 0 0 0 0
-0.08965024 -0.00902823 -0.04298991 0 0 0 0
0.05023982 0.05432973 -0.07756016 0 0 0 0
-0.08217670 0.07719625 -0.02970374 0 0 0 0
0.00860448 0.06468000 -0.07589482 0 0 0 0
0.09893164 -0.01659146 0.01074851 0 0 0 0
0.03857157 -0.02398675 0.09116179 0 0 0 0
0.08704425 -0.05906398 0.03935696 0 0 0 0
0.00961795 0.04226230 -0.09038137 0 0 0 0
0.03367484 -0.06197069 0.07709007 0 0 0 0
-0.01477602 -0.00789400 0.09846320 0 0 0 0
0.07762939 -0.04819242 0.05864935 0 0 0 0
-0.08329309 -0.08046795 0.01905155 0 0 0 0
-0.06605698 -0.09262117 -0.01675058 0 0 0 0
0.04457537 -0.09357128 -0.03071325 0 0 0 0
-0.07121501 0.03785758 -0.06784190 0 0 0 0
-0.03930089 0.09700422 -0.02075505 0 0 0 0
-0.01009622 0.04821778 -0.08696271 0 0 0 0
-0.05829007 0.06157704 -0.06923253 0 0 0 0
-0.08008909 0.01758463 -0.05875068 0 0 0 0
-0.09294511 -0.00011746 -0.03666443 0 0 0 0
-0.01391328 0.06439359 -0.07577607 0 0 0 0
-0.07492933 0.00502307 -0.06543887 0 0 0 0
0.08653791 -0.07437664 -0.02493213 0 0 0 0
-0.08108215 -0.02428637 -0.05758261 0 0 0 0
0.01088498 -0.09181872 0.03829653 0 0 0 0
0.00715347 -0.07003200 -0.07069088 0 0 0 0
0.00702780 -0.04267143 -0.08992083 0 0 0 0
0.07885110 0.08259785 -0.02510740 0 0 0 0
-0.03849268 0.02120276 -0.09149908 0 0 0 0
0.07073375 0.09260671 -0.00509492 0 0 0 0
0.09709245 -0.03431258 -0.02065712 0 0 0 0
-0.03052534 0.09626372 0.02435979 0 0 0 0
0.03467828 -0.09189181 0.03654004 0 0 0 0
-0.02876340 -0.04668712 0.08723285 0 0 0 0
0.08406261 -0.00333221 -0.05299409 0 0 0 0
0.04236582 0.05501779 0.08012810 0 0 0 0
-0.07670878 0.00016961 -0.06323533 0 0 0 0
0.05483784 0.02900922 -0.08265803 0 0 0 0
-0.07651868 -0.08869953 0.01158130 0 0 0 0
-0.08790691 -0.06369308 -0.03389908 0 0 0 0
-0.07974925 0.00747962 0.05944527 0 0 0 0
0.00347601 0.09954040 -0.00406457 0 0 0 0
-0.07462592 -0.04651629 -0.06286632 0 0 0 0
0.03051180 0.05153755 -0.08425887 0 0 0 0
0.00194450 -0.05245642 -0.08495313 0 0 0 0
-0.00086158 0.00618348 -0.09934641 0 0 0 0
0.09265753 -0.00951712 -0.03708234 0 0 0 0
0.01955902 0.01753104 -0.09707416 0 0 0 0
-0.01335920 0.09864850 -0.01128685 0 0 0 0
-0.05470796 -0.09651002 0.01041846 0 0 0 0
0.04140044 -0.09852836 0.00123404 0 0 0 0
0.03901300 0.06651041 0.07223792 0 0 0 0
0.04396545 0.03439661 -0.08747323 0 0 0 0
0.00099710 0.00070694 0.09953791 0 0 0 0
0.04699661 -0.09281634 -0.03105126 0 0 0 0
-0.01947150 0.05111109 -0.08571122 0 0 0 0
0.01834604 -0.08101587 -0.05806871 0 0 0 0
-0.08927549 -0.04775809 -0.04043211 0 0 0 0
0.08005074 -0.08541299 -0.01401880 0 0 0 0
-0.09809364 0.01210227 -0.01804581 0 0 0 0
0.00473958 -0.09128807 -0.03975051 0 0 0 0
0.06401764 0.03423817 0.07518914 0 0 0 0
-0.09087436 0.06407475 -0.02655020 0 0 0 0
0.02690898 -0.08565293 0.05046507 0 0 0 0
-0.00898486 0.07251295 -0.06814317 0 0 0 0
0.00892586 0.02313178 -0.09678338 0 0 0 0
0.03165283 0.05583692 -0.08134536 0 0 0 0
-0.09289315 -0.05709852 -0.02546189 0 0 0 0
-0.00773782 -0.01158468 0.09904002 0 0 0 0
0.07806101 -0.07427153 -0.04106940 0 0 0 0
-0.06782574 0.06425131 -0.06089900 0 0 0 0
0.07341105 -0.07465757 -0.04625568 0 0 0 0
-0.07666969 0.07660373 -0.04031175 0 0 0 0
-0.00795678 0.09007749 -0.04199953 0 0 0 0
0.09876899 0.03185371 0.00945377 0 0 0 0
-0.09801407 0.00129271 -0.01830505 0 0 0 0
-0.03339536 0.03017602 -0.09226593 0 0 0 0
-0.01184559 0.09920900 0.00908324 0 0 0 0
0.02495003 -0.09034109 -0.04166251 0 0 0 0
-0.00187254 -0.06393483 -0.07639842 0 0 0 0
0.09589334 -0.00767005 0.02638195 0 0 0 0
0.02329454 0.04961886 -0.08628655 0 0 0 0
0.02080669 0.03604699 0.09235059 0 0 0 0
0.03384071 0.02968686 -0.09212375 0 0 0 0
0.09812368 0.00302058 -0.01524401 0 0 0 0
0.00755361 -0.03146743 0.09458591 0 0 0 0
0.02098045 -0.09021816 -0.04183587 0 0 0 0
0.08739157 0.07680973 -0.01480169 0 0 0 0
0.00146830 -0.05045848 0.08584686 0 0 0 0
-0.07940215 -0.03451932 -0.05981970 0 0 0 0
-0.00730283 -0.04777717 0.08754997 0 0 0 0
-0.09100835 -0.04624710 -0.03787036 0 0 0 0
-0.06511912 0.00835455 0.07531363 0 0 0 0
-0.04975705 0.06515265 -0.07084205 0 0 0 0
0.09682655 -0.05357883 0.01034236 0 0 0 0
-0.00476330 -0.01447318 -0.09848356 0 0 0 0
-0.02956808 -0.06547976 -0.07427002 0 0 0 0
0.05552404 -0.05546128 -0.07490259 0 0 0 0
0.09595381 0.05893355 -0.00918175 0 0 0 0
0.01693741 0.07684588 -0.06309301 0 0 0 0
0.06656340 -0.09161247 -0.01931865 0 0 0 0
-0.03780198 0.09856386 -0.01019489 0 0 0 0
-0.02509508 -0.09299879 -0.03576544 0 0 0 0
0.02233593 -0.04394945 0.08923961 0 0 0 0
-0.08346106 0.07952078 -0.02163320 0 0 0 0
0.05535753 0.09187888 0.03080011 0 0 0 0
-0.09376289 -0.00937104 -0.03288714 0 0 0 0
0.06429648 0.09212854 -0.02190543 0 0 0 0
0.07239560 -0.02276423 -0.06826042 0 0 0 0
0.07114440 0.09210087 -0.00711988 0 0 0 0
-0.05250908 -0.08484147 -0.04646080 0 0 0 0
0.03983977 0.07952233 0.05782124 0 0 0 0
-0.06724657 -0.08594228 0.03505215 0 0 0 0
-0.01249072 -0.02062565 0.09724943 0 0 0 0
0.02588174 0.09039138 0.04073796 0 0 0 0
-0.06646352 -0.03831233 0.07228838 0 0 0 0
0.09702407 0.00177186 0.02128559 0 0 0 0
-0.01723918 0.09213077 0.03729663 0 0 0 0
-0.01647658 -0.02284642 0.09666954 0 0 0 0
0.03495903 0.03945508 -0.08899257 0 0 0 0
-0.09815638 0.03292762 -0.01503003 0 0 0 0
0.08139177 0.03184763 -0.05663528 0 0 0 0
-0.03214360 0.01856667 0.09398405 0 0 0 0
0.07588248 -0.03802846 0.06320235 0 0 0 0
-0.06894757 -0.01815984 0.07168344 0 0 0 0
-0.00654092 0.05401206 -0.08385732 0 0 0 0
0.00355181 0.07796000 0.06192315 0 0 0 0
-0.01117012 -0.01562909 -0.09855786 0 0 0 0
-0.00853728 0.08973714 0.04253991 0 0 0 0
0.08455632 0.06013717 0.04319870 0 0 0 0
0.01522933 -0.07895430 -0.06022162 0 0 0 0
-0.07260440 0.06887478 0.05283784 0 0 0 0
0.09659533 -0.00406263 -0.02355217 0 0 0 0
-0.00210512 0.06341424 0.07700912 0 0 0 0
-0.04240512 0.09229992 -0.03511202 0 0 0 0
-0.06974329 0.06872411 -0.05617156 0 0 0 0
-0.02779762 -0.00844486 -0.09561376 0 0 0 0
0.00728255 0.08910181 0.04400857 0 0 0 0
-0.09699940 -0.01462034 -0.02177997 0 0 0 0
-0.07431702 -0.06230286 -0.05643838 0 0 0 0
-0.02263925 -0.03397535 -0.09304538 0 0 0 0
0.09901301 0.02300955 -0.01054585 0 0 0 0
0.00037788 -0.07911437 0.06031333 0 0 0 0
-0.02628918 0.06607029 0.07397591 0 0 0 0
0.04888483 -0.00240214 0.08691421 0 0 0 0
0.06120241 -0.04803716 -0.07406009 0 0 0 0
-0.05636115 -0.09591196 -0.01138268 0 0 0 0
-0.09797528 -0.02510168 -0.01732243 0 0 0 0
0.02387195 -0.08920569 -0.04334802 0 0 0 0
0.03897042 0.08546773 -0.04920049 0 0 0 0
-0.06032994 -0.05232362 0.07319018 0 0 0 0
0.08086377 0.03978465 0.05625574 0 0 0 0
0.07196330 -0.05150444 -0.06393050 0 0 0 0
0.08829206 -0.07279115 0.02140103 0 0 0 0
-0.06811642 0.06534572 -0.05972580 0 0 0 0
0.05686799 0.02967026 -0.08140370 0 0 0 0
-0.05515894 0.04340132 -0.07949429 0 0 0 0
-0.06342395 0.08795481 -0.03424213 0 0 0 0
0.01772526 0.06796005 -0.07305054 0 0 0 0
0.03948473 -0.07998776 0.05752806 0 0 0 0
-0.03638612 -0.02255486 0.09209930 0 0 0 0
-0.07156172 0.08130720 -0.03974991 0 0 0 0
-0.07242405 -0.03553143 -0.06697176 0 0 0 0
-0.05977319 -0.09489678 -0.01272984 0 0 0 0
-0.06248735 -0.04903007 0.07288355 0 0 0 0
0.09067090 0.03010483 -0.04039653 0 0 0 0
-0.02297230 -0.05752559 0.08108161 0 0 0 0
0.04933207 0.04263221 0.08289246 0 0 0 0
0.08724143 -0.03641283 -0.04649503 0 0 0 0
-0.06315783 0.08740179 -0.03516480 0 0 0 0
0.02478639 -0.09684245 0.02094210 0 0 0 0
0.07242643 0.07625820 -0.04505643 0 0 0 0
-0.02708652 0.02989577 -0.09355256 0 0 0 0
0.06038629 0.08177560 0.04850842 0 0 0 0
-0.07765217 0.08132795 0.03151511 0 0 0 0
0.04463648 0.08823369 0.04296068 0 0 0 0
0.09853918 -0.02529135 0.01324325 0 0 0 0
0.05462841 -0.00778137 -0.08330964 0 0 0 0
0.00491249 -0.05629038 -0.08214028 0 0 0 0
-0.02794802 -0.08007754 0.05833741 0 0 0 0
-0.03682277 0.05199711 -0.08318257 0 0 0 0
-0.06670255 0.02922812 -0.07324077 0 0 0 0
-0.09091100 0.05677762 -0.03156227 0 0 0 0
0.09854515 0.04291385 -0.00851108 0 0 0 0
0.00788554 -0.09698309 0.02142351 0 0 0 0
-0.06781442 -0.01083702 -0.07290421 0 0 0 0
0.05791724 -0.09129673 -0.03015775 0 0 0 0
-0.09346244 -0.04621018 0.03043541 0 0 0 0
-0.04551255 0.09658105 -0.01942411 0 0 0 0
-0.06254550 -0.06392062 -0.06500746 0 0 0 0
0.04587453 0.09219716 0.03398508 0 0 0 0
0.06440736 -0.09506485 -0.00014974 0 0 0 0
-0.05436166 0.06716518 -0.06702460 0 0 0 0
-0.03746308 -0.00258109 0.09219677 0 0 0 0
0.05321768 0.09730942 -0.00395225 0 0 0 0
-0.07149448 -0.08444028 -0.03318920 0 0 0 0
-0.05802610 0.06286310 0.06865196 0 0 0 0
0.07715619 -0.08314847 0.02791078 0 0 0 0
-0.08272227 0.07652132 -0.02951669 0 0 0 0
0.00652297 0.01350548 -0.09859151 0 0 0 0
0.07712145 0.00519805 -0.06301504 0 0 0 0
-0.08056487 0.01501674 -0.05893061 0 0 0 0
-0.02220539 -0.01770785 -0.09654349 0 0 0 0
0.02982348 -0.08726873 -0.04711067 0 0 0 0
0.08681393 0.04369597 0.04606700 0 0 0 0
-0.05651437 -0.08418787 0.04614948 0 0 0 0
-0.09764839 -0.00741160 -0.02019167 0 0 0 0
-0.07092363 0.01648056 0.06980109 0 0 0 0
-0.05715888 0.06067008 -0.07074782 0 0 0 0
-0.02559711 -0.08353764 0.05355434 0 0 0 0
0.03308135 0.09829779 -0.01176531 0 0 0 0
0.04710283 -0.05915678 -0.07609863 0 0 0 0
0.00449010 -0.09926284 -0.00525579 0 0 0 0
-0.00576589 -0.07263042 0.06801365 0 0 0 0
-0.03662144 -0.08026829 -0.05756978 0 0 0 0
-0.05954692 -0.08168112 -0.04854716 0 0 0 0
-0.01767637 -0.09023975 -0.04276439 0 0 0 0
0.07236648 0.06200463 0.05837091 0 0 0 0
0.04715009 0.07435202 -0.06251298 0 0 0 0
0.07986334 0.04603862 -0.05652877 0 0 0 0
-0.09310404 -0.06861368 -0.00602125 0 0 0 0
-0.06171007 0.05088230 -0.07307795 0 0 0 0
0.00225143 0.08483178 -0.05219335 0 0 0 0
0.06711238 0.06181657 -0.06317046 0 0 0 0
0.06170989 0.08467337 -0.04257452 0 0 0 0
-0.04374817 -0.05824653 -0.07748399 0 0 0 0
-0.07571083 0.00839192 0.06503223 0 0 0 0
0.09918968 -0.01441882 -0.00523306 0 0 0 0
-0.08827342 0.06190048 -0.03416374 0 0 0 0
0.05144217 -0.06191073 -0.07266720 0 0 0 0
-0.03758460 0.08515878 0.05050594 0 0 0 0
-0.05666925 -0.09361783 -0.02565567 0 0 0 0
0.08313884 -0.04681714 -0.05107141 0 0 0 0
-0.07754247 0.08031545 -0.03257391 0 0 0 0
0.08453235 0.02303072 -0.05281196 0 0 0 0
0.07187462 -0.03762170 -0.06740528 0 0 0 0
-0.02924659 -0.01286987 -0.09516252 0 0 0 0
-0.00611679 0.01704937 0.09806173 0 0 0 0
-0.03606961 0.02176279 -0.09252717 0 0 0 0
0.09890577 0.01842694 -0.00729578 0 0 0 0
0.02103265 -0.09707534 -0.02183412 0 0 0 0
0.01583040 0.05646275 -0.08236528 0 0 0 0
-0.05549644 -0.09259413 -0.02800928 0 0 0 0
0.08511011 -0.06726619 -0.03622780 0 0 0 0
-0.09407014 0.04385676 0.02892206 0 0 0 0
0.06676414 -0.04121390 -0.07181666 0 0 0 0
0.03811591 0.09596875 -0.02575872 0 0 0 0
0.03906504 0.03730956 -0.08859538 0 0 0 0
0.03312341 -0.04368627 0.08818246 0 0 0 0
-0.06828009 0.06254645 -0.06187532 0 0 0 0
0.07181359 0.06848256 -0.05401391 0 0 0 0
0.02202123 0.00462070 -0.09710924 0 0 0 0
0.02863271 0.02389315 0.09454503 0 0 0 0
0.02018386 -0.09493501 -0.02943635 0 0 0 0
-0.06285081 -0.02444696 0.07725840 0 0 0 0
-0.08768517 -0.07782811 0.00968088 0 0 0 0
0.02634878 -0.06165493 -0.07761542 0 0 0 0
0.07628857 -0.08579561 -0.02270027 0 0 0 0
-0.02770807 -0.06032513 0.07893544 0 0 0 0
0.04707722 -0.05156305 0.08038028 0 0 0 0
0.09459408 0.06093768 -0.01284479 0 0 0 0
-0.01811099 0.06858644 -0.07211073 0 0 0 0
-0.00251572 -0.09819745 -0.01632527 0 0 0 0
-0.09311926 0.06379049 -0.01631881 0 0 0 0
0.07408278 0.09014206 0.00725763 0 0 0 0
-0.01188378 -0.04853433 -0.08703540 0 0 0 0
0.03582779 0.00261157 0.09285279 0 0 0 0
0.09142016 0.04931246 -0.03494591 0 0 0 0
0.06849431 0.05320969 0.06674293 0 0 0 0
-0.03334127 -0.07929892 -0.05983276 0 0 0 0
-0.08922695 0.03991624 -0.04190684 0 0 0 0
-0.09583133 -0.01697481 -0.02649127 0 0 0 0
-0.09481411 0.03296084 0.02885194 0 0 0 0
0.03695056 -0.07109805 -0.06877213 0 0 0 0
-0.05658421 -0.08792761 0.03894766 0 0 0 0
0.05858877 -0.06840618 -0.06390004 0 0 0 0
-0.02501949 0.07235484 -0.06844674 0 0 0 0
-0.09680289 0.03649863 -0.02172415 0 0 0 0
0.05719140 -0.09637199 -0.00821193 0 0 0 0
0.05116048 0.03769014 -0.08336704 0 0 0 0
0.09143013 -0.00195012 0.03926859 0 0 0 0
0.03928445 0.07998642 -0.05782900 0 0 0 0
0.09304749 -0.02595838 -0.03387615 0 0 0 0
0.03103705 -0.08390849 -0.05260959 0 0 0 0
0.03142199 -0.08994319 -0.04236219 0 0 0 0
-0.01093233 0.08239406 0.05558991 0 0 0 0
-0.05717314 -0.09498519 0.01683430 0 0 0 0
0.08915095 0.05682457 -0.03677349 0 0 0 0
-0.00859316 -0.03433391 0.09344071 0 0 0 0
-0.07356571 -0.07396041 -0.04647611 0 0 0 0
0.05576470 -0.07999472 0.05263979 0 0 0 0
0.01578400 0.08371312 0.05347019 0 0 0 0
-0.08600402 -0.07736925 -0.01893758 0 0 0 0
-0.06913587 0.02262591 0.07124061 0 0 0 0
-0.02082210 0.04496011 -0.08852035 0 0 0 0
0.05958594 -0.05752431 0.07101241 0 0 0 0
-0.08357598 -0.08335312 0.00757368 0 0 0 0
0.06024316 0.05022184 -0.07392928 0 0 0 0
0.08849994 -0.06802577 0.02842867 0 0 0 0
-0.02351648 0.00124764 -0.09705703 0 0 0 0
-0.04738642 0.09451769 -0.02532753 0 0 0 0
0.02811779 0.09836270 -0.01238375 0 0 0 0
-0.09281725 0.06906199 -0.00788876 0 0 0 0
-0.05594222 -0.09702357 -0.00614501 0 0 0 0
-0.09375693 -0.01112836 -0.03301725 0 0 0 0
-0.09068882 0.07376619 -0.00382909 0 0 0 0
-0.04896521 0.01581064 0.08676921 0 0 0 0
0.06018487 0.07464449 -0.05706518 0 0 0 0
0.05326356 0.09713690 0.00100906 0 0 0 0
-0.02217607 0.07500620 -0.06508999 0 0 0 0
0.09497050 -0.05497323 -0.01847053 0 0 0 0
0.01233078 0.08646022 0.04974726 0 0 0 0
0.05193175 0.03993070 -0.08263907 0 0 0 0
-0.03252813 0.02074752 -0.09365796 0 0 0 0
0.08890858 -0.02663929 -0.04412346 0 0 0 0
0.08595236 0.05274994 -0.04463214 0 0 0 0
0.04276736 -0.09329665 -0.03106397 0 0 0 0
0.02413647 -0.09829737 -0.01454864 0 0 0 0
-0.01532499 -0.09175287 -0.03790174 0 0 0 0
0.01978380 0.00011378 0.09754626 0 0 0 0
0.03336417 -0.03876186 -0.08984129 0 0 0 0
-0.09007610 0.06897367 -0.02310434 0 0 0 0
0.01328364 0.00268682 -0.09864344 0 0 0 0
-0.05104512 -0.02608498 -0.08501007 0 0 0 0
-0.08106063 -0.02539841 -0.05760331 0 0 0 0
-0.05960863 -0.08231049 -0.04727080 0 0 0 0
-0.00386249 0.09681260 -0.02346301 0 0 0 0
0.01769021 -0.05390240 -0.08371272 0 0 0 0
0.04406475 -0.07727224 -0.06061553 0 0 0 0
-0.09697849 -0.05215777 0.00922970 0 0 0 0
0.09554014 -0.02568447 -0.02711859 0 0 0 0
0.03397654 -0.01505642 -0.09390792 0 0 0 0
-0.01394509 -0.09949489 -0.00425614 0 0 0 0
-0.03355173 -0.04652021 0.08651871 0 0 0 0
0.02746088 0.05839165 -0.08039311 0 0 0 0
0.05393253 0.09711924 -0.00109489 0 0 0 0
-0.06455048 0.07915974 0.04932514 0 0 0 0
-0.07943387 -0.06876408 -0.04508729 0 0 0 0
0.01897820 0.08219211 0.05588009 0 0 0 0
0.01476681 0.03292148 -0.09382403 0 0 0 0
-0.02017746 -0.02127177 0.09658884 0 0 0 0
0.00608195 0.09349294 -0.03343172 0 0 0 0
0.03233843 0.07728807 -0.06165729 0 0 0 0
-0.01106433 0.07228350 -0.06816030 0 0 0 0
-0.01827697 0.01338071 -0.09784558 0 0 0 0
0.00748152 -0.06456877 -0.07556655 0 0 0 0
-0.01705661 -0.09055411 -0.04198696 0 0 0 0
0.05953354 0.04606072 -0.07591622 0 0 0 0
0.08352736 0.03085553 -0.05311131 0 0 0 0
-0.02971084 -0.06939945 -0.07094102 0 0 0 0
-0.09886955 -0.03912644 -0.00312504 0 0 0 0
-0.02519098 0.09835041 0.01491539 0 0 0 0
-0.03402510 0.04731307 -0.08587950 0 0 0 0
0.06944791 0.00652934 -0.07144534 0 0 0 0
-0.04699121 -0.07932018 -0.05715133 0 0 0 0
0.05781127 -0.00589126 0.08106929 0 0 0 0
-0.09262857 0.05537723 -0.02773639 0 0 0 0
-0.05522653 0.01488098 -0.08290358 0 0 0 0
0.08744679 -0.06576176 0.03352579 0 0 0 0
0.07113213 -0.07444880 -0.04862005 0 0 0 0
0.03819289 0.09591454 -0.02480449 0 0 0 0
0.04214249 0.00775791 -0.09047128 0 0 0 0
0.05363945 0.01997929 -0.08395018 0 0 0 0
0.09142598 0.04709721 -0.03556876 0 0 0 0
-0.02703992 0.06175245 -0.07760964 0 0 0 0
0.09745993 0.01264788 0.01914543 0 0 0 0
-0.08246375 -0.05705675 -0.04875530 0 0 0 0
-0.01590514 0.06812940 -0.07284728 0 0 0 0
-0.01618597 0.09857272 -0.01078192 0 0 0 0
0.03869798 0.03197571 -0.08994277 0 0 0 0
-0.06589375 0.09357096 -0.00929066 0 0 0 0
-0.06875090 0.02476394 -0.07203180 0 0 0 0
-0.03641352 0.09166552 -0.03785039 0 0 0 0
0.02618423 -0.07790128 -0.06129313 0 0 0 0
-0.05312395 0.05969182 0.07306582 0 0 0 0
-0.06981705 0.08188044 -0.04020293 0 0 0 0
0.04651437 -0.01778033 -0.08789720 0 0 0 0
-0.06390247 -0.08355880 -0.04222533 0 0 0 0
-0.09319598 -0.06851984 -0.00747477 0 0 0 0
-0.00794759 0.03344449 -0.09374655 0 0 0 0
-0.04126552 0.07972649 -0.05798062 0 0 0 0
0.09835964 0.04190127 0.00297717 0 0 0 0
-0.02409450 0.09062666 0.04015031 0 0 0 0
-0.09446611 0.06407843 0.00685506 0 0 0 0
-0.06604104 -0.02474809 -0.07405429 0 0 0 0
-0.07318559 0.07264768 -0.04850771 0 0 0 0
0.08355145 0.02014538 -0.05403538 0 0 0 0
0.09636763 -0.00053806 0.02505519 0 0 0 0
-0.04033817 0.02164910 0.09066793 0 0 0 0
0.08451435 0.02657584 -0.05193601 0 0 0 0
-0.02115590 0.02053494 -0.09637879 0 0 0 0
-0.08549253 -0.01077354 -0.05084266 0 0 0 0
0.03192689 -0.05952642 -0.07887716 0 0 0 0
0.08238705 0.01291573 -0.05617948 0 0 0 0
0.08143186 -0.03542130 -0.05630109 0 0 0 0
-0.07316989 0.05331638 -0.06219441 0 0 0 0
0.08438326 0.07214961 -0.03318530 0 0 0 0
0.04497742 0.01291663 0.08912052 0 0 0 0
-0.07133826 0.09158950 -0.00907279 0 0 0 0
-0.09721944 0.02144105 -0.02027299 0 0 0 0
-0.09231953 -0.04856415 -0.03268813 0 0 0 0
-0.01371765 0.07576554 0.06488852 0 0 0 0
0.06134893 -0.09538619 0.00052224 0 0 0 0
-0.00480502 -0.01812817 -0.09801281 0 0 0 0
0.03948781 -0.07886167 0.05879007 0 0 0 0
-0.07453314 -0.01889642 0.06599572 0 0 0 0
0.05708975 0.08228352 -0.04873686 0 0 0 0
0.08181548 -0.08306605 -0.01822828 0 0 0 0
0.06740763 0.07060055 -0.05611085 0 0 0 0
0.07318579 -0.05658632 -0.06037144 0 0 0 0
-0.05696717 0.09564997 -0.01239686 0 0 0 0
-0.01129616 -0.09270814 -0.03674702 0 0 0 0
-0.09133390 0.00351349 0.03906207 0 0 0 0
0.09720244 -0.03980362 -0.01683562 0 0 0 0
-0.00070373 -0.00131522 -0.09982921 0 0 0 0
0.05094745 -0.03456153 -0.08409971 0 0 0 0
-0.06100862 0.07576485 0.05518548 0 0 0 0
-0.09780307 -0.03965113 -0.01250809 0 0 0 0
-0.08791490 0.02707083 -0.04603048 0 0 0 0
-0.07898314 0.05766587 -0.05365424 0 0 0 0
-0.06200334 -0.02723857 0.07777701 0 0 0 0
0.04499244 0.07163235 -0.06615205 0 0 0 0
0.05470728 0.09290813 -0.02759379 0 0 0 0
0.01785629 -0.09789708 -0.01761565 0 0 0 0
-0.02119944 -0.08733368 -0.04699888 0 0 0 0
-0.06453296 0.07596564 0.05291640 0 0 0 0
0.06315831 0.01679303 -0.07698230 0 0 0 0
0.02583942 0.09668464 -0.02263497 0 0 0 0
0.07006358 -0.04627874 -0.06755726 0 0 0 0
-0.06902570 0.08962677 -0.02314643 0 0 0 0
-0.04155249 -0.08987612 -0.04050011 0 0 0 0
0.08240329 -0.08465545 -0.00355449 0 0 0 0
0.00238274 0.02280544 -0.09729151 0 0 0 0
-0.03574426 -0.09873933 0.00209657 0 0 0 0
-0.01131931 -0.02760519 0.09597842 0 0 0 0
-0.01162000 0.09918672 0.00537590 0 0 0 0
0.00055352 -0.08567792 0.05087133 0 0 0 0
-0.09054253 -0.06786942 -0.02201232 0 0 0 0
-0.09140086 -0.05853684 0.02964392 0 0 0 0
-0.02443501 0.09410208 -0.03120561 0 0 0 0
-0.02929779 0.06160696 0.07796445 0 0 0 0
0.05580129 0.02263823 0.08212084 0 0 0 0
0.04647078 -0.06722631 -0.06996702 0 0 0 0
0.01775615 -0.07820847 -0.06173972 0 0 0 0
0.04810628 -0.07932760 -0.05652145 0 0 0 0
-0.07522842 0.03159423 -0.06425997 0 0 0 0
-0.08885943 0.07664220 -0.00814484 0 0 0 0
0.09868757 -0.00072643 -0.01344519 0 0 0 0
0.09360509 0.06392041 0.01617585 0 0 0 0
0.02486178 -0.06996835 -0.07055262 0 0 0 0
0.03305141 0.09631257 0.02233541 0 0 0 0
-0.04247821 0.03316460 0.08874162 0 0 0 0
-0.06917818 -0.02453183 -0.07138751 0 0 0 0
-0.06945734 -0.09200455 -0.01212197 0 0 0 0
-0.06598533 0.06982952 -0.05855991 0 0 0 0
-0.00413596 0.08892106 -0.04435910 0 0 0 0
0.07418046 0.00258673 -0.06620024 0 0 0 0
0.01679466 -0.07832160 -0.06099574 0 0 0 0
0.06193415 -0.08267675 -0.04490454 0 0 0 0
-0.01071713 -0.09912942 0.00404664 0 0 0 0
-0.05818353 0.06108945 -0.07029085 0 0 0 0
-0.04394763 -0.09201969 -0.03483277 0 0 0 0
-0.07149999 -0.08867063 -0.02257868 0 0 0 0
0.01708719 0.09541479 0.02757137 0 0 0 0
0.01594103 -0.01131910 -0.09818132 0 0 0 0
0.09164163 0.05429693 0.03224110 0 0 0 0
0.08696624 -0.00356345 -0.04808129 0 0 0 0
0.06836014 -0.06038358 0.06323186 0 0 0 0
0.03645716 0.05973481 0.07847120 0 0 0 0
-0.00255371 -0.02599875 0.09633297 0 0 0 0
0.02704094 -0.03345159 -0.09283948 0 0 0 0
-0.08236364 -0.04155310 0.05368099 0 0 0 0
0.05868827 -0.07099792 -0.06138928 0 0 0 0
0.01024843 -0.09556458 0.02819432 0 0 0 0
-0.00074798 0.08610792 -0.04980340 0 0 0 0
0.04843283 -0.09422647 0.02671225 0 0 0 0
-0.02378487 -0.03309408 0.09312651 0 0 0 0
0.00714568 0.09809946 -0.01548491 0 0 0 0
0.02865279 -0.02013423 0.09512699 0 0 0 0
-0.09619634 -0.05505517 -0.01341490 0 0 0 0
0.09197592 -0.03304541 0.03726633 0 0 0 0
-0.06609935 -0.02876216 0.07377756 0 0 0 0
-0.01118655 -0.08004449 -0.05890580 0 0 0 0
0.04443481 0.08872945 0.04167112 0 0 0 0
-0.06420385 0.05984737 0.06694935 0 0 0 0
0.01035940 0.09639880 -0.02395752 0 0 0 0
-0.09517244 -0.04072003 0.02566627 0 0 0 0
-0.03639699 -0.08986682 0.04091863 0 0 0 0
-0.03087684 0.04092694 -0.08947174 0 0 0 0
-0.07451119 0.08656258 -0.02510564 0 0 0 0
0.00435710 0.09455698 0.03180306 0 0 0 0
-0.08849584 -0.03476654 0.04446933 0 0 0 0
-0.06502666 0.01435748 0.07529537 0 0 0 0
0.04540209 -0.08192820 -0.05404210 0 0 0 0
-0.08116849 -0.05603682 -0.05092528 0 0 0 0
-0.09853824 0.02770805 -0.01133649 0 0 0 0
0.02213890 0.08790673 -0.04614127 0 0 0 0
-0.02039640 0.07508109 -0.06519131 0 0 0 0
0.09825448 0.04307484 0.00393655 0 0 0 0
0.01041176 -0.09662335 0.02300323 0 0 0 0
0.09851435 -0.03218395 0.01225037 0 0 0 0
-0.00039984 0.09609697 -0.02647880 0 0 0 0
-0.09290224 0.05781104 -0.02481759 0 0 0 0
-0.08198571 -0.08361156 -0.01362014 0 0 0 0
-0.09781880 -0.01402084 0.01744566 0 0 0 0
0.02479342 0.08179578 -0.05683995 0 0 0 0
-0.06426430 0.02740356 -0.07551895 0 0 0 0
-0.03090482 0.09647159 -0.02510459 0 0 0 0
0.05439439 0.02503984 -0.08311155 0 0 0 0
-0.01572009 -0.00012178 0.09834597 0 0 0 0
0.00223587 0.01782963 -0.09805493 0 0 0 0
0.03805150 -0.09840171 -0.00985100 0 0 0 0
0.03766632 0.00957146 -0.09236149 0 0 0 0
-0.05761537 0.05650233 -0.07293412 0 0 0 0
0.08190759 -0.02860208 -0.05634614 0 0 0 0
-0.01664113 0.08427159 0.05289210 0 0 0 0
0.01755748 -0.08151018 -0.05731374 0 0 0 0
0.03759757 0.01402890 -0.09222220 0 0 0 0
0.02268336 0.09889064 -0.01057981 0 0 0 0
0.01444019 -0.00870635 0.09850108 0 0 0 0
0.00040453 -0.04718841 -0.08770132 0 0 0 0
0.09566056 0.03205270 -0.02559046 0 0 0 0
-0.08327902 0.04055824 -0.05225797 0 0 0 0
-0.01540056 0.04580987 -0.08826692 0 0 0 0
-0.06934396 -0.02920126 -0.07102584 0 0 0 0
0.09378368 0.00002556 0.03355566 0 0 0 0
0.08970147 0.01414168 -0.04299809 0 0 0 0
0.01989515 -0.01045267 -0.09774216 0 0 0 0
-0.08697300 0.02174338 0.04916910 0 0 0 0
0.04197234 -0.03864531 -0.08726475 0 0 0 0
-0.00729306 0.09802064 -0.01816230 0 0 0 0
-0.07199164 0.05149575 -0.06381945 0 0 0 0
-0.06935509 -0.06973150 -0.05579802 0 0 0 0
0.07185584 0.08115512 -0.03934174 0 0 0 0
-0.02110328 -0.07283224 -0.06787049 0 0 0 0
-0.06527415 0.02119527 0.07501097 0 0 0 0
0.04303676 0.01745808 -0.08954005 0 0 0 0
0.06725927 0.01974717 0.07318036 0 0 0 0
0.02039249 0.09783496 -0.01712469 0 0 0 0
0.06763182 0.02729586 -0.07293649 0 0 0 0
-0.02537051 0.09714194 0.01959968 0 0 0 0
0.09697928 0.01806402 0.02104220 0 0 0 0
-0.01122071 0.09275009 0.03589430 0 0 0 0
0.01540698 -0.07463618 0.06618220 0 0 0 0
-0.05203971 -0.00909275 0.08476834 0 0 0 0
0.04595467 0.03400848 0.08680195 0 0 0 0
0.00736828 0.08520230 -0.05167876 0 0 0 0
0.07350200 0.09088089 0.00124094 0 0 0 0
0.09668268 0.05259972 -0.00953035 0 0 0 0
0.00920026 0.05921726 -0.07990547 0 0 0 0
-0.07204472 0.05683358 0.06150811 0 0 0 0
0.09688960 -0.03197750 0.01984987 0 0 0 0
-0.05560965 0.06050040 -0.07156830 0 0 0 0
0.06553568 -0.09148039 -0.02209104 0 0 0 0
-0.06574388 -0.06806044 -0.06017445 0 0 0 0
0.04913395 -0.05170571 -0.07946651 0 0 0 0
0.03661937 0.03392259 0.09036269 0 0 0 0
-0.09459505 -0.05743045 -0.01964798 0 0 0 0
0.04622356 0.00538493 -0.08814136 0 0 0 0
0.08821295 -0.04164616 -0.04441037 0 0 0 0
-0.04352250 0.07468639 -0.06325337 0 0 0 0
0.01882279 -0.01088719 -0.09781954 0 0 0 0
-0.06914000 0.05257811 0.06654184 0 0 0 0
-0.00650718 0.09949087 -0.00413047 0 0 0 0
-0.09562495 -0.00149779 -0.02692414 0 0 0 0
0.00781579 0.07626251 -0.06391335 0 0 0 0
-0.06975886 0.07754548 -0.04652585 0 0 0 0
0.08564811 0.05107871 -0.04566387 0 0 0 0
0.07776162 -0.03903566 -0.06081774 0 0 0 0
0.06665459 -0.05987441 -0.06457197 0 0 0 0
0.02782511 0.09755436 -0.01742329 0 0 0 0
0.00158711 0.09645423 -0.02550574 0 0 0 0
-0.08652011 -0.01421243 -0.04883992 0 0 0 0
0.04212433 -0.09098455 -0.03823720 0 0 0 0
0.02729289 -0.09625102 -0.02522678 0 0 0 0
-0.02201522 0.05798334 -0.08065915 0 0 0 0
-0.04654922 0.09105410 -0.03683708 0 0 0 0
-0.06157545 0.09492318 -0.00906086 0 0 0 0
0.08255325 0.08441253 0.00409281 0 0 0 0
-0.02180455 -0.09933876 0.00062373 0 0 0 0
0.05392326 -0.07917564 -0.05441356 0 0 0 0
-0.06466065 0.04440154 -0.07294826 0 0 0 0
0.05888531 0.08603894 0.04095212 0 0 0 0
-0.00896033 0.06266364 -0.07725221 0 0 0 0
0.00429638 -0.01657505 0.09817249 0 0 0 0
0.01407018 -0.09955569 -0.00100943 0 0 0 0
0.04852472 -0.00902152 0.08707897 0 0 0 0
0.05489162 -0.03321232 0.08176692 0 0 0 0
-0.09806706 0.02490770 -0.01382797 0 0 0 0
-0.02151393 0.00603666 0.09719322 0 0 0 0
-0.08316088 0.02388873 -0.05440620 0 0 0 0
-0.00860877 -0.02374134 -0.09693566 0 0 0 0
-0.02774856 -0.05362104 -0.08344259 0 0 0 0
-0.00799004 -0.02062952 -0.09744507 0 0 0 0
-0.00725222 0.06757620 -0.07339970 0 0 0 0
-0.00212883 -0.09750394 -0.01912455 0 0 0 0
-0.03634495 0.08087267 0.05660273 0 0 0 0
-0.02216400 0.03729521 0.09182325 0 0 0 0
0.09713886 0.00486614 0.02085016 0 0 0 0
-0.04404279 -0.04119962 -0.08561894 0 0 0 0
0.07004627 -0.09041603 -0.01789100 0 0 0 0
0.07447416 -0.08858392 -0.01556549 0 0 0 0
-0.07787637 0.03465439 0.06092414 0 0 0 0
0.00726973 0.09219611 -0.03692877 0 0 0 0
0.04874463 -0.05243581 -0.07914350 0 0 0 0
0.07620532 0.05151004 -0.05975009 0 0 0 0
-0.00557560 0.09604675 0.02553539 0 0 0 0
0.06616558 0.01715161 0.07439829 0 0 0 0
-0.08393629 -0.02787791 -0.05317698 0 0 0 0
0.09768872 -0.02692363 0.01681785 0 0 0 0
-0.03209602 -0.06512534 0.07441513 0 0 0 0
0.06748847 0.07932635 -0.04625134 0 0 0 0
-0.00946908 0.09164368 -0.03912826 0 0 0 0
-0.06493331 0.02041254 -0.07507551 0 0 0 0
-0.09855700 0.01532980 -0.01179135 0 0 0 0
-0.05252328 -0.08421367 0.04816452 0 0 0 0
0.06621220 0.00108093 -0.07433546 0 0 0 0
0.08279684 -0.08363193 -0.00718555 0 0 0 0
-0.06902928 0.07047404 0.05479292 0 0 0 0
0.09140222 -0.06887169 -0.01753246 0 0 0 0
-0.01067610 0.09464776 -0.03019665 0 0 0 0
-0.09105205 -0.02524840 0.03900757 0 0 0 0
-0.00622824 0.04709905 0.08808652 0 0 0 0
-0.08538541 0.07479393 0.02693929 0 0 0 0
0.02058964 0.01041314 -0.09740030 0 0 0 0
-0.04749604 0.00210000 -0.08754785 0 0 0 0
0.04620528 0.08909401 -0.04128117 0 0 0 0
-0.05929054 -0.05295100 -0.07396130 0 0 0 0
-0.07963152 0.03241973 -0.05875511 0 0 0 0
-0.07331672 0.07384880 -0.04688471 0 0 0 0
-0.02490406 -0.02531532 0.09527238 0 0 0 0
0.01593836 -0.09552602 0.02782209 0 0 0 0
0.07614961 -0.07146606 0.04710356 0 0 0 0
0.03212948 -0.07748374 -0.06150041 0 0 0 0
-0.03671458 0.01695124 0.09230348 0 0 0 0
-0.06524168 -0.04452658 0.07214628 0 0 0 0
-0.06557456 0.02790100 -0.07425596 0 0 0 0
-0.05160310 -0.00632858 -0.08558598 0 0 0 0
-0.02033802 0.03126271 -0.09403596 0 0 0 0
-0.02568932 0.09456563 -0.03064958 0 0 0 0
0.03769656 -0.05223784 -0.08267827 0 0 0 0
-0.09643725 -0.04991371 -0.01648743 0 0 0 0
-0.00820935 -0.05871307 0.08040972 0 0 0 0
-0.08480922 -0.08216346 -0.00209406 0 0 0 0
0.01531679 -0.06629726 0.07406139 0 0 0 0
-0.04521285 0.01051213 -0.08868068 0 0 0 0
0.01738899 0.08875251 -0.04526663 0 0 0 0
-0.07453172 -0.08921327 0.01433606 0 0 0 0
-0.06160611 0.02158961 -0.07788371 0 0 0 0
0.03193595 0.08317310 -0.05445279 0 0 0 0
0.07018211 -0.00525072 0.07041429 0 0 0 0
0.01333715 -0.01018158 0.09860619 0 0 0 0
0.09149452 0.03335739 -0.03899757 0 0 0 0
-0.01991329 -0.06141950 -0.07810349 0 0 0 0
-0.08905829 0.02108562 -0.04363489 0 0 0 0
0.01964355 0.09913374 0.00093500 0 0 0 0
-0.06727405 -0.05266501 -0.06808772 0 0 0 0
-0.07792260 0.05324685 0.05653463 0 0 0 0
-0.07296410 0.05080445 -0.06334347 0 0 0 0
-0.03030436 0.06832587 0.07164433 0 0 0 0
0.03114345 -0.05098105 -0.08476660 0 0 0 0
0.09704403 -0.05629619 -0.00382733 0 0 0 0
-0.08587520 -0.08076084 0.00370136 0 0 0 0
-0.00737382 -0.09909085 -0.00704279 0 0 0 0
-0.07228027 0.03339410 0.06769276 0 0 0 0
0.04461798 -0.09560672 -0.02366670 0 0 0 0
-0.01961552 0.01859584 -0.09731652 0 0 0 0
-0.08613284 0.07787456 0.01697084 0 0 0 0
-0.01819495 -0.09930892 -0.00405655 0 0 0 0
0.07553371 0.08828890 -0.01629347 0 0 0 0
0.02322235 -0.07065953 -0.06995718 0 0 0 0
0.02301650 0.05726613 0.08113393 0 0 0 0
