ply
format ascii 1.0
comment https://github.com/mikedh/trimesh
element vertex 1119
property float x
property float y
property float z
property uchar red
property uchar green
property uchar blue
property uchar alpha
end_header
0.00000673 0.09707791 -0.01902417 0 0 0 0
-0.03232551 0.06977925 0.04697733 0 0 0 0
0.06606884 0.04614615 0.03079436 0 0 0 0
-0.05425480 -0.05212267 -0.04318518 0 0 0 0
0.01545713 0.04819988 0.08226983 0 0 0 0
0.03422456 -0.05172395 -0.06825200 0 0 0 0
-0.00457466 -0.05683982 -0.08058167 0 0 0 0
0.00872641 0.05730452 0.07908373 0 0 0 0
-0.00158848 -0.07242855 -0.06776663 0 0 0 0
-0.02360408 0.01286261 0.09478112 0 0 0 0
0.00997750 -0.04835487 -0.08447631 0 0 0 0
-0.04044025 0.05727118 -0.05537149 0 0 0 0
-0.05358071 0.06459440 -0.00602597 0 0 0 0
-0.02667956 0.08531492 -0.01215194 0 0 0 0
0.08610242 -0.00872296 0.04387519 0 0 0 0
0.02141597 -0.05002641 -0.07806005 0 0 0 0
0.09107269 -0.01960876 -0.00017423 0 0 0 0
0.07363607 0.04273134 0.00740261 0 0 0 0
0.02835731 -0.05119840 -0.07329704 0 0 0 0
-0.07297402 0.04391367 0.00147266 0 0 0 0
-0.05615076 0.05194594 0.04037229 0 0 0 0
0.00739320 0.09360869 0.02581248 0 0 0 0
0.02419888 -0.08573269 0.01925342 0 0 0 0
0.02814090 0.05943402 -0.06497286 0 0 0 0
-0.07168015 -0.04120608 0.02562857 0 0 0 0
0.05444084 0.03016203 0.06864146 0 0 0 0
-0.02030271 0.08963414 -0.00970820 0 0 0 0
0.07518436 -0.01628179 0.05566579 0 0 0 0
-0.08568322 0.02766359 -0.00088630 0 0 0 0
-0.09249223 0.01725354 -0.00178309 0 0 0 0
-0.03567339 0.05897250 -0.05928832 0 0 0 0
0.05901019 -0.03881210 -0.05545885 0 0 0 0
-0.00360499 -0.03503656 -0.09298922 0 0 0 0
-0.06878517 0.04203195 -0.03172649 0 0 0 0
-0.04667872 0.00789601 -0.08638638 0 0 0 0
-0.05823726 -0.01171169 0.07707762 0 0 0 0
0.07226135 0.01407909 0.06170462 0 0 0 0
-0.03127135 0.03167362 -0.08438922 0 0 0 0
0.03792666 -0.06778527 -0.04322108 0 0 0 0
-0.08467314 0.02845052 -0.00875089 0 0 0 0
-0.02832725 -0.02191648 0.09017969 0 0 0 0
0.00825983 -0.06986095 -0.06796260 0 0 0 0
0.06242848 -0.04428091 -0.04271366 0 0 0 0
0.08870593 0.02027164 -0.01717248 0 0 0 0
0.05111897 -0.06455918 -0.01855711 0 0 0 0
-0.07367337 0.04331804 -0.00238597 0 0 0 0
0.06220223 -0.04845864 -0.03465227 0 0 0 0
0.01051720 0.03933141 0.08941943 0 0 0 0
-0.04919977 0.05343700 -0.04949896 0 0 0 0
0.00486553 -0.00674449 -0.09911143 0 0 0 0
-0.06251501 0.04010139 0.04882344 0 0 0 0
0.02101532 -0.00293631 -0.09707846 0 0 0 0
-0.06826557 0.04506288 -0.02730705 0 0 0 0
0.04691706 -0.02760607 0.07706735 0 0 0 0
0.00566863 0.09748416 -0.00579267 0 0 0 0
-0.05408441 0.01244093 0.07981895 0 0 0 0
-0.02133714 0.06456561 -0.06500717 0 0 0 0
-0.00132375 0.00689332 0.09953791 0 0 0 0
-0.06676361 -0.04595865 -0.02854879 0 0 0 0
0.06675214 -0.04999021 0.01528594 0 0 0 0
-0.03629575 0.06304374 0.05239025 0 0 0 0
0.03078673 -0.06708641 -0.05302560 0 0 0 0
0.00587741 -0.05863085 -0.07888864 0 0 0 0
-0.00458532 0.06267658 -0.07610125 0 0 0 0
0.04251648 -0.07408379 0.00137702 0 0 0 0
0.00079566 0.08581942 -0.05035885 0 0 0 0
-0.03619236 0.07934285 -0.00377287 0 0 0 0
-0.08757494 0.02364128 -0.00955909 0 0 0 0
0.04489487 -0.07123852 -0.01305255 0 0 0 0
-0.03901816 -0.03042024 -0.08073620 0 0 0 0
0.08564056 -0.01683493 -0.03502610 0 0 0 0
0.01100491 -0.01769850 -0.09649465 0 0 0 0
0.00606685 0.09735800 0.00486881 0 0 0 0
0.01706480 0.05007442 -0.08058281 0 0 0 0
0.03199885 -0.05606093 -0.06532682 0 0 0 0
0.00066061 -0.09936249 0.00364247 0 0 0 0
-0.00203603 0.09200068 -0.03617379 0 0 0 0
-0.08755474 0.00273487 0.04610082 0 0 0 0
0.00713538 -0.06669285 -0.07160001 0 0 0 0
0.00930658 0.01770901 0.09689640 0 0 0 0
-0.00613946 -0.09239689 -0.03133080 0 0 0 0
-0.01014151 0.08807767 -0.03816978 0 0 0 0
0.05511737 0.05184436 0.04204137 0 0 0 0
0.04850244 -0.06037522 -0.03854513 0 0 0 0
0.00584760 0.00226891 0.09953791 0 0 0 0
0.06926710 0.00792737 0.06855647 0 0 0 0
0.03217550 -0.05687942 -0.06447107 0 0 0 0
0.03115233 -0.02918879 0.08572038 0 0 0 0
-0.06602791 -0.03732721 0.04674999 0 0 0 0
-0.04197725 -0.05935807 -0.05056505 0 0 0 0
0.08362417 -0.02048567 -0.03448581 0 0 0 0
0.01503985 0.04654542 0.08343939 0 0 0 0
-0.03707832 0.07541198 0.02363369 0 0 0 0
0.05694989 -0.01391404 -0.07676151 0 0 0 0
0.05231810 -0.06533091 -0.00951322 0 0 0 0
-0.03466342 0.06514076 -0.05124941 0 0 0 0
0.02225338 -0.04423685 -0.08213235 0 0 0 0
-0.02042520 -0.08704058 -0.02626809 0 0 0 0
0.00874342 -0.06381039 -0.07384933 0 0 0 0
-0.06517521 -0.01743965 -0.06714849 0 0 0 0
-0.02755361 -0.04761673 0.07643171 0 0 0 0
0.09024523 0.01611884 0.02206470 0 0 0 0
0.03100115 0.08301337 -0.00470453 0 0 0 0
-0.00511286 0.01744911 0.09751275 0 0 0 0
0.02996733 0.06035612 0.06265650 0 0 0 0
-0.00157086 -0.00067382 0.09953791 0 0 0 0
0.03188449 -0.00345966 -0.09384888 0 0 0 0
-0.04560273 -0.06801726 -0.02541440 0 0 0 0
-0.00286328 -0.09741569 0.01646606 0 0 0 0
-0.05688294 0.01678455 -0.07513325 0 0 0 0
-0.01400510 0.04182301 -0.08658984 0 0 0 0
-0.06388293 0.04983546 0.02722251 0 0 0 0
-0.03961284 0.02362381 -0.08402947 0 0 0 0
-0.08748768 -0.02250826 -0.01745992 0 0 0 0
-0.03443926 -0.08084458 -0.00572013 0 0 0 0
0.06407636 -0.01939702 0.06711578 0 0 0 0
0.05945733 0.05178844 0.03402760 0 0 0 0
0.07272816 -0.03967296 -0.02650501 0 0 0 0
-0.08899024 0.00089947 0.04345989 0 0 0 0
0.06402483 -0.00230174 -0.07557157 0 0 0 0
-0.01403889 -0.08217250 0.04709484 0 0 0 0
0.07449865 0.00909512 -0.06223649 0 0 0 0
0.08449094 -0.02524883 0.02148679 0 0 0 0
-0.03934376 0.06330239 -0.04783306 0 0 0 0
-0.03540562 -0.07986666 -0.00538092 0 0 0 0
0.07326038 0.03623248 -0.03327523 0 0 0 0
0.01239174 -0.08567874 0.04094817 0 0 0 0
0.02568788 -0.03408090 -0.08580539 0 0 0 0
0.00110686 -0.06183098 -0.07781500 0 0 0 0
-0.08055545 0.02015140 -0.04238173 0 0 0 0
-0.07194093 -0.01764322 -0.05915769 0 0 0 0
-0.03311711 0.04208083 0.07706432 0 0 0 0
-0.00620863 0.09012554 -0.03829401 0 0 0 0
0.06128100 0.00466603 -0.07724785 0 0 0 0
-0.09346237 -0.01090219 -0.01898905 0 0 0 0
0.06175420 0.03049985 -0.06015620 0 0 0 0
0.05137203 0.05860257 -0.03709622 0 0 0 0
-0.03648499 -0.03511757 -0.07944930 0 0 0 0
0.02052984 0.01190715 -0.09565155 0 0 0 0
-0.08884482 -0.00548656 -0.04143584 0 0 0 0
0.09638088 -0.00454899 -0.01825239 0 0 0 0
-0.05020082 -0.06061970 -0.03433438 0 0 0 0
0.09726644 0.00765071 -0.00616709 0 0 0 0
-0.09201502 -0.01716817 -0.00024661 0 0 0 0
0.05924861 0.04457775 0.04783038 0 0 0 0
-0.04408410 0.07294728 -0.00268397 0 0 0 0
-0.05038757 -0.06712594 -0.00532279 0 0 0 0
-0.05650336 0.05784239 -0.02632587 0 0 0 0
-0.07969205 -0.02902010 -0.02940731 0 0 0 0
-0.07312611 0.04357876 0.00178608 0 0 0 0
0.00718517 0.09394388 -0.02457358 0 0 0 0
-0.04261404 -0.03095674 -0.07765208 0 0 0 0
-0.00212518 0.04853765 -0.08654429 0 0 0 0
-0.01375542 0.06637776 0.06827663 0 0 0 0
-0.08928566 0.01725291 -0.02550037 0 0 0 0
-0.06297691 0.04446642 -0.04063276 0 0 0 0
0.01832989 0.04181810 -0.08498047 0 0 0 0
0.07211279 -0.02071391 -0.05630346 0 0 0 0
-0.01459250 0.00857562 -0.09772637 0 0 0 0
0.02087593 0.03614098 -0.08703864 0 0 0 0
0.01749799 0.08027335 -0.04671331 0 0 0 0
0.08629844 0.00108054 -0.04913471 0 0 0 0
0.02195177 -0.07111084 0.05638020 0 0 0 0
0.01559663 -0.03000656 -0.09191269 0 0 0 0
0.07243688 0.03547197 -0.03700681 0 0 0 0
-0.00359805 0.09160689 -0.03725735 0 0 0 0
0.07309713 0.04178374 0.01732900 0 0 0 0
0.05754083 0.06038204 0.00707941 0 0 0 0
-0.08202412 -0.01593575 -0.04540907 0 0 0 0
-0.03787716 -0.07314111 -0.02980216 0 0 0 0
-0.05562231 -0.05956101 -0.02350919 0 0 0 0
-0.05002086 -0.06036900 -0.03475453 0 0 0 0
0.02100131 -0.05785171 0.07179146 0 0 0 0
0.02808195 0.00328865 -0.09513699 0 0 0 0
0.01471374 0.06277531 -0.07154571 0 0 0 0
-0.06551647 0.05272084 -0.00265712 0 0 0 0
-0.02228826 0.01678947 -0.09389795 0 0 0 0
0.09053288 0.01444040 -0.02465208 0 0 0 0
0.04542047 0.03143559 -0.07520947 0 0 0 0
0.04058318 -0.02833489 -0.08095481 0 0 0 0
0.04130057 0.03639208 0.07514935 0 0 0 0
0.03220492 0.05401603 0.06736857 0 0 0 0
-0.02657164 0.02269971 -0.09046295 0 0 0 0
0.07014634 -0.01442020 0.06404077 0 0 0 0
0.03015150 0.06938818 -0.05030345 0 0 0 0
-0.04419302 -0.06220235 -0.04287681 0 0 0 0
0.03029518 -0.04953378 -0.07286769 0 0 0 0
-0.01306781 0.09408130 0.00962964 0 0 0 0
0.06215315 0.05395071 0.01772827 0 0 0 0
-0.04898718 0.02546124 0.07673680 0 0 0 0
0.01403612 0.08419400 -0.04229080 0 0 0 0
-0.09035523 0.01997378 0.00356570 0 0 0 0
-0.03438440 0.07937310 -0.01725873 0 0 0 0
0.06514657 -0.04499500 -0.03477573 0 0 0 0
0.03750708 -0.07853396 -0.00199714 0 0 0 0
-0.09029941 -0.00765667 0.03621818 0 0 0 0
0.05889461 -0.04995652 -0.03894534 0 0 0 0
-0.04071831 0.02153075 0.08414690 0 0 0 0
-0.00519051 -0.01451907 -0.09838799 0 0 0 0
-0.01978262 0.06566318 -0.06508976 0 0 0 0
-0.08372825 0.03035075 -0.00285776 0 0 0 0
-0.04812604 -0.02522987 0.07766467 0 0 0 0
-0.03047527 0.08254273 0.01459728 0 0 0 0
0.00674628 -0.03043071 0.09380347 0 0 0 0
0.01620399 0.08584641 0.03606694 0 0 0 0
-0.03216772 0.06737195 -0.05089043 0 0 0 0
0.04086215 0.04251289 -0.07069283 0 0 0 0
0.07367470 0.03599863 -0.03203640 0 0 0 0
-0.08116530 -0.02904586 -0.02537735 0 0 0 0
0.05906878 0.00028514 -0.08035628 0 0 0 0
-0.05916625 0.05786727 -0.01295377 0 0 0 0
0.05654948 -0.02511675 0.07021697 0 0 0 0
0.03542735 -0.07520582 0.02956842 0 0 0 0
0.06064592 0.04421618 -0.04490062 0 0 0 0
0.03146991 -0.01651140 -0.09107292 0 0 0 0
0.09573244 -0.00517567 -0.02197216 0 0 0 0
0.01797645 0.00532770 -0.09769926 0 0 0 0
0.08285703 0.00404365 -0.05382445 0 0 0 0
-0.08626013 -0.02561995 -0.01150743 0 0 0 0
0.08102425 0.00841445 -0.05369653 0 0 0 0
-0.03982160 -0.04884000 -0.06576569 0 0 0 0
0.03059982 0.08335349 -0.00771975 0 0 0 0
-0.05828552 -0.06011932 -0.00451212 0 0 0 0
0.03062422 -0.08329700 0.00874851 0 0 0 0
-0.01399781 -0.04178314 -0.08665618 0 0 0 0
0.05757710 0.05447035 -0.03210596 0 0 0 0
-0.03573336 -0.06343886 -0.05272473 0 0 0 0
0.01567033 -0.09110581 -0.01973730 0 0 0 0
0.02312869 0.02074525 0.09242265 0 0 0 0
-0.01124321 0.02715885 0.09390374 0 0 0 0
0.01753845 -0.06991273 0.06190812 0 0 0 0
-0.02362397 0.02205560 -0.09211878 0 0 0 0
0.01446078 -0.09360184 -0.00373601 0 0 0 0
0.02350536 0.01232709 -0.09471304 0 0 0 0
-0.00039608 0.09926898 -0.00039800 0 0 0 0
-0.05994768 0.05444201 0.02462570 0 0 0 0
0.00944846 0.09018841 0.03407023 0 0 0 0
0.07409236 0.03692597 -0.02948589 0 0 0 0
-0.04000736 0.05374495 -0.06010288 0 0 0 0
-0.05035975 0.06415301 -0.02398420 0 0 0 0
0.03677494 0.04630103 -0.07082997 0 0 0 0
0.01248631 -0.08549426 0.04104444 0 0 0 0
-0.05636821 0.02683527 -0.06911170 0 0 0 0
-0.00197155 -0.09097950 -0.03926650 0 0 0 0
0.06369615 0.02280830 0.06520665 0 0 0 0
-0.08392581 0.00160606 0.05290939 0 0 0 0
0.02860912 -0.08032095 -0.02954013 0 0 0 0
0.08113834 0.03374707 -0.00256653 0 0 0 0
-0.06029147 -0.01571146 -0.07352807 0 0 0 0
0.08712898 -0.01813133 -0.02901321 0 0 0 0
0.04796737 0.05017536 -0.05579216 0 0 0 0
-0.02516989 0.06328022 -0.06330852 0 0 0 0
0.07142295 -0.01751524 -0.06028301 0 0 0 0
-0.00454144 0.09513686 -0.02452793 0 0 0 0
0.01921444 -0.04774373 -0.08119466 0 0 0 0
-0.02960506 0.01185541 0.09279661 0 0 0 0
-0.07662244 -0.03784895 -0.01609352 0 0 0 0
0.03103537 0.08028524 -0.02305400 0 0 0 0
0.06275489 0.05513011 -0.00475478 0 0 0 0
0.07226883 0.00102065 -0.06787220 0 0 0 0
0.08503150 0.02521448 0.01998484 0 0 0 0
0.03193722 -0.08241758 -0.00179963 0 0 0 0
0.09125739 -0.01747015 -0.01028318 0 0 0 0
-0.08341859 -0.02387953 0.03030958 0 0 0 0
-0.08913717 -0.00433904 -0.04270755 0 0 0 0
0.07865829 0.00199573 0.06045283 0 0 0 0
-0.06357373 -0.04099269 0.04510596 0 0 0 0
-0.02269036 0.06400499 -0.06441279 0 0 0 0
0.04513052 0.07068751 0.01638948 0 0 0 0
-0.06789185 -0.04345299 -0.03096692 0 0 0 0
0.06567317 0.04775390 -0.02705321 0 0 0 0
-0.05550999 -0.03585286 -0.06226362 0 0 0 0
0.01738838 -0.04210645 -0.08562873 0 0 0 0
0.08300970 -0.02107949 -0.03605977 0 0 0 0
0.03313199 0.00163402 -0.09370169 0 0 0 0
0.01624289 0.08323893 -0.04193006 0 0 0 0
-0.04267924 0.04287671 -0.06912605 0 0 0 0
0.08906596 -0.00400007 -0.04195061 0 0 0 0
-0.00052488 0.00202044 0.09953791 0 0 0 0
-0.08076939 -0.01803903 -0.04494618 0 0 0 0
0.05371566 0.05289203 0.04324011 0 0 0 0
-0.04726425 0.04845024 -0.05848765 0 0 0 0
-0.08772250 -0.02273196 0.01495663 0 0 0 0
-0.08921073 -0.00640825 0.03941432 0 0 0 0
0.04220806 0.04480235 -0.06756695 0 0 0 0
-0.00670072 0.05202605 -0.08347316 0 0 0 0
-0.02687338 0.08573983 -0.00594635 0 0 0 0
-0.04466695 0.07143923 -0.01231690 0 0 0 0
0.00574950 -0.04140881 -0.08942730 0 0 0 0
-0.07799769 0.01752843 -0.04988719 0 0 0 0
-0.03102447 0.06369735 -0.05790808 0 0 0 0
0.08498359 0.02909677 -0.00127885 0 0 0 0
-0.07572588 0.01833842 -0.05336570 0 0 0 0
0.03140808 0.04219836 -0.07779033 0 0 0 0
0.01033264 0.08312280 -0.04795439 0 0 0 0
-0.00749460 -0.06173913 0.07589243 0 0 0 0
-0.03387269 -0.07874636 -0.02122038 0 0 0 0
-0.09674797 -0.00813426 0.00503326 0 0 0 0
-0.00112766 0.00015125 0.09953791 0 0 0 0
-0.03500187 0.07660453 -0.02516905 0 0 0 0
-0.06030452 0.00428585 -0.07814276 0 0 0 0
0.06424052 0.00169695 0.07576211 0 0 0 0
0.05355885 -0.04903045 -0.04918475 0 0 0 0
-0.02615328 -0.00680728 0.09550171 0 0 0 0
-0.05635651 -0.04900032 -0.04465359 0 0 0 0
-0.04089255 0.07362271 0.01820770 0 0 0 0
-0.06073164 0.04545609 -0.04326924 0 0 0 0
-0.01755628 0.08307442 -0.04068396 0 0 0 0
0.05655935 0.02635318 0.06929808 0 0 0 0
0.01650443 0.00838842 -0.09760714 0 0 0 0
-0.05359470 -0.00090406 -0.08381148 0 0 0 0
0.06611252 0.01298197 0.06910792 0 0 0 0
-0.08415297 0.02591641 -0.02201256 0 0 0 0
0.02024775 0.08954478 -0.01339770 0 0 0 0
-0.04646285 -0.07044061 -0.00924146 0 0 0 0
0.05401458 -0.02669897 -0.07162449 0 0 0 0
-0.04147882 0.05462538 -0.05764531 0 0 0 0
-0.07723476 0.02562357 -0.04310377 0 0 0 0
-0.06398267 -0.04060034 -0.04529800 0 0 0 0
-0.02684451 -0.08228910 0.02618347 0 0 0 0
-0.06595410 0.05004060 -0.01645614 0 0 0 0
0.04077931 -0.07379187 -0.01742446 0 0 0 0
0.04699656 0.06954563 -0.01176562 0 0 0 0
-0.04926873 -0.04219162 -0.06277545 0 0 0 0
0.00824197 -0.01914864 -0.09701248 0 0 0 0
0.04055599 0.05844813 -0.05384923 0 0 0 0
0.00025374 -0.08605953 -0.04973172 0 0 0 0
0.02720570 -0.07199524 -0.04928327 0 0 0 0
0.03249785 0.06404851 -0.05587601 0 0 0 0
-0.08497422 0.01566842 -0.03855386 0 0 0 0
-0.04833538 -0.05723746 -0.04497486 0 0 0 0
0.02762577 -0.01842411 -0.09165387 0 0 0 0
-0.05822994 -0.02048182 0.07178624 0 0 0 0
-0.09631777 -0.00866829 0.00205704 0 0 0 0
0.07929271 0.02321639 -0.04118585 0 0 0 0
0.07061665 0.04623842 0.00923458 0 0 0 0
-0.02678257 0.05950371 -0.06614713 0 0 0 0
0.05824853 0.00604765 -0.07925402 0 0 0 0
0.04470079 -0.06761952 0.02967962 0 0 0 0
0.08066013 -0.03443518 -0.00393645 0 0 0 0
0.06684750 -0.04725469 -0.02437764 0 0 0 0
0.01546302 -0.08606757 0.03635007 0 0 0 0
-0.08021223 0.01472053 0.05003707 0 0 0 0
-0.07171769 0.03792255 -0.03291687 0 0 0 0
-0.08068792 0.00986065 -0.05338629 0 0 0 0
0.08827699 0.02068700 -0.01807469 0 0 0 0
-0.07601343 -0.03318270 -0.03140381 0 0 0 0
-0.05666408 0.02702484 0.06883194 0 0 0 0
-0.09594142 -0.00445908 -0.02160219 0 0 0 0
0.01209208 -0.08139116 -0.04964654 0 0 0 0
-0.06006824 0.04348670 -0.04699115 0 0 0 0
0.04217365 0.03505037 -0.07550519 0 0 0 0
0.07766652 -0.03549386 -0.01927953 0 0 0 0
0.06435885 -0.05016056 -0.02462168 0 0 0 0
-0.07665911 0.01106768 -0.05782749 0 0 0 0
0.05282082 -0.02589022 -0.07312976 0 0 0 0
-0.06672358 0.02256707 -0.06128182 0 0 0 0
-0.00156694 0.09813480 0.01455478 0 0 0 0
-0.06050817 0.00866576 -0.07630444 0 0 0 0
-0.05141528 -0.06517866 -0.01461973 0 0 0 0
0.08323565 0.01090471 -0.04770517 0 0 0 0
-0.04351781 -0.04755298 -0.06346924 0 0 0 0
0.03716073 0.06998787 0.03844458 0 0 0 0
-0.06680388 -0.04958797 -0.01710002 0 0 0 0
0.03217518 -0.03517842 -0.08181282 0 0 0 0
0.08548041 -0.02742738 -0.00538037 0 0 0 0
0.03770957 0.07618935 -0.01933484 0 0 0 0
0.02991801 0.08200856 -0.02089049 0 0 0 0
0.03655777 0.06953712 0.04038984 0 0 0 0
0.00342307 0.06285692 0.07660587 0 0 0 0
-0.01842957 0.03066007 -0.09033646 0 0 0 0
-0.05487183 0.06132359 -0.01700437 0 0 0 0
0.00977544 -0.06130784 0.07536961 0 0 0 0
-0.05483326 -0.05886308 0.02770551 0 0 0 0
-0.01182525 0.03302103 -0.09156795 0 0 0 0
-0.01164266 -0.01525529 -0.09733082 0 0 0 0
0.07719944 -0.02535930 -0.04221452 0 0 0 0
0.03386013 -0.03155712 -0.08316197 0 0 0 0
0.04409297 -0.05143382 -0.05934262 0 0 0 0
-0.05062356 -0.06585170 0.01630362 0 0 0 0
0.02817391 -0.07512929 0.04279334 0 0 0 0
0.09432618 -0.00222843 -0.02957555 0 0 0 0
0.00531250 0.03083438 -0.09423635 0 0 0 0
0.04760914 -0.05007007 0.05598666 0 0 0 0
-0.08949693 -0.01983667 -0.01319996 0 0 0 0
0.06825387 -0.04595465 -0.02310520 0 0 0 0
0.04832039 -0.02945862 -0.07430415 0 0 0 0
-0.04275959 0.04635500 -0.06533226 0 0 0 0
0.04845905 -0.03276002 -0.07218388 0 0 0 0
0.05410765 -0.01262116 0.07972942 0 0 0 0
0.03653348 0.04472578 -0.07238010 0 0 0 0
-0.02819136 0.08374410 -0.01810255 0 0 0 0
0.08789910 0.01481746 -0.03199088 0 0 0 0
0.03042780 -0.02778522 -0.08663370 0 0 0 0
0.05883357 0.05886965 0.00869778 0 0 0 0
0.03817212 0.05676888 -0.05864248 0 0 0 0
-0.01222750 -0.05057206 0.08210190 0 0 0 0
0.07425285 -0.01111457 -0.06092663 0 0 0 0
0.04478746 -0.03934634 -0.06996882 0 0 0 0
0.05217073 0.06547071 -0.00721982 0 0 0 0
0.02888773 -0.00183317 -0.09517188 0 0 0 0
-0.00681195 0.05021099 -0.08471238 0 0 0 0
0.02296866 0.08727442 -0.01758791 0 0 0 0
-0.01334082 0.07489244 0.05834867 0 0 0 0
0.04008225 -0.07164155 0.02984364 0 0 0 0
-0.07921951 -0.03616204 -0.00862124 0 0 0 0
-0.08045939 0.03369091 -0.01035656 0 0 0 0
0.06377371 0.05045753 0.02423614 0 0 0 0
-0.04389796 -0.04161200 -0.06862321 0 0 0 0
0.00438257 -0.07207498 0.06732310 0 0 0 0
-0.09410094 0.01354170 -0.00194180 0 0 0 0
0.05590009 0.05860821 0.02458918 0 0 0 0
-0.08837172 0.02139710 -0.01528588 0 0 0 0
0.03226941 0.04407859 0.07610308 0 0 0 0
-0.06707522 -0.05071761 0.00419140 0 0 0 0
0.03054041 -0.04484715 0.07674237 0 0 0 0
0.00746401 0.03452235 0.09202051 0 0 0 0
0.06797680 0.04053540 -0.03721421 0 0 0 0
-0.00046974 -0.09842978 -0.01268073 0 0 0 0
-0.07602792 0.04029614 -0.00270476 0 0 0 0
-0.09416713 0.01350580 0.00303106 0 0 0 0
-0.01475600 -0.05513448 -0.07765472 0 0 0 0
0.08853503 -0.02362484 -0.00559607 0 0 0 0
-0.07419924 -0.04260850 -0.00564501 0 0 0 0
0.07223444 -0.03563697 -0.03633852 0 0 0 0
-0.02605503 -0.08413707 -0.02261066 0 0 0 0
-0.00934430 -0.09395952 0.02040718 0 0 0 0
-0.04749698 0.04351294 -0.06368598 0 0 0 0
0.02788842 -0.07843254 -0.03601541 0 0 0 0
0.01154822 -0.07884272 0.05406778 0 0 0 0
0.05179180 0.02400171 -0.07545414 0 0 0 0
0.03146697 0.01511933 -0.09155917 0 0 0 0
0.06495816 -0.04172735 0.04101614 0 0 0 0
0.00752363 -0.02072148 -0.09669785 0 0 0 0
0.06953851 0.04058113 -0.03361415 0 0 0 0
-0.06714883 -0.04785222 -0.02155322 0 0 0 0
-0.01091245 -0.07371301 -0.06150733 0 0 0 0
-0.02666250 0.01917312 0.09165785 0 0 0 0
-0.00986840 0.04443257 0.08687490 0 0 0 0
-0.00300099 -0.04687884 0.08757974 0 0 0 0
0.01752048 -0.01820482 -0.09488834 0 0 0 0
0.03809714 -0.00164355 0.09174578 0 0 0 0
0.03877505 -0.04440956 -0.07111532 0 0 0 0
-0.05391780 -0.03398348 -0.06589265 0 0 0 0
-0.04049045 -0.01799966 -0.08577270 0 0 0 0
0.02429258 -0.05731204 0.07014441 0 0 0 0
-0.05541522 -0.02242934 -0.07359266 0 0 0 0
0.04390258 -0.03349924 -0.07532097 0 0 0 0
0.02616705 -0.02293885 -0.09054453 0 0 0 0
-0.01548717 -0.08890970 -0.02761170 0 0 0 0
-0.02449092 0.08682078 -0.01105054 0 0 0 0
0.08626606 -0.02675430 -0.00543118 0 0 0 0
-0.00467306 -0.05164859 0.08401211 0 0 0 0
-0.03526903 0.04790217 -0.07075664 0 0 0 0
-0.08820181 0.01984761 -0.02184077 0 0 0 0
0.08077737 0.03318893 -0.01062876 0 0 0 0
0.05897681 -0.04528732 -0.04657110 0 0 0 0
0.05802841 -0.03372894 0.06168268 0 0 0 0
-0.08218469 0.02362533 -0.03331036 0 0 0 0
0.03176208 0.01490011 -0.09110091 0 0 0 0
-0.01458587 0.08650367 -0.03618469 0 0 0 0
-0.03125987 -0.07581446 0.03624081 0 0 0 0
-0.04679305 -0.01569042 0.08301942 0 0 0 0
-0.04922938 0.04182990 -0.06336773 0 0 0 0
-0.05997905 -0.05651328 0.01679272 0 0 0 0
-0.02223160 -0.01108760 -0.09539293 0 0 0 0
0.00357406 -0.09831760 0.00959159 0 0 0 0
-0.00525036 0.09807894 -0.00314232 0 0 0 0
0.06428354 -0.04697062 -0.03287245 0 0 0 0
0.03745008 0.07571208 -0.02323233 0 0 0 0
0.07984877 0.03486738 -0.01010441 0 0 0 0
0.06937124 -0.02988601 -0.05023874 0 0 0 0
-0.09897141 -0.00079630 -0.00623143 0 0 0 0
-0.01874138 0.05533541 -0.07539976 0 0 0 0
0.01512733 0.02206433 -0.09463219 0 0 0 0
-0.07819862 0.01346269 -0.05366929 0 0 0 0
0.04350257 -0.03196216 -0.07649498 0 0 0 0
-0.01698218 0.03258732 -0.09028994 0 0 0 0
0.05699157 -0.05657911 -0.02846556 0 0 0 0
0.04882713 0.05280206 -0.05078554 0 0 0 0
0.01619158 -0.05033787 -0.08043324 0 0 0 0
0.01841082 0.01736701 0.09516554 0 0 0 0
0.01115952 -0.01783497 -0.09668605 0 0 0 0
-0.07707095 -0.03318740 0.02893547 0 0 0 0
-0.02955830 0.08408030 -0.00106245 0 0 0 0
0.03453297 -0.06413521 -0.05276641 0 0 0 0
0.06797284 -0.02836953 -0.05452794 0 0 0 0
-0.08577633 -0.02280981 -0.02451566 0 0 0 0
-0.02690811 -0.07410426 0.04637906 0 0 0 0
-0.06222114 0.02189508 -0.06719051 0 0 0 0
0.06145930 -0.01282107 -0.07342629 0 0 0 0
0.09254733 -0.01641980 -0.00400713 0 0 0 0
-0.08357135 0.02392152 -0.02929712 0 0 0 0
0.03039718 -0.08319755 0.00783572 0 0 0 0
0.00831834 0.09215607 -0.02927919 0 0 0 0
-0.00426848 -0.02236558 -0.09654881 0 0 0 0
-0.00684378 -0.08090921 -0.05460861 0 0 0 0
-0.07007055 -0.01188894 -0.06551866 0 0 0 0
0.02057510 0.00565875 -0.09679319 0 0 0 0
-0.06553581 -0.01542644 0.06805734 0 0 0 0
0.02569966 -0.01796435 -0.09264279 0 0 0 0
0.03582171 -0.02354186 0.08594609 0 0 0 0
0.07186516 0.04162504 -0.02527366 0 0 0 0
0.06175761 0.03110147 -0.05985273 0 0 0 0
-0.03281480 -0.08179319 0.00415298 0 0 0 0
-0.05938724 -0.05854799 -0.00779272 0 0 0 0
-0.08515303 -0.02789084 -0.00791309 0 0 0 0
-0.08193430 -0.02531476 -0.03119035 0 0 0 0
-0.01284283 -0.02401562 0.09460050 0 0 0 0
-0.02433580 0.08778096 -0.00320875 0 0 0 0
0.02213971 -0.07458800 -0.05146105 0 0 0 0
-0.01762074 0.07022025 -0.06159077 0 0 0 0
-0.00747522 -0.03829808 -0.09081434 0 0 0 0
-0.02287870 -0.02523470 -0.09142005 0 0 0 0
0.02248728 0.06869185 0.05908746 0 0 0 0
0.08771060 0.01137609 -0.03742905 0 0 0 0
0.09456851 -0.00822109 -0.02185978 0 0 0 0
-0.00859989 0.06701438 -0.07053338 0 0 0 0
0.07723635 -0.03719533 0.01611631 0 0 0 0
0.08788831 -0.00170259 -0.04581127 0 0 0 0
0.01140824 0.04886091 -0.08370476 0 0 0 0
-0.06939688 0.02289042 -0.05805415 0 0 0 0
-0.03156719 0.06738041 0.05170720 0 0 0 0
-0.09616495 -0.00990860 -0.00567607 0 0 0 0
-0.01235017 -0.08788204 0.03587944 0 0 0 0
0.00597274 -0.02612199 -0.09528501 0 0 0 0
-0.04923830 0.06127351 -0.03462078 0 0 0 0
-0.05596670 0.05416892 -0.03573671 0 0 0 0
-0.06562094 -0.03600809 -0.04860841 0 0 0 0
-0.07703984 0.02731632 0.03950209 0 0 0 0
0.06019858 -0.02724446 -0.06500353 0 0 0 0
0.04994567 0.04846488 0.05496342 0 0 0 0
0.04737484 -0.06292305 0.03515533 0 0 0 0
0.07502781 0.02353952 -0.04878579 0 0 0 0
-0.02905664 -0.05572228 -0.06797781 0 0 0 0
-0.02966827 0.07028925 -0.04927187 0 0 0 0
0.05386008 0.05334799 0.04207467 0 0 0 0
-0.02013103 -0.03224954 -0.08912388 0 0 0 0
-0.07879640 -0.02720150 0.03634312 0 0 0 0
0.05625562 0.01695133 -0.07555474 0 0 0 0
0.05718462 0.01439131 -0.07639594 0 0 0 0
0.00531790 0.03607244 -0.09205602 0 0 0 0
-0.07363595 0.04039395 0.02084658 0 0 0 0
-0.03214566 -0.06609748 -0.05291623 0 0 0 0
0.05688579 -0.03033116 0.06621958 0 0 0 0
0.05745200 -0.05727450 -0.02494681 0 0 0 0
-0.00164555 -0.08734906 -0.04683068 0 0 0 0
-0.07960150 -0.01122804 -0.05313505 0 0 0 0
0.02511189 -0.07932039 -0.03781478 0 0 0 0
0.05365072 0.04980121 -0.04838948 0 0 0 0
-0.01484649 0.06806548 -0.06598702 0 0 0 0
0.05767886 -0.02545252 0.06892289 0 0 0 0
0.09645972 0.00766650 0.01256853 0 0 0 0
0.04707626 -0.03400120 0.07211027 0 0 0 0
0.03031414 0.04228469 -0.07829575 0 0 0 0
-0.06807281 0.04472979 0.02741449 0 0 0 0
0.04013161 0.02484824 -0.08307645 0 0 0 0
0.07619754 -0.03955481 0.00943282 0 0 0 0
-0.07338636 -0.02399982 -0.05084654 0 0 0 0
0.03539834 -0.05197368 -0.06639655 0 0 0 0
-0.07104740 -0.01772814 -0.06052978 0 0 0 0
0.03638650 0.01227733 -0.09022810 0 0 0 0
0.05478449 0.06251233 -0.01036618 0 0 0 0
-0.00775182 0.00049194 -0.09934150 0 0 0 0
0.07797687 0.03233727 -0.02814006 0 0 0 0
0.06791665 -0.01977587 -0.06253974 0 0 0 0
-0.06978446 0.04223511 -0.02846235 0 0 0 0
0.06173836 0.05484141 -0.01555526 0 0 0 0
-0.04500311 0.06329442 0.03856107 0 0 0 0
-0.01816465 -0.08582316 -0.03347238 0 0 0 0
-0.04519472 0.01923956 -0.08253034 0 0 0 0
0.06786912 -0.01850867 -0.06333723 0 0 0 0
-0.00001669 0.01265128 -0.09872751 0 0 0 0
-0.09046844 0.01646275 -0.02083474 0 0 0 0
-0.02881131 0.08269324 -0.01992663 0 0 0 0
-0.07604150 -0.00664393 -0.06152048 0 0 0 0
-0.03433445 -0.04602375 -0.07293551 0 0 0 0
-0.06789992 -0.04318899 -0.03151601 0 0 0 0
-0.02528633 -0.01096335 -0.09448881 0 0 0 0
0.09090422 -0.00112923 -0.04018373 0 0 0 0
0.02960837 -0.04018121 0.08029479 0 0 0 0
-0.05951196 0.05676795 0.01755664 0 0 0 0
0.07450726 -0.00260330 -0.06507050 0 0 0 0
-0.06944101 -0.02398693 -0.05713553 0 0 0 0
0.04817959 0.02252848 -0.07875175 0 0 0 0
-0.06724746 -0.02779436 0.05602670 0 0 0 0
0.07459377 0.02122054 -0.05235207 0 0 0 0
-0.05526637 0.05381063 -0.03881057 0 0 0 0
0.01243692 -0.08077453 -0.05051313 0 0 0 0
0.04948452 0.06689914 -0.01440688 0 0 0 0
0.03625094 0.02611711 -0.08480726 0 0 0 0
-0.08403458 -0.02194658 0.03271858 0 0 0 0
0.04772879 0.06988578 0.00030686 0 0 0 0
-0.01465669 -0.08703554 0.03506175 0 0 0 0
-0.03613352 0.02268368 0.08618585 0 0 0 0
-0.04504514 -0.00893374 -0.08685540 0 0 0 0
0.03562010 -0.07398041 -0.03198301 0 0 0 0
-0.06463474 -0.03700364 -0.04878730 0 0 0 0
0.03012328 -0.05503177 -0.06845111 0 0 0 0
0.03468733 0.06090653 -0.05752633 0 0 0 0
0.01224212 -0.09341766 -0.01593073 0 0 0 0
-0.07258642 -0.04333591 0.01471067 0 0 0 0
-0.09602520 -0.00182636 -0.02475342 0 0 0 0
0.02151678 0.08267911 -0.03664617 0 0 0 0
0.07359007 0.04150262 -0.01787293 0 0 0 0
-0.01370709 -0.05011658 0.08180012 0 0 0 0
-0.05994222 -0.04471762 -0.04615820 0 0 0 0
0.02372454 0.04275315 -0.08223967 0 0 0 0
0.00493543 0.06322016 -0.07537927 0 0 0 0
0.07760144 -0.00708027 -0.05930528 0 0 0 0
0.07944439 -0.03598526 0.00257001 0 0 0 0
0.08226707 -0.02790477 0.02454845 0 0 0 0
-0.00143751 0.01536342 0.09831683 0 0 0 0
0.00432582 -0.03239453 -0.09355648 0 0 0 0
0.05927758 -0.05634677 0.02126281 0 0 0 0
-0.06722383 0.05016278 0.00863835 0 0 0 0
-0.08393075 -0.02902575 -0.01225832 0 0 0 0
-0.09333137 -0.00416938 -0.03153499 0 0 0 0
0.08295963 0.02486880 -0.02856343 0 0 0 0
-0.03207754 -0.02830451 -0.08556017 0 0 0 0
-0.05876348 0.05648118 -0.02241073 0 0 0 0
-0.00498489 0.08798917 -0.04361863 0 0 0 0
0.05718363 0.06014067 -0.01179561 0 0 0 0
0.07844500 -0.02843578 0.03484006 0 0 0 0
0.06221497 0.04332488 0.04365364 0 0 0 0
-0.02192127 0.00718277 -0.09637672 0 0 0 0
0.02619204 -0.03876337 -0.08307845 0 0 0 0
0.02556080 0.05817680 -0.06826790 0 0 0 0
-0.01028572 0.05867802 -0.07710069 0 0 0 0
0.00916197 0.09423586 -0.02137962 0 0 0 0
0.02622846 0.02622534 -0.08916574 0 0 0 0
0.01391854 0.01436749 0.09676542 0 0 0 0
0.02342421 0.06915949 -0.05799475 0 0 0 0
0.04664841 0.06865590 -0.01968092 0 0 0 0
-0.06150577 -0.05316815 0.02363927 0 0 0 0
-0.04236408 0.07315631 -0.01457906 0 0 0 0
-0.04640946 -0.05870489 -0.04560321 0 0 0 0
0.08858288 -0.00813464 -0.03965370 0 0 0 0
-0.01574937 0.06853230 -0.06449534 0 0 0 0
0.04502855 -0.06420755 -0.03658372 0 0 0 0
0.00595893 -0.09738468 0.01247646 0 0 0 0
-0.06127038 -0.00861423 -0.07596647 0 0 0 0
-0.08724703 0.02324887 -0.01405291 0 0 0 0
0.02581136 -0.08386461 -0.02435846 0 0 0 0
-0.03559027 -0.06640682 -0.04791342 0 0 0 0
0.02423844 -0.06838122 0.05773831 0 0 0 0
-0.01692443 0.01313536 -0.09625549 0 0 0 0
0.00723836 0.00743135 -0.09876885 0 0 0 0
-0.06662992 -0.05096838 0.01087030 0 0 0 0
0.01672063 -0.05200122 0.07941353 0 0 0 0
-0.00442648 -0.06249681 0.07667830 0 0 0 0
0.02112893 0.02496560 0.09166730 0 0 0 0
-0.06918497 -0.04770525 0.01259057 0 0 0 0
-0.04649122 -0.02597433 -0.07801807 0 0 0 0
-0.07147712 -0.03001964 0.04705501 0 0 0 0
-0.04249720 0.07392098 0.00571508 0 0 0 0
0.04838241 0.02681749 -0.07630701 0 0 0 0
0.03241768 -0.07991076 -0.02086306 0 0 0 0
-0.04508656 -0.02745114 -0.07810317 0 0 0 0
-0.02329392 -0.08551096 0.02354141 0 0 0 0
-0.00352641 0.06718636 -0.07255582 0 0 0 0
0.01872414 0.05814860 -0.07309587 0 0 0 0
0.02182697 0.03256596 -0.08827762 0 0 0 0
-0.09238775 0.01511910 -0.01340551 0 0 0 0
0.01336042 -0.09441227 -0.00467120 0 0 0 0
-0.04101568 -0.01943214 -0.08489622 0 0 0 0
0.07336256 -0.03202929 0.04038572 0 0 0 0
0.00843898 0.04032166 -0.08920703 0 0 0 0
-0.03593329 0.06931917 -0.04208840 0 0 0 0
0.03879788 0.06522959 -0.04568338 0 0 0 0
-0.01037548 -0.07363553 -0.06212581 0 0 0 0
0.05028241 -0.06070843 0.03404729 0 0 0 0
0.06900000 0.04834881 0.00180280 0 0 0 0
-0.02669780 0.07965443 -0.03475029 0 0 0 0
-0.03390108 -0.06040496 -0.05880892 0 0 0 0
-0.00123423 0.08745292 -0.04639976 0 0 0 0
0.03335808 -0.03324945 -0.08235992 0 0 0 0
-0.05017741 -0.04605503 -0.05811989 0 0 0 0
-0.01988337 0.02538031 0.09190796 0 0 0 0
-0.01324821 0.06092349 0.07384049 0 0 0 0
-0.02632774 0.04582865 0.07866143 0 0 0 0
0.02826906 -0.06275464 0.06149810 0 0 0 0
0.06542337 0.04510045 -0.03416768 0 0 0 0
0.04088339 0.06205924 -0.04772605 0 0 0 0
0.03048815 -0.01650639 -0.09152772 0 0 0 0
0.05612895 0.00721785 0.08044805 0 0 0 0
0.04441783 0.07060295 0.01841524 0 0 0 0
0.00610035 0.04024583 0.09005720 0 0 0 0
-0.07605402 0.00691378 -0.06148846 0 0 0 0
0.04047782 0.07615861 -0.00213246 0 0 0 0
0.06946158 -0.04681086 -0.01324893 0 0 0 0
0.09077483 0.01327978 0.02544886 0 0 0 0
-0.01064779 0.09053154 -0.03148556 0 0 0 0
0.02728972 -0.07379288 -0.04637433 0 0 0 0
-0.01659633 0.09219988 -0.00633564 0 0 0 0
-0.01653648 -0.00555073 -0.09785897 0 0 0 0
0.07454357 -0.02563022 0.04728588 0 0 0 0
-0.00950850 -0.05178610 -0.08277272 0 0 0 0
-0.08364788 -0.01314310 0.04472665 0 0 0 0
0.07426457 0.03668547 0.03017051 0 0 0 0
-0.07288919 0.04378618 0.00974578 0 0 0 0
0.05963039 -0.04573259 -0.04478475 0 0 0 0
0.00203402 0.07884278 -0.06053263 0 0 0 0
0.03529530 -0.02664277 -0.08517094 0 0 0 0
-0.00398848 -0.02769403 -0.09515695 0 0 0 0
-0.06336303 -0.04844086 -0.03108557 0 0 0 0
-0.09846304 0.00476005 -0.00647078 0 0 0 0
0.02350518 0.05973123 -0.06899790 0 0 0 0
0.01310160 0.07465615 0.05905126 0 0 0 0
-0.04776141 0.05563871 -0.04801030 0 0 0 0
-0.08861391 0.01090346 -0.03736280 0 0 0 0
0.09583534 -0.00945805 0.01196925 0 0 0 0
0.02378899 0.08414092 -0.02825670 0 0 0 0
-0.02894562 -0.04216528 0.07958788 0 0 0 0
-0.09618680 -0.00838498 0.01023062 0 0 0 0
0.03226767 0.03763554 -0.08047359 0 0 0 0
0.08508951 0.02818723 -0.00130185 0 0 0 0
-0.00895743 0.09519029 0.01549871 0 0 0 0
-0.06457910 -0.03705264 -0.04880933 0 0 0 0
0.00013904 0.07297795 -0.06755499 0 0 0 0
0.04439782 0.06695727 -0.03142671 0 0 0 0
0.00277167 -0.01830428 -0.09780215 0 0 0 0
-0.05008459 -0.05986149 -0.03688755 0 0 0 0
-0.07181268 0.03452847 0.03928000 0 0 0 0
-0.08275118 0.00477861 0.05298170 0 0 0 0
0.05544109 -0.02357030 -0.07265794 0 0 0 0
0.05425693 -0.04916086 -0.04812999 0 0 0 0
0.03315705 0.04528993 -0.07461350 0 0 0 0
0.02551991 -0.07525481 0.04615139 0 0 0 0
-0.00419089 -0.01278068 0.09850296 0 0 0 0
-0.05941647 -0.05688817 -0.01685237 0 0 0 0
0.04632097 -0.06319045 -0.03745044 0 0 0 0
-0.05942392 0.00525561 -0.07853848 0 0 0 0
0.02550926 -0.08248071 -0.02850360 0 0 0 0
-0.05709773 0.03471762 -0.06153637 0 0 0 0
0.03748927 -0.03480438 -0.07879527 0 0 0 0
0.07965135 -0.01550095 -0.04962235 0 0 0 0
0.01520708 -0.00856249 0.09745901 0 0 0 0
0.00486981 -0.05764402 -0.07991574 0 0 0 0
-0.01608890 0.07824675 -0.05088145 0 0 0 0
-0.05027800 -0.01543716 -0.08135958 0 0 0 0
-0.03637753 -0.02946176 -0.08277917 0 0 0 0
-0.06017613 -0.05635651 -0.01550183 0 0 0 0
-0.06831158 0.03701500 -0.04242842 0 0 0 0
-0.07334584 -0.03674200 -0.03131451 0 0 0 0
-0.02836586 -0.07651794 -0.03992757 0 0 0 0
-0.02053015 -0.01965632 -0.09401357 0 0 0 0
-0.04466430 -0.06159678 -0.04355337 0 0 0 0
-0.01609326 -0.02180913 -0.09422348 0 0 0 0
0.03132410 -0.04113913 0.07888773 0 0 0 0
-0.06690623 0.03043972 -0.05331891 0 0 0 0
-0.05350426 -0.00988467 -0.08102072 0 0 0 0
0.02670329 -0.04450408 -0.07918175 0 0 0 0
-0.08734711 0.02471695 0.00612901 0 0 0 0
0.09070118 -0.01835606 -0.01045690 0 0 0 0
0.03016284 0.00698178 -0.09379201 0 0 0 0
0.07875828 -0.03629192 -0.00722264 0 0 0 0
0.00917277 -0.03927241 -0.08970542 0 0 0 0
0.01952383 0.09049885 0.00376508 0 0 0 0
0.06052592 -0.01745952 0.07164552 0 0 0 0
0.07007323 -0.03649013 -0.03991404 0 0 0 0
-0.03389236 0.05667626 -0.06326052 0 0 0 0
0.02163132 0.05300027 0.07582623 0 0 0 0
0.03894796 0.07713306 -0.00420556 0 0 0 0
-0.09223378 -0.01522960 -0.01275060 0 0 0 0
-0.05235786 -0.02591246 -0.07400848 0 0 0 0
0.02714220 0.06121863 -0.06402513 0 0 0 0
0.01808014 -0.03625873 -0.08793233 0 0 0 0
-0.01834098 0.03840842 -0.08700913 0 0 0 0
-0.04478694 -0.00694161 0.08776692 0 0 0 0
0.04262959 -0.06895559 0.03097990 0 0 0 0
-0.03763177 -0.02462502 0.08443080 0 0 0 0
0.01436264 -0.03751123 -0.08869661 0 0 0 0
0.05764682 -0.03305230 -0.06274752 0 0 0 0
0.05040766 0.05367861 -0.04703910 0 0 0 0
0.05575150 0.05925749 0.02281047 0 0 0 0
0.06501573 -0.03373117 -0.05228660 0 0 0 0
-0.02253177 -0.04531081 0.08089168 0 0 0 0
0.07861265 0.00242766 0.06026591 0 0 0 0
-0.05523932 -0.05711097 0.03173555 0 0 0 0
-0.02049674 0.05264514 -0.07647798 0 0 0 0
0.04446541 0.06327574 0.03954190 0 0 0 0
-0.04803189 -0.06582253 0.02591624 0 0 0 0
0.04793865 0.06937212 0.00208321 0 0 0 0
-0.02072427 0.00582831 -0.09704302 0 0 0 0
-0.05442525 0.05744473 -0.03204100 0 0 0 0
-0.00164341 0.02598681 0.09625051 0 0 0 0
-0.02294224 0.05624377 0.07192726 0 0 0 0
0.05161671 0.00759265 -0.08338977 0 0 0 0
0.03323517 0.05503956 -0.06525633 0 0 0 0
0.04213020 0.07350861 -0.01318106 0 0 0 0
0.00866805 -0.03409369 -0.09219755 0 0 0 0
-0.04191202 0.00405779 -0.08977154 0 0 0 0
-0.05005183 0.00306506 -0.08588880 0 0 0 0
-0.01336008 -0.01239834 -0.09755933 0 0 0 0
0.03954848 0.07624362 0.01273352 0 0 0 0
-0.01942132 0.00266883 -0.09771783 0 0 0 0
0.03628236 0.06004196 -0.05675877 0 0 0 0
-0.03050571 -0.08299093 0.01173103 0 0 0 0
0.00522819 -0.03130949 0.09380573 0 0 0 0
0.08813976 0.02419810 -0.00645488 0 0 0 0
0.03799971 0.06496131 -0.04732206 0 0 0 0
0.06624954 -0.00651102 0.07206495 0 0 0 0
-0.01160378 -0.02137106 0.09591548 0 0 0 0
-0.08520554 0.00234244 0.05065685 0 0 0 0
-0.00056438 0.00099553 -0.09982841 0 0 0 0
0.08702424 -0.02334390 -0.01658195 0 0 0 0
-0.06938442 0.04688983 -0.01330969 0 0 0 0
-0.07479486 -0.04022240 -0.01832941 0 0 0 0
-0.02459707 0.04032208 -0.08295131 0 0 0 0
0.06305452 -0.02198147 -0.06597739 0 0 0 0
0.06574889 0.05155715 -0.01153676 0 0 0 0
-0.08734813 -0.02103595 0.02128160 0 0 0 0
-0.05932270 -0.05880572 0.00521823 0 0 0 0
-0.01521975 -0.06478012 -0.06963549 0 0 0 0
-0.06735860 -0.02320182 0.06008386 0 0 0 0
-0.06535613 -0.04014421 0.04337200 0 0 0 0
0.01456633 -0.03310663 -0.09063397 0 0 0 0
0.08934399 -0.01901140 0.01810946 0 0 0 0
0.07253318 -0.03985253 -0.02603500 0 0 0 0
-0.03673082 -0.05310155 0.06473194 0 0 0 0
0.07341899 -0.02416250 -0.05106287 0 0 0 0
-0.09786880 -0.00574446 -0.00536799 0 0 0 0
-0.05124491 -0.06520259 -0.01559773 0 0 0 0
-0.01285137 -0.00407933 -0.09878623 0 0 0 0
-0.07619131 -0.02598050 -0.04326131 0 0 0 0
0.00999160 -0.03693455 -0.09070732 0 0 0 0
-0.04407084 -0.03240297 0.07589664 0 0 0 0
-0.05770635 0.05784907 -0.02060751 0 0 0 0
0.01336897 -0.02052803 -0.09532680 0 0 0 0
0.03469690 -0.06195897 0.05559075 0 0 0 0
-0.07217510 0.00033992 -0.06819992 0 0 0 0
-0.04273808 -0.06739558 0.03421203 0 0 0 0
0.08460622 0.02890998 -0.00367788 0 0 0 0
0.05780610 -0.03841548 -0.05719350 0 0 0 0
-0.05744799 -0.01341026 0.07694424 0 0 0 0
0.03535777 -0.06662945 -0.04764166 0 0 0 0
-0.01733088 -0.08597235 -0.03330994 0 0 0 0
-0.09087660 0.00161104 0.03893474 0 0 0 0
-0.02833661 -0.02471011 -0.08890601 0 0 0 0
-0.08045012 -0.03409954 -0.00954176 0 0 0 0
0.01027826 -0.07541426 0.05984149 0 0 0 0
-0.06132381 -0.05673765 -0.00653352 0 0 0 0
-0.01471815 0.06879648 -0.06491584 0 0 0 0
-0.04960639 0.06739143 -0.01077888 0 0 0 0
-0.07517870 -0.01944685 -0.05313157 0 0 0 0
-0.06888676 0.00058027 -0.07199313 0 0 0 0
0.00457589 -0.09629445 0.01913909 0 0 0 0
0.04749408 0.03366864 -0.07222187 0 0 0 0
-0.01091066 -0.02408278 -0.09498154 0 0 0 0
0.03386950 0.06793670 -0.04784009 0 0 0 0
-0.05958574 0.02930875 -0.06396101 0 0 0 0
0.03015567 -0.06358172 -0.05837918 0 0 0 0
-0.03280187 0.02847375 -0.08559531 0 0 0 0
0.00655113 -0.01377610 -0.09831192 0 0 0 0
-0.05726275 -0.03672808 -0.05973478 0 0 0 0
0.04078046 0.07291850 -0.02276056 0 0 0 0
-0.07236200 0.04076090 0.02452412 0 0 0 0
0.02591503 -0.02707770 0.08928113 0 0 0 0
0.08154655 0.01239214 -0.04926201 0 0 0 0
0.07277806 -0.03949390 -0.02683398 0 0 0 0
0.07800318 -0.02565559 0.04040751 0 0 0 0
0.07418422 -0.01180183 0.06063477 0 0 0 0
-0.07234667 0.02214238 -0.05432919 0 0 0 0
-0.03214578 -0.06366499 0.05609452 0 0 0 0
0.09264747 -0.01304740 -0.01908948 0 0 0 0
-0.09419774 0.01293772 0.00380514 0 0 0 0
-0.05109699 0.03647622 -0.06643763 0 0 0 0
-0.05713531 -0.02369687 -0.07101338 0 0 0 0
0.03952006 -0.05347414 0.06114810 0 0 0 0
-0.06700735 0.03653085 0.04621286 0 0 0 0
-0.02062572 0.05845866 -0.07176624 0 0 0 0
0.05543709 -0.00693198 -0.08086887 0 0 0 0
0.05664039 0.05325603 0.03644702 0 0 0 0
-0.06255326 0.05547791 0.00156412 0 0 0 0
0.00071085 -0.00521377 0.09953791 0 0 0 0
-0.07880815 0.00494258 -0.05932435 0 0 0 0
0.07031847 -0.03863005 -0.03550359 0 0 0 0
0.02821602 0.07988392 -0.03133624 0 0 0 0
-0.00191961 -0.09773857 -0.01556289 0 0 0 0
-0.03203275 -0.02820564 -0.08564416 0 0 0 0
0.01131222 -0.05859608 0.07701220 0 0 0 0
-0.00768617 -0.00717211 0.09896717 0 0 0 0
-0.01227814 0.08794893 0.03618475 0 0 0 0
0.01601864 -0.02687727 0.09261862 0 0 0 0
0.04232650 0.07410930 -0.00852460 0 0 0 0
0.02037531 0.01204171 -0.09566072 0 0 0 0
0.08581460 -0.00259617 0.04973408 0 0 0 0
-0.07531064 0.00776272 -0.06147818 0 0 0 0
0.01826488 0.06833769 -0.06289232 0 0 0 0
-0.03125251 -0.03305240 -0.08367495 0 0 0 0
-0.08621185 0.01068447 -0.04252961 0 0 0 0
-0.02087833 0.07604530 -0.04996573 0 0 0 0
0.02059608 0.05810008 -0.07202123 0 0 0 0
-0.00225930 0.07126599 -0.06874379 0 0 0 0
-0.02735591 0.04790328 -0.07599810 0 0 0 0
-0.01492758 0.09199868 -0.01724116 0 0 0 0
-0.03049954 -0.04572905 -0.07565729 0 0 0 0
0.01050614 0.05234126 -0.08164715 0 0 0 0
-0.02424637 -0.06126571 -0.06610113 0 0 0 0
0.08677376 -0.00427147 -0.04654895 0 0 0 0
0.08397101 -0.02719009 -0.01985652 0 0 0 0
0.03680762 0.04269759 0.07375331 0 0 0 0
-0.02225007 -0.08819202 -0.01207580 0 0 0 0
0.03897215 0.04320680 0.07155012 0 0 0 0
0.00011873 0.00125673 0.09953791 0 0 0 0
-0.06604737 0.02378814 -0.06154413 0 0 0 0
-0.04620709 -0.02088226 0.08111844 0 0 0 0
0.05045454 -0.06783651 -0.00079754 0 0 0 0
0.03071665 -0.01311355 -0.09227176 0 0 0 0
0.00787504 0.08929420 0.03786901 0 0 0 0
-0.03006401 -0.01813104 -0.09112454 0 0 0 0
-0.08850760 0.01606591 -0.02869087 0 0 0 0
0.00876339 0.00385379 -0.09895440 0 0 0 0
-0.04263531 0.06914718 -0.02972862 0 0 0 0
-0.05798935 0.00761467 0.07913616 0 0 0 0
0.03721496 0.06750232 -0.04346513 0 0 0 0
-0.08481713 0.00277797 -0.05064028 0 0 0 0
0.04449745 -0.00807984 0.08751201 0 0 0 0
-0.07268698 -0.04067133 -0.02415526 0 0 0 0
0.02724741 0.03822027 -0.08299230 0 0 0 0
0.00419723 0.06831543 -0.07148308 0 0 0 0
-0.00884201 0.00693461 -0.09864186 0 0 0 0
-0.01451203 -0.01986216 0.09559812 0 0 0 0
-0.00929864 -0.03308588 0.09213077 0 0 0 0
-0.02037273 0.08676118 0.02522678 0 0 0 0
-0.07364544 0.01954693 0.05511244 0 0 0 0
0.07189213 0.00271464 -0.06837512 0 0 0 0
-0.00483261 -0.08734309 -0.04459183 0 0 0 0
0.03953133 0.07185019 -0.02923744 0 0 0 0
-0.00074398 0.02166730 -0.09717092 0 0 0 0
-0.00578672 0.08475547 0.04956792 0 0 0 0
-0.03428251 -0.04192108 0.07619186 0 0 0 0
0.06640117 0.04359001 -0.03497406 0 0 0 0
-0.07898142 0.01343865 -0.05266892 0 0 0 0
-0.07871641 0.03641162 -0.00672828 0 0 0 0
0.07916618 0.02061323 -0.04542640 0 0 0 0
0.05051797 0.01518744 0.08095281 0 0 0 0
-0.07080589 -0.00874597 -0.06670693 0 0 0 0
-0.06061672 0.05275164 -0.02772949 0 0 0 0
0.01790024 0.08317031 -0.04010036 0 0 0 0
0.02764590 -0.06139719 -0.06339389 0 0 0 0
0.04580614 0.01143001 -0.08578859 0 0 0 0
-0.02828472 -0.01832630 0.09134781 0 0 0 0
-0.00897756 0.02713033 -0.09458502 0 0 0 0
-0.01803561 0.08222820 -0.04223182 0 0 0 0
0.09124716 0.00277493 -0.03854331 0 0 0 0
-0.06466217 -0.04830806 0.02920185 0 0 0 0
-0.07298027 -0.02725427 -0.04778066 0 0 0 0
0.03363458 0.07670875 -0.02842142 0 0 0 0
-0.02455882 -0.05681368 0.07039438 0 0 0 0
0.07864018 -0.03571940 0.01543805 0 0 0 0
0.00627821 0.09200002 -0.03223217 0 0 0 0
0.07923356 0.01268061 0.05282093 0 0 0 0
0.01125329 -0.08929119 -0.03331354 0 0 0 0
0.08417810 0.00805674 -0.04823128 0 0 0 0
0.02789054 0.06047382 -0.06406480 0 0 0 0
-0.05167266 0.03401483 0.06806268 0 0 0 0
0.00207984 0.09747841 -0.01593673 0 0 0 0
-0.00382692 0.08110057 0.05585350 0 0 0 0
0.02769833 0.00389054 0.09555776 0 0 0 0
0.00279947 0.03478599 -0.09301478 0 0 0 0
0.07849810 0.03739761 -0.00406037 0 0 0 0
0.02668715 -0.08545901 0.01341546 0 0 0 0
0.06053806 0.00154309 -0.07860057 0 0 0 0
0.03335495 -0.03603751 -0.08058096 0 0 0 0
-0.03518211 0.01523945 -0.08965127 0 0 0 0
-0.00531572 -0.09506999 0.02309507 0 0 0 0
-0.02331776 -0.03784733 -0.08541037 0 0 0 0
-0.03295631 -0.07169998 -0.04286129 0 0 0 0
0.08810788 0.02315501 0.00826138 0 0 0 0
0.02871130 -0.04242428 0.07954614 0 0 0 0
-0.00869118 0.05146853 -0.08311050 0 0 0 0
-0.09376709 0.00645550 -0.02657556 0 0 0 0
0.03676409 0.02724084 0.08348464 0 0 0 0
0.02838957 -0.00882856 0.09407513 0 0 0 0
-0.00055836 0.01354050 -0.09886148 0 0 0 0
-0.00973294 -0.09378622 0.02010539 0 0 0 0
0.01722046 0.01571035 -0.09565274 0 0 0 0
-0.04374158 -0.06578815 0.03593976 0 0 0 0
-0.04838721 0.06860556 0.01269453 0 0 0 0
-0.02087631 0.08945091 0.01186620 0 0 0 0
0.01090566 0.00290532 -0.09877776 0 0 0 0
-0.08476654 0.02734552 -0.01294999 0 0 0 0
-0.04651157 -0.06530815 -0.03054327 0 0 0 0
-0.07225447 0.04487279 -0.00415804 0 0 0 0
0.05183712 -0.00370349 -0.08457063 0 0 0 0
0.02215839 0.08928935 -0.00580228 0 0 0 0
0.07769848 0.00342423 0.06099010 0 0 0 0
-0.06793039 0.03106991 -0.05134501 0 0 0 0
-0.02593132 -0.03184394 -0.08698432 0 0 0 0
-0.05136989 0.02542445 0.07475157 0 0 0 0
-0.06354125 0.05306887 0.01656428 0 0 0 0
0.01928281 -0.02230899 -0.09356935 0 0 0 0
-0.07344309 0.03854984 -0.02813785 0 0 0 0
-0.07194322 -0.04513124 0.00678773 0 0 0 0
-0.06890240 -0.00645203 0.06967124 0 0 0 0
0.08368255 -0.02894124 -0.01226347 0 0 0 0
0.03247438 -0.03659502 -0.08108747 0 0 0 0
0.03566512 0.06668179 -0.04732867 0 0 0 0
-0.04381837 0.05891851 0.04927167 0 0 0 0
-0.06684791 -0.00963936 0.06999864 0 0 0 0
-0.06957255 -0.04749023 0.00985247 0 0 0 0
0.03252847 0.02038294 0.08920260 0 0 0 0
0.02537174 -0.07985096 -0.03597464 0 0 0 0
-0.00673146 -0.09698765 -0.00933363 0 0 0 0
0.00829472 -0.08913876 -0.03871002 0 0 0 0
-0.05892780 -0.02167470 -0.07046058 0 0 0 0
0.09794423 0.00532977 -0.00346005 0 0 0 0
0.09811580 -0.00192148 0.01467254 0 0 0 0
0.08268248 0.02993729 0.01595197 0 0 0 0
0.02441081 -0.01593176 -0.09353121 0 0 0 0
0.07931596 0.02721360 -0.03562122 0 0 0 0
-0.06975135 0.04489630 0.02159791 0 0 0 0
-0.06252609 0.05371599 -0.01886432 0 0 0 0
-0.00458859 -0.07058217 -0.06858753 0 0 0 0
0.02384241 0.05610589 -0.07184747 0 0 0 0
-0.08699378 0.02559846 -0.00252857 0 0 0 0
0.07852152 0.01949541 -0.04719666 0 0 0 0
0.07946648 -0.03563919 -0.00878338 0 0 0 0
-0.01414380 0.05939215 -0.07447518 0 0 0 0
-0.00057582 0.08490185 -0.05132376 0 0 0 0
0.04669589 0.05073771 0.05620656 0 0 0 0
-0.06370018 -0.05433819 -0.00363884 0 0 0 0
0.03532693 0.07126317 0.03936152 0 0 0 0
-0.02229519 -0.07390200 0.05228689 0 0 0 0
-0.04886589 0.04777968 -0.05767623 0 0 0 0
-0.04336579 0.05106031 -0.05964741 0 0 0 0
-0.00443417 0.06915578 -0.07043738 0 0 0 0
-0.03116581 0.07832716 -0.02949720 0 0 0 0
0.01268202 0.08308525 0.04669811 0 0 0 0
0.07519732 0.01736741 -0.05470151 0 0 0 0
0.08818087 0.01568791 0.03094016 0 0 0 0
0.05672437 -0.06064301 0.01333987 0 0 0 0
0.00980820 -0.01784185 -0.09670450 0 0 0 0
0.05020241 -0.05268604 -0.04902279 0 0 0 0
-0.07413308 0.00903083 -0.06218235 0 0 0 0
-0.00656528 0.09738422 -0.00283348 0 0 0 0
0.09859011 -0.00463590 -0.00154591 0 0 0 0
-0.00385001 0.00071401 -0.09947545 0 0 0 0
-0.03249062 -0.01915891 -0.08946162 0 0 0 0
0.06939238 0.00381077 -0.07020837 0 0 0 0
-0.04366402 -0.02050579 -0.08297391 0 0 0 0
-0.05183376 -0.06208679 0.02565070 0 0 0 0
-0.04042889 0.05303059 -0.06065921 0 0 0 0
0.06669877 -0.02248167 -0.06167322 0 0 0 0
0.05776220 -0.06061835 -0.00495061 0 0 0 0
0.08973319 0.00573489 -0.03924292 0 0 0 0
-0.07664201 -0.03165212 -0.03393056 0 0 0 0
0.00148038 0.06063715 -0.07864828 0 0 0 0
0.01812107 0.05801999 0.07344721 0 0 0 0
-0.00235648 0.01435482 0.09842537 0 0 0 0
0.07035471 -0.00015382 0.07003155 0 0 0 0
0.02659426 -0.05818291 -0.06746101 0 0 0 0
0.09807910 0.00000201 0.01523264 0 0 0 0
-0.06106165 -0.03231833 0.05926729 0 0 0 0
-0.06447428 -0.05340365 0.00643596 0 0 0 0
0.01398698 0.07785933 -0.05376012 0 0 0 0
-0.00940912 0.00094775 -0.09910324 0 0 0 0
-0.02751281 -0.06572564 0.05819607 0 0 0 0
0.01028427 -0.04886323 -0.08422948 0 0 0 0
-0.08769929 -0.02416798 0.00745045 0 0 0 0
0.04688323 -0.02232020 -0.08004053 0 0 0 0
-0.08691502 0.01463611 -0.03629756 0 0 0 0
0.05277634 -0.06262966 -0.02153440 0 0 0 0
0.00216672 -0.05611627 -0.08223789 0 0 0 0
0.00793684 -0.09665316 -0.00895824 0 0 0 0
-0.05010089 -0.06579310 0.01801343 0 0 0 0
0.02041609 0.04313906 0.08312310 0 0 0 0
0.09035800 0.01954029 0.00721077 0 0 0 0
0.02975066 -0.08221426 0.01831212 0 0 0 0
-0.06356224 0.01474317 -0.07079006 0 0 0 0
-0.02926102 -0.06719594 0.05426389 0 0 0 0
-0.04176249 -0.06451841 -0.04303943 0 0 0 0
-0.09497523 0.00247413 -0.02681953 0 0 0 0
0.02320108 -0.08645263 -0.02101492 0 0 0 0
0.04053492 -0.06750897 -0.03804951 0 0 0 0
-0.02969166 0.08409474 -0.00151052 0 0 0 0
-0.01008862 -0.09180772 -0.02738914 0 0 0 0
0.09566613 -0.00242115 -0.02532226 0 0 0 0
0.03116185 0.08197119 -0.01665170 0 0 0 0
-0.03648094 -0.03379538 0.08016571 0 0 0 0
0.04179257 -0.03319364 -0.07702788 0 0 0 0
0.02770266 -0.04323317 -0.07944157 0 0 0 0
-0.02384323 0.07499044 -0.04844144 0 0 0 0
-0.05861945 0.02102800 -0.07133324 0 0 0 0
-0.04129335 0.00346727 0.09015992 0 0 0 0
-0.01319166 0.04755949 -0.08379398 0 0 0 0
-0.05753466 -0.03599213 0.05986223 0 0 0 0
-0.07074097 0.04690354 -0.00345601 0 0 0 0
0.01008836 -0.01194919 0.09778292 0 0 0 0
0.01074956 0.08351362 0.04745188 0 0 0 0
0.08380012 -0.00589010 0.05106636 0 0 0 0
-0.02535165 0.00507611 -0.09570835 0 0 0 0
-0.00938263 -0.08131685 -0.05185754 0 0 0 0
-0.04966783 0.03826661 -0.06636396 0 0 0 0
-0.00519769 -0.01662849 0.09765445 0 0 0 0
-0.06880168 0.04679720 -0.01672980 0 0 0 0
0.07065102 0.04612358 0.01112182 0 0 0 0
-0.01756340 0.08797299 0.02798504 0 0 0 0
-0.00049158 -0.02607118 -0.09616442 0 0 0 0
0.00658289 -0.09738423 -0.00606068 0 0 0 0
-0.07480617 0.03671113 0.02697922 0 0 0 0
0.00811390 -0.00488835 0.09924935 0 0 0 0
0.05604872 0.02348688 -0.07216592 0 0 0 0
-0.04229298 0.03415601 0.07615079 0 0 0 0
-0.08178483 -0.03064262 -0.01879656 0 0 0 0
0.09408135 -0.00536704 0.02700423 0 0 0 0
-0.01135579 -0.06613549 -0.07024091 0 0 0 0
-0.01480879 0.04730250 -0.08337279 0 0 0 0
-0.04470984 -0.04211646 -0.06778831 0 0 0 0
-0.01812182 -0.00055195 -0.09810360 0 0 0 0
0.03029217 0.06319669 -0.05869569 0 0 0 0
0.00652514 0.09110057 -0.03436342 0 0 0 0
-0.05411753 0.06138812 -0.02140413 0 0 0 0
-0.01220396 0.09468226 -0.00052502 0 0 0 0
0.01938312 -0.07644086 -0.05053718 0 0 0 0
0.07941535 0.03060544 0.02781102 0 0 0 0
-0.00436483 0.00294622 -0.09934612 0 0 0 0
