ply
format ascii 1.0
comment https://github.com/mikedh/trimesh
element vertex 1119
property float x
property float y
property float z
property uchar red
property uchar green
property uchar blue
property uchar alpha
end_header
0.04373006 0.03348245 -0.06282499 0 0 0 0
-0.02596050 0.07233258 -0.01569412 0 0 0 0
-0.02106998 0.05852069 -0.05984287 0 0 0 0
0.09416258 0.00401703 -0.01887020 0 0 0 0
0.01813527 0.01773005 -0.09297289 0 0 0 0
0.03395038 -0.05133056 -0.05173171 0 0 0 0
-0.01935959 -0.04861561 -0.07320735 0 0 0 0
0.06218655 0.02137541 -0.05416841 0 0 0 0
-0.01892864 -0.07097055 -0.04371448 0 0 0 0
-0.07909807 -0.02018255 -0.00745713 0 0 0 0
0.03331856 0.00417516 -0.09242272 0 0 0 0
0.01808779 -0.05249866 0.07020561 0 0 0 0
-0.01093886 0.07754723 0.04601255 0 0 0 0
-0.07259641 -0.00848037 0.05775219 0 0 0 0
0.04514482 -0.05438465 -0.00487754 0 0 0 0
-0.04120282 0.05565488 -0.02457235 0 0 0 0
-0.02595566 -0.07354830 0.00265420 0 0 0 0
0.01790444 0.07711108 -0.02969689 0 0 0 0
-0.01755484 -0.07555757 -0.03519423 0 0 0 0
0.07080191 -0.02858467 0.00631443 0 0 0 0
0.04576202 0.03210520 -0.06200401 0 0 0 0
0.00498138 0.08700901 -0.03824312 0 0 0 0
0.03953918 -0.05990572 0.00449585 0 0 0 0
0.03490205 -0.06282352 -0.02056582 0 0 0 0
-0.07213366 0.02299941 0.03051408 0 0 0 0
0.02222037 -0.02371687 -0.08836687 0 0 0 0
0.06221288 0.03354767 0.02776495 0 0 0 0
0.00857032 -0.01914426 0.09601054 0 0 0 0
-0.06674394 0.03179529 -0.01514240 0 0 0 0
-0.05036572 -0.04942558 -0.00630607 0 0 0 0
-0.03073877 0.06539518 -0.02698372 0 0 0 0
-0.02730032 -0.04585309 -0.06750557 0 0 0 0
0.00797445 0.09131943 0.00920517 0 0 0 0
0.03104164 0.06462184 -0.02826214 0 0 0 0
-0.07461206 -0.02511270 -0.00423106 0 0 0 0
0.03340109 -0.06440669 -0.02028885 0 0 0 0
-0.02256744 -0.06391084 -0.04943662 0 0 0 0
-0.07173112 -0.01713482 0.04515446 0 0 0 0
0.00983270 -0.08923513 -0.00966293 0 0 0 0
0.06661160 -0.03158189 0.01710555 0 0 0 0
0.04197837 0.03046471 -0.06880566 0 0 0 0
-0.03542852 -0.02924727 0.07592976 0 0 0 0
-0.00348075 0.06842361 -0.06948121 0 0 0 0
-0.02479996 0.04750895 -0.06843545 0 0 0 0
0.07538729 -0.02094653 0.02525328 0 0 0 0
0.01930511 -0.06889559 0.04665725 0 0 0 0
-0.07644634 0.01313574 0.04353669 0 0 0 0
0.06292693 0.02106842 -0.05345351 0 0 0 0
-0.02706470 0.04724269 -0.06623490 0 0 0 0
0.02999530 0.06295454 0.03592887 0 0 0 0
0.04502397 0.04649856 -0.03976773 0 0 0 0
0.00380523 -0.03207523 -0.09296786 0 0 0 0
0.00880635 -0.07587170 0.05258950 0 0 0 0
0.05699132 -0.04270675 -0.00700373 0 0 0 0
0.00282829 -0.05733492 0.07960592 0 0 0 0
-0.03841629 0.05591588 0.03280615 0 0 0 0
-0.06492900 -0.02489745 -0.04301880 0 0 0 0
0.02880953 -0.05661516 0.05151913 0 0 0 0
-0.05229791 -0.04367612 -0.02646735 0 0 0 0
0.06191063 -0.00401559 0.07471878 0 0 0 0
0.08486462 -0.01487853 -0.00480442 0 0 0 0
-0.06967780 -0.00814152 -0.06206407 0 0 0 0
-0.01337266 -0.01323106 -0.09604795 0 0 0 0
0.00663596 0.03858664 0.08907743 0 0 0 0
-0.01715206 0.04594314 -0.07700850 0 0 0 0
-0.04514382 0.05417367 0.00846914 0 0 0 0
-0.03664087 -0.03343080 0.07070414 0 0 0 0
-0.07260920 -0.00589577 0.06143907 0 0 0 0
0.06347594 -0.03586801 0.00764392 0 0 0 0
-0.00233038 0.08691029 0.04430794 0 0 0 0
0.07653914 0.02270305 0.01081725 0 0 0 0
0.00128453 0.01514559 -0.09824345 0 0 0 0
0.01408068 0.04381292 -0.08099580 0 0 0 0
0.02302281 -0.02416735 -0.08766123 0 0 0 0
-0.02966002 0.01578843 -0.08859193 0 0 0 0
-0.00008563 0.09043781 0.04102051 0 0 0 0
0.03713064 -0.06153954 -0.01378505 0 0 0 0
0.02855702 -0.06677739 -0.02862245 0 0 0 0
-0.00551067 0.03310750 -0.09188122 0 0 0 0
-0.04108719 0.05173260 -0.03598938 0 0 0 0
-0.07673947 0.01870308 -0.02886249 0 0 0 0
0.04473752 0.01107563 0.08243751 0 0 0 0
-0.02742080 0.01265058 0.09116293 0 0 0 0
-0.00850276 0.06930041 -0.06238567 0 0 0 0
-0.01286543 -0.06397916 -0.06344116 0 0 0 0
-0.00697747 -0.08980237 -0.02375233 0 0 0 0
-0.06543959 0.00455343 0.07078031 0 0 0 0
-0.01099429 0.01289227 0.09675606 0 0 0 0
-0.06145458 -0.02395135 -0.05112659 0 0 0 0
-0.07413007 -0.01040716 -0.05315725 0 0 0 0
0.02274736 -0.07440182 -0.02250789 0 0 0 0
-0.02455025 -0.07473953 -0.00736220 0 0 0 0
0.07301960 -0.02456579 -0.02103814 0 0 0 0
-0.08179410 0.01531492 -0.02301791 0 0 0 0
0.05875706 -0.03947179 -0.01609139 0 0 0 0
-0.01896591 -0.04203009 0.07906384 0 0 0 0
-0.03457918 0.02675522 -0.07850748 0 0 0 0
0.05337144 0.03351016 0.04943053 0 0 0 0
-0.04536840 0.02484159 -0.07095160 0 0 0 0
0.02232596 0.03864632 -0.07881577 0 0 0 0
-0.05867585 0.04097056 -0.00366528 0 0 0 0
-0.00717515 -0.09055148 -0.01919772 0 0 0 0
-0.08721939 0.01269255 -0.00091291 0 0 0 0
-0.03403288 0.00319871 -0.09254896 0 0 0 0
-0.01810266 0.07960613 -0.01930810 0 0 0 0
-0.05535764 0.03052441 -0.05057948 0 0 0 0
-0.02525956 -0.00136378 -0.09592192 0 0 0 0
0.07070275 0.01965621 0.04178169 0 0 0 0
-0.05624930 -0.02177017 -0.06214750 0 0 0 0
0.05503615 0.04465014 -0.00303133 0 0 0 0
0.03839028 -0.01375862 0.08482266 0 0 0 0
0.02032596 -0.07166588 -0.03823917 0 0 0 0
0.07927395 0.02002114 0.00916783 0 0 0 0
0.01124178 -0.01909241 -0.09480935 0 0 0 0
-0.07722412 -0.02173974 0.01373031 0 0 0 0
-0.09161257 0.00183643 -0.03497504 0 0 0 0
0.00810987 0.04497833 -0.08433951 0 0 0 0
-0.04709054 0.00729233 -0.08361593 0 0 0 0
-0.01696062 -0.06130214 -0.06187961 0 0 0 0
-0.09139041 -0.00013585 -0.03950431 0 0 0 0
-0.06777255 -0.02433074 -0.03865454 0 0 0 0
0.00616815 -0.08666471 0.03619311 0 0 0 0
0.02659410 -0.06350166 0.04237629 0 0 0 0
0.01693201 -0.05058951 -0.07370690 0 0 0 0
-0.04721431 0.04560266 -0.03710455 0 0 0 0
-0.01104368 0.07467394 -0.05061242 0 0 0 0
-0.02185343 0.06384834 -0.05092503 0 0 0 0
0.06309859 0.02026447 -0.05449653 0 0 0 0
0.02093518 0.05308698 0.06687830 0 0 0 0
-0.02324036 -0.03601424 0.08019737 0 0 0 0
-0.09093593 -0.00673547 0.01939295 0 0 0 0
0.00061952 0.03442778 -0.09324449 0 0 0 0
-0.07397288 -0.02533745 -0.00714913 0 0 0 0
0.02925028 0.06946199 -0.01334870 0 0 0 0
0.00765283 -0.09113558 -0.01263030 0 0 0 0
-0.08833628 0.00987137 0.01704346 0 0 0 0
-0.03477245 0.04711554 -0.05692980 0 0 0 0
0.04857796 -0.04501128 -0.03389851 0 0 0 0
-0.09137861 -0.00516025 -0.02456425 0 0 0 0
0.06619449 -0.01966412 -0.05062441 0 0 0 0
-0.01790218 -0.07453813 -0.03702052 0 0 0 0
-0.01885147 -0.08038753 0.01091668 0 0 0 0
0.01277810 -0.00579791 -0.09796678 0 0 0 0
-0.05777507 -0.00944713 -0.07349513 0 0 0 0
-0.00683115 0.08436923 0.03988094 0 0 0 0
-0.03018971 -0.06729154 -0.02138903 0 0 0 0
0.04895555 -0.03552660 0.05287032 0 0 0 0
-0.00328895 0.09559490 0.01408087 0 0 0 0
0.01205226 -0.02524997 -0.09251494 0 0 0 0
0.03109547 0.05818003 -0.04474335 0 0 0 0
0.00655161 -0.08718766 -0.03399703 0 0 0 0
-0.03036949 -0.05740653 -0.04694909 0 0 0 0
0.01690133 -0.03054718 -0.08762875 0 0 0 0
-0.02105934 0.07843094 -0.00528376 0 0 0 0
-0.04988036 0.04663065 -0.02465812 0 0 0 0
0.01949314 -0.07799508 -0.02136555 0 0 0 0
0.02751144 0.01773015 -0.08875865 0 0 0 0
-0.01832030 0.05998752 -0.06145152 0 0 0 0
-0.00068445 0.04013906 -0.09123132 0 0 0 0
0.01066756 0.07024740 -0.05818226 0 0 0 0
-0.01172140 -0.08465843 -0.02510009 0 0 0 0
0.05911002 -0.03803444 0.02170162 0 0 0 0
0.03613385 0.04865410 -0.05214601 0 0 0 0
-0.03787159 -0.05038772 -0.04602271 0 0 0 0
-0.02602668 -0.05440607 -0.05933039 0 0 0 0
0.05092393 -0.04895298 -0.00127597 0 0 0 0
-0.03901966 0.04009703 -0.06093933 0 0 0 0
-0.03079966 0.02323896 -0.08387285 0 0 0 0
-0.02195467 0.04815872 -0.07085297 0 0 0 0
-0.08444574 0.00961236 -0.03292276 0 0 0 0
-0.03083312 0.06893996 -0.00235233 0 0 0 0
-0.05928473 -0.03622200 0.02887698 0 0 0 0
0.00513217 -0.08979460 0.03141794 0 0 0 0
0.05123384 0.04840237 -0.00146960 0 0 0 0
0.00779425 0.05972447 0.07317654 0 0 0 0
-0.05850510 -0.00523262 0.07683824 0 0 0 0
0.08795609 -0.00088575 0.04520891 0 0 0 0
0.04942887 -0.03970110 -0.04435382 0 0 0 0
0.04356382 0.05605050 -0.00078701 0 0 0 0
-0.06784821 0.03007305 -0.01799394 0 0 0 0
0.03273744 0.03786117 -0.07031868 0 0 0 0
0.05290703 0.03855423 -0.03988518 0 0 0 0
0.04123827 0.05605859 -0.02185606 0 0 0 0
0.01134613 -0.05402220 0.07525907 0 0 0 0
-0.03060008 0.06185087 0.03705585 0 0 0 0
0.00343459 0.00776360 -0.09902389 0 0 0 0
0.08710659 -0.01248433 -0.00424058 0 0 0 0
0.00578494 0.06848686 0.06663654 0 0 0 0
0.01562449 -0.07430126 0.04276034 0 0 0 0
-0.00166508 -0.00246012 -0.09982999 0 0 0 0
0.00815134 -0.09103390 0.01259318 0 0 0 0
0.07636680 0.01627677 -0.03646819 0 0 0 0
0.01241358 -0.08731525 -0.00281099 0 0 0 0
-0.00091030 -0.06813504 -0.07202901 0 0 0 0
0.06195923 0.03782646 -0.00613104 0 0 0 0
0.00562525 -0.06598412 -0.06920573 0 0 0 0
-0.01634833 -0.05083938 -0.07405943 0 0 0 0
-0.05825223 -0.03814482 -0.02504206 0 0 0 0
0.05383494 0.01850403 -0.06840235 0 0 0 0
-0.06697875 -0.00516380 -0.06861863 0 0 0 0
0.06398697 -0.01605674 -0.05991857 0 0 0 0
0.05705661 0.01931348 -0.06388135 0 0 0 0
0.06799998 0.02442652 -0.03705806 0 0 0 0
0.03634373 0.02586885 -0.07777246 0 0 0 0
-0.04108325 0.05770309 -0.01258094 0 0 0 0
0.01504516 -0.02607098 -0.09067826 0 0 0 0
0.09179150 -0.00099328 0.03630175 0 0 0 0
0.05070771 -0.02621633 -0.06318672 0 0 0 0
0.02274105 -0.06420554 -0.04853896 0 0 0 0
0.01434154 -0.08269083 -0.02349195 0 0 0 0
0.00682726 0.05600150 -0.07723533 0 0 0 0
-0.08251643 0.01434671 -0.02453874 0 0 0 0
0.00264805 0.09497769 -0.01982175 0 0 0 0
0.02737349 0.07218641 0.00091002 0 0 0 0
-0.09368534 0.00488992 -0.01476881 0 0 0 0
-0.04544786 0.04942926 0.03157508 0 0 0 0
0.00516025 0.08644149 -0.03961589 0 0 0 0
-0.01018109 0.08573640 0.02707732 0 0 0 0
0.05010127 -0.02308943 0.06768353 0 0 0 0
-0.00345660 0.09594719 -0.00618036 0 0 0 0
0.02953074 -0.06290097 -0.03704392 0 0 0 0
0.02265172 0.05572359 0.06162494 0 0 0 0
0.04960405 0.04258191 -0.03849607 0 0 0 0
0.05391499 -0.04252567 0.02478517 0 0 0 0
-0.00454257 0.09426215 -0.01239030 0 0 0 0
0.08066083 0.01770560 0.01634782 0 0 0 0
0.04244508 -0.04734759 -0.04389021 0 0 0 0
0.07527346 0.02273801 -0.01743590 0 0 0 0
-0.06456282 0.02482560 0.04397417 0 0 0 0
-0.04091587 0.05809526 -0.01025067 0 0 0 0
0.06307380 -0.00542343 -0.07263254 0 0 0 0
-0.03893907 0.04955009 -0.04604048 0 0 0 0
0.08952463 0.00883578 -0.01527758 0 0 0 0
0.00597514 -0.09121482 -0.02237049 0 0 0 0
0.02706154 0.04989811 -0.06331447 0 0 0 0
-0.05788326 0.03994847 -0.01854776 0 0 0 0
0.08519541 -0.01413605 0.00803354 0 0 0 0
-0.05344765 0.00268450 -0.08262520 0 0 0 0
-0.00874919 0.09079789 -0.00469498 0 0 0 0
-0.00994739 0.08308490 -0.03637905 0 0 0 0
0.03390225 0.02183593 -0.08284708 0 0 0 0
0.00589011 -0.03099215 -0.09263524 0 0 0 0
-0.06360517 -0.03393948 0.01994823 0 0 0 0
-0.01898207 0.04771981 0.07396761 0 0 0 0
0.00983417 0.08976118 -0.00419464 0 0 0 0
-0.00795687 0.03383998 -0.09069869 0 0 0 0
-0.05076547 0.02665117 -0.06256901 0 0 0 0
0.04413464 -0.02421426 0.07237255 0 0 0 0
-0.06557442 0.02473764 -0.04208798 0 0 0 0
-0.06021959 -0.00647638 -0.07442643 0 0 0 0
-0.00746637 -0.08938456 -0.02351280 0 0 0 0
0.07555675 0.02359613 -0.00878135 0 0 0 0
-0.00840307 0.07829624 -0.04901293 0 0 0 0
-0.00009363 0.02661586 -0.09599771 0 0 0 0
-0.00207834 -0.09678110 -0.01182315 0 0 0 0
0.04806607 -0.05081658 -0.01158249 0 0 0 0
-0.07510063 -0.02419183 0.00924949 0 0 0 0
0.02457632 -0.07315786 0.01911787 0 0 0 0
0.03499991 0.06468184 -0.00329887 0 0 0 0
-0.02404783 -0.07180683 -0.02774262 0 0 0 0
0.05515456 -0.04447319 -0.00120581 0 0 0 0
0.09323828 0.00400588 -0.02218788 0 0 0 0
0.02031811 0.02197591 0.09026308 0 0 0 0
0.00636336 0.04720091 -0.08422686 0 0 0 0
-0.00429110 -0.06934229 -0.06731308 0 0 0 0
-0.01404591 0.07287923 -0.04862050 0 0 0 0
0.00676811 -0.06078278 -0.07367457 0 0 0 0
-0.02160249 0.03754672 -0.08005871 0 0 0 0
0.00061601 0.00309853 -0.09950437 0 0 0 0
-0.00865578 0.05459617 -0.07699676 0 0 0 0
-0.06450756 0.02758805 -0.03795721 0 0 0 0
-0.00200132 0.08898558 -0.04079445 0 0 0 0
-0.04458974 -0.00678780 -0.08530295 0 0 0 0
0.04899689 0.02549748 0.06642099 0 0 0 0
-0.03320006 0.06621437 -0.00875815 0 0 0 0
0.01247032 0.03207847 -0.08914883 0 0 0 0
0.00747125 0.09174377 0.01166473 0 0 0 0
-0.01770473 -0.02110649 0.09167311 0 0 0 0
0.00284916 0.08664511 -0.04365553 0 0 0 0
-0.03640004 -0.02898723 -0.07505722 0 0 0 0
0.03354295 0.06574391 0.00942428 0 0 0 0
0.06779583 -0.00352522 -0.07000574 0 0 0 0
-0.02323090 -0.05182672 -0.06552713 0 0 0 0
0.01831106 -0.07177211 0.04240474 0 0 0 0
-0.05010095 -0.00145160 -0.08565234 0 0 0 0
0.06175590 0.03062825 -0.03811615 0 0 0 0
0.04162088 -0.05198471 -0.03385413 0 0 0 0
-0.04183238 -0.03176708 0.06728767 0 0 0 0
0.01455011 -0.04636263 -0.07886645 0 0 0 0
0.09377158 -0.00202320 -0.02707131 0 0 0 0
0.04082908 0.05852282 0.00739619 0 0 0 0
-0.04334011 0.02142332 -0.07586871 0 0 0 0
-0.01714446 -0.08112022 -0.01798838 0 0 0 0
-0.00011913 -0.07373522 -0.06703599 0 0 0 0
-0.00703985 -0.03058695 0.09215263 0 0 0 0
0.03059331 0.06717001 -0.02043866 0 0 0 0
-0.09402297 0.00181501 0.02742570 0 0 0 0
0.06171141 -0.03419629 0.02712023 0 0 0 0
0.00319723 -0.05828265 0.07874887 0 0 0 0
-0.00831556 -0.07444631 0.05533649 0 0 0 0
0.00666497 0.06243883 -0.07196464 0 0 0 0
0.00259319 -0.08878985 -0.04003511 0 0 0 0
-0.07547869 0.01856470 -0.03266447 0 0 0 0
-0.08769517 0.00963549 -0.02164699 0 0 0 0
0.05258089 0.03476983 -0.04791847 0 0 0 0
-0.00899521 -0.08624165 -0.02895114 0 0 0 0
0.02070151 -0.06331752 -0.05415053 0 0 0 0
0.06326580 0.02507298 -0.04587038 0 0 0 0
0.01629250 0.06497312 0.05748146 0 0 0 0
0.05401774 -0.03979304 0.03398398 0 0 0 0
-0.03186951 0.00647325 -0.09215032 0 0 0 0
0.05808104 0.04164425 -0.00424726 0 0 0 0
-0.02281582 0.06957770 -0.03714768 0 0 0 0
-0.01438454 0.02834469 -0.08990143 0 0 0 0
-0.02183948 -0.06325679 -0.05208567 0 0 0 0
0.08368700 -0.01556844 0.01040391 0 0 0 0
0.06915299 0.02099721 -0.04324351 0 0 0 0
0.04844707 -0.01526946 0.07685876 0 0 0 0
-0.08601697 0.00612407 -0.03783376 0 0 0 0
0.06120910 -0.03229896 -0.03477602 0 0 0 0
0.06801233 0.02598673 -0.03312171 0 0 0 0
-0.03513263 0.05367141 0.04529429 0 0 0 0
-0.09138606 -0.00183092 -0.03575680 0 0 0 0
0.03136523 0.06572224 0.02195130 0 0 0 0
-0.03850117 0.00621105 0.08928406 0 0 0 0
0.05524655 0.03146107 0.04967994 0 0 0 0
-0.08686262 -0.01240421 -0.00760013 0 0 0 0
0.00219740 0.04351576 -0.08846445 0 0 0 0
-0.07270423 -0.01171817 -0.05274904 0 0 0 0
0.04785445 0.04600449 -0.03359380 0 0 0 0
-0.00526427 0.04414561 -0.08641111 0 0 0 0
-0.06578121 0.03256720 -0.01712050 0 0 0 0
-0.01693137 0.03611142 -0.08461606 0 0 0 0
0.01891030 -0.07824457 -0.02273434 0 0 0 0
0.08082415 -0.01862008 0.00451678 0 0 0 0
0.01228448 0.08520771 0.02017813 0 0 0 0
-0.09547366 0.00003334 -0.02711875 0 0 0 0
-0.01897087 0.01207499 -0.09457306 0 0 0 0
0.03705652 0.04952132 -0.04924579 0 0 0 0
0.08925368 -0.00234904 -0.03961403 0 0 0 0
0.04944669 -0.05002670 0.00360736 0 0 0 0
-0.04434296 -0.04906563 0.03489254 0 0 0 0
-0.02677408 -0.07015578 -0.02412609 0 0 0 0
-0.07719402 0.00498892 0.05616641 0 0 0 0
0.04316507 0.00914324 -0.08477874 0 0 0 0
0.05124349 0.03513971 -0.04961886 0 0 0 0
-0.00993852 0.06365886 0.06728968 0 0 0 0
-0.04817821 0.03716978 0.05162909 0 0 0 0
0.06020232 -0.02537304 -0.05116734 0 0 0 0
-0.00715401 0.06531371 -0.06877477 0 0 0 0
-0.00956184 0.07153235 -0.05795751 0 0 0 0
-0.04540455 -0.01839219 -0.07641127 0 0 0 0
-0.08173152 0.01787789 -0.00063414 0 0 0 0
-0.02211710 -0.07241524 -0.03133582 0 0 0 0
0.01031546 0.02189640 -0.09445643 0 0 0 0
-0.05965988 0.03949115 -0.00880054 0 0 0 0
0.02663050 0.02953939 0.08220528 0 0 0 0
-0.07928377 -0.00965240 -0.04472531 0 0 0 0
-0.04377333 0.02175275 -0.07493906 0 0 0 0
-0.05532302 -0.04297784 0.01663510 0 0 0 0
0.09487930 0.00190606 0.02327496 0 0 0 0
0.04372583 0.05205108 -0.02713152 0 0 0 0
0.07912776 -0.01628499 -0.02894345 0 0 0 0
-0.02841372 -0.04393942 0.06849466 0 0 0 0
-0.00341266 0.03964432 0.08995419 0 0 0 0
0.05411983 -0.03704072 -0.04046158 0 0 0 0
0.04983101 0.03635063 -0.04984698 0 0 0 0
-0.01514904 0.01308568 0.09590925 0 0 0 0
0.09250922 -0.00204034 -0.03128904 0 0 0 0
-0.07837123 0.02108325 -0.00851042 0 0 0 0
-0.02290194 0.07448235 0.02065086 0 0 0 0
0.08259587 -0.01688986 -0.00831706 0 0 0 0
-0.00242010 -0.09734060 -0.00248057 0 0 0 0
0.06952245 -0.02931496 -0.01232725 0 0 0 0
0.07989508 0.00004137 -0.05938782 0 0 0 0
-0.07908604 -0.00443068 0.05425435 0 0 0 0
-0.02345063 -0.05668604 -0.05915821 0 0 0 0
0.03950192 0.05736542 -0.02451279 0 0 0 0
-0.00752803 -0.00030020 -0.09924026 0 0 0 0
0.01446971 -0.08515193 -0.00101520 0 0 0 0
-0.07937314 0.01991265 0.00945750 0 0 0 0
-0.02325227 0.07493827 -0.01875693 0 0 0 0
-0.09609351 0.00370528 -0.00208583 0 0 0 0
0.01976342 -0.07823561 0.01795752 0 0 0 0
-0.02784668 0.06320790 0.04021027 0 0 0 0
0.04194266 -0.03747589 0.06012938 0 0 0 0
0.00082018 -0.07410818 0.06600070 0 0 0 0
-0.02139448 0.06421246 -0.05110682 0 0 0 0
0.08425041 -0.01254132 -0.02371230 0 0 0 0
-0.07481501 -0.01436550 -0.04490004 0 0 0 0
0.00007319 -0.00792290 0.09953791 0 0 0 0
0.04649536 0.05196003 0.01595807 0 0 0 0
0.06191484 0.00761757 -0.07149268 0 0 0 0
0.00714875 -0.08595358 -0.03522162 0 0 0 0
-0.07179381 0.01385386 0.05119946 0 0 0 0
0.01361071 -0.00918580 -0.09692543 0 0 0 0
-0.04201319 -0.00389689 0.08879910 0 0 0 0
0.04794526 -0.04895481 0.02277235 0 0 0 0
-0.02009636 0.07301332 0.03556779 0 0 0 0
-0.04296381 -0.05660998 0.00047658 0 0 0 0
0.00798605 0.08343429 -0.03979213 0 0 0 0
-0.05763235 -0.03555100 0.03540135 0 0 0 0
0.03790793 -0.03271595 0.07016935 0 0 0 0
0.02517756 -0.06191800 0.04912381 0 0 0 0
-0.01695454 -0.06698852 -0.05429617 0 0 0 0
-0.04272549 -0.01603265 -0.08035058 0 0 0 0
0.07824992 -0.01795160 0.02583288 0 0 0 0
0.06974109 -0.03002909 -0.00564737 0 0 0 0
-0.00021324 -0.09234194 -0.03742532 0 0 0 0
-0.07465696 0.01063016 -0.05171986 0 0 0 0
0.09545404 -0.00293880 -0.01507705 0 0 0 0
-0.01556455 0.07488959 -0.04241758 0 0 0 0
0.08448319 -0.01123349 0.02795715 0 0 0 0
0.02582871 -0.02647551 0.08472157 0 0 0 0
-0.04733583 -0.01288009 0.07957161 0 0 0 0
-0.08471048 -0.01254846 0.02120005 0 0 0 0
0.00545474 0.08808458 -0.03467070 0 0 0 0
0.04390271 -0.04606125 0.04267401 0 0 0 0
-0.03613293 0.04484364 -0.05843330 0 0 0 0
-0.06244379 -0.00149239 -0.07629257 0 0 0 0
-0.05823949 0.04142486 -0.00234738 0 0 0 0
0.06750287 -0.02969232 -0.02248496 0 0 0 0
0.08714943 -0.01217509 0.00824996 0 0 0 0
-0.03658861 -0.03310846 -0.07138824 0 0 0 0
0.02308620 -0.01651051 -0.09140997 0 0 0 0
0.06915504 -0.00657982 0.06521966 0 0 0 0
0.05591361 -0.04368171 -0.00019450 0 0 0 0
0.05279226 0.02175842 -0.06596701 0 0 0 0
0.04634934 0.01438617 -0.07887483 0 0 0 0
-0.08508340 -0.00545497 0.04137642 0 0 0 0
0.06165323 0.03397430 -0.02835984 0 0 0 0
0.04736019 -0.03053558 -0.06228369 0 0 0 0
-0.00738039 0.09215299 0.00173680 0 0 0 0
0.02725492 0.07187038 -0.01054651 0 0 0 0
-0.07617822 0.01634902 -0.03784188 0 0 0 0
0.05732344 -0.03977689 -0.02267246 0 0 0 0
0.06900674 0.02895388 -0.01775044 0 0 0 0
-0.00731229 -0.06012446 -0.07331248 0 0 0 0
-0.02373385 0.07244961 0.02591205 0 0 0 0
-0.02916851 -0.03342063 -0.07743932 0 0 0 0
-0.01950793 0.03857967 -0.08085102 0 0 0 0
-0.04478415 -0.00885850 -0.08402725 0 0 0 0
-0.07481915 -0.02460293 0.00520771 0 0 0 0
-0.04149192 0.05622866 -0.02058265 0 0 0 0
-0.02762598 -0.00332647 0.09485477 0 0 0 0
0.00605762 -0.07300096 -0.06100332 0 0 0 0
-0.01821134 0.07891493 -0.02291115 0 0 0 0
0.06695431 -0.02554158 -0.03790198 0 0 0 0
-0.04725851 -0.05234969 -0.00059632 0 0 0 0
0.00958970 0.05456971 0.07642984 0 0 0 0
0.03704280 -0.05485695 -0.03904466 0 0 0 0
0.00248411 0.07349338 -0.06437365 0 0 0 0
0.00442655 -0.00500372 -0.09914599 0 0 0 0
-0.00586786 0.01844603 0.09667283 0 0 0 0
0.09797246 -0.00176101 -0.00276284 0 0 0 0
0.07419403 -0.01050912 -0.05283921 0 0 0 0
-0.06643287 -0.03015975 -0.02573738 0 0 0 0
-0.03174322 -0.04576387 0.06286959 0 0 0 0
0.01401988 0.01456849 -0.09540663 0 0 0 0
-0.00821264 0.00187916 0.09944259 0 0 0 0
-0.02580321 0.07135985 0.02162013 0 0 0 0
-0.02859075 -0.06112175 0.04324206 0 0 0 0
-0.05131627 -0.04636849 -0.01945672 0 0 0 0
0.07201718 0.02735700 0.00670138 0 0 0 0
0.06894787 -0.02673699 0.02809658 0 0 0 0
-0.01632934 0.05585301 -0.06857481 0 0 0 0
0.05366465 0.01488388 0.07217922 0 0 0 0
-0.04772538 0.05063517 -0.01699466 0 0 0 0
0.00100623 -0.00309132 0.09953791 0 0 0 0
-0.01320756 0.07859310 -0.03923460 0 0 0 0
-0.01929481 0.06011310 0.06014462 0 0 0 0
0.01195411 -0.08325778 0.03016881 0 0 0 0
0.01910171 0.00609703 -0.09629549 0 0 0 0
-0.03408713 -0.04068138 -0.06588967 0 0 0 0
-0.06079631 0.03196188 0.03636178 0 0 0 0
0.03117613 -0.01981324 -0.08552156 0 0 0 0
0.06718218 -0.01365977 -0.05827381 0 0 0 0
0.03968540 0.05260249 -0.03743471 0 0 0 0
0.05947336 0.02721785 0.04970347 0 0 0 0
0.07319168 -0.02675971 -0.00050389 0 0 0 0
0.01555444 -0.04582309 0.07881549 0 0 0 0
0.05794685 0.03314813 -0.04058726 0 0 0 0
-0.00649074 -0.07636161 0.05520676 0 0 0 0
0.05007739 0.01662292 -0.07442319 0 0 0 0
0.07678608 -0.01365819 -0.04183457 0 0 0 0
0.02815563 0.05177370 0.05939714 0 0 0 0
-0.07070173 -0.02879159 0.00298593 0 0 0 0
-0.01163097 0.04092048 -0.08498275 0 0 0 0
-0.00021849 0.09933823 -0.00272881 0 0 0 0
0.01632910 0.08302438 0.00734667 0 0 0 0
-0.08419558 -0.00574501 -0.04364620 0 0 0 0
-0.00362541 -0.08143838 -0.05214794 0 0 0 0
-0.00996280 0.05407555 -0.07620559 0 0 0 0
-0.03719162 0.05025902 -0.04775363 0 0 0 0
0.03559156 -0.06366147 0.01047941 0 0 0 0
-0.07628334 -0.02220618 -0.01565772 0 0 0 0
0.06068216 0.01492852 -0.06479985 0 0 0 0
-0.03491639 -0.00416483 -0.09165822 0 0 0 0
-0.06565558 0.01931333 -0.05232979 0 0 0 0
0.05656294 -0.00692214 -0.07667659 0 0 0 0
-0.01622550 0.00810048 -0.09680422 0 0 0 0
-0.01692733 0.07240445 0.04410212 0 0 0 0
-0.05203513 -0.04523648 0.02114455 0 0 0 0
-0.01313579 0.05039855 -0.07663466 0 0 0 0
0.03026753 -0.03388968 -0.07610440 0 0 0 0
0.05207927 -0.03550482 -0.04731698 0 0 0 0
0.00772901 0.05700843 -0.07588811 0 0 0 0
0.02667344 -0.07073146 0.02056058 0 0 0 0
-0.05445340 -0.04391701 -0.01689236 0 0 0 0
0.00867761 -0.09058840 0.01007462 0 0 0 0
0.03533450 -0.05827439 -0.03443630 0 0 0 0
-0.07919363 -0.00497842 -0.05385723 0 0 0 0
0.03547946 0.05354539 0.04479548 0 0 0 0
-0.06496445 -0.01407742 0.06066937 0 0 0 0
0.04381461 -0.05439572 -0.01855189 0 0 0 0
-0.01188735 0.05631415 -0.07295817 0 0 0 0
0.03947498 -0.04672676 -0.04981383 0 0 0 0
0.01873122 -0.07474180 0.03474700 0 0 0 0
0.01013756 -0.08944178 0.00030339 0 0 0 0
0.02148259 -0.00414339 0.09641730 0 0 0 0
-0.05830245 -0.03720361 0.02887988 0 0 0 0
-0.06452321 0.03391100 -0.01623104 0 0 0 0
-0.05828200 0.03217187 -0.04241837 0 0 0 0
-0.01190449 0.05826595 -0.07098525 0 0 0 0
0.08255451 0.00283331 -0.05152681 0 0 0 0
-0.08481179 0.01517946 -0.00009064 0 0 0 0
0.00501551 0.09380618 -0.01221436 0 0 0 0
0.02000303 0.05554505 -0.06486876 0 0 0 0
0.06295174 -0.01728294 0.05895940 0 0 0 0
0.01851043 -0.04723707 -0.07475056 0 0 0 0
-0.00003277 0.08706133 -0.04705932 0 0 0 0
-0.01218434 -0.08764564 -0.00176250 0 0 0 0
-0.00318959 -0.09532745 -0.01537240 0 0 0 0
-0.01159633 0.04818569 -0.07958644 0 0 0 0
-0.02610089 0.07233722 -0.01479703 0 0 0 0
0.00057804 0.09697743 -0.01934015 0 0 0 0
-0.03075815 -0.06338076 0.03324272 0 0 0 0
0.01365117 -0.08603588 -0.00324406 0 0 0 0
-0.02752296 -0.00400521 0.09462170 0 0 0 0
-0.03571587 -0.05914219 -0.03045072 0 0 0 0
-0.09664299 -0.00123732 -0.02004445 0 0 0 0
0.06115506 -0.03193468 -0.03525584 0 0 0 0
-0.07276878 -0.02120812 0.03360872 0 0 0 0
0.00250156 -0.03837860 0.09083549 0 0 0 0
-0.03775873 -0.02378452 0.07870762 0 0 0 0
0.03338731 -0.00421429 0.09216283 0 0 0 0
0.02720376 -0.05475190 -0.05681817 0 0 0 0
0.07220729 0.01413681 -0.04969383 0 0 0 0
0.00358944 -0.00574090 0.09953791 0 0 0 0
-0.03896508 0.05175097 -0.04170590 0 0 0 0
0.04946744 -0.02134480 0.06998695 0 0 0 0
0.01615447 -0.05798740 -0.06667544 0 0 0 0
0.06281630 0.00774489 -0.07035989 0 0 0 0
0.03337344 0.04371712 0.06346674 0 0 0 0
0.02755116 -0.06958221 -0.02286725 0 0 0 0
0.04179521 -0.04203065 -0.05452082 0 0 0 0
-0.02720263 0.05839087 -0.05113258 0 0 0 0
-0.01268752 -0.01166216 0.09666586 0 0 0 0
-0.01047430 0.04520417 -0.08264900 0 0 0 0
-0.07258933 0.02107826 -0.03423851 0 0 0 0
-0.05365475 -0.04567673 0.00803286 0 0 0 0
-0.00952769 -0.06584425 0.06557111 0 0 0 0
0.08887772 -0.00998695 0.01416492 0 0 0 0
0.01772288 -0.07942379 0.02169192 0 0 0 0
-0.09136327 -0.00041924 -0.03843186 0 0 0 0
0.05868721 0.03163447 -0.04206954 0 0 0 0
0.00469893 -0.07099313 0.06526110 0 0 0 0
0.05060910 0.00116405 -0.08508014 0 0 0 0
0.04832869 -0.05135800 -0.00304412 0 0 0 0
-0.08829151 0.00731055 0.02845936 0 0 0 0
-0.02728751 -0.05181319 0.06058504 0 0 0 0
0.04090012 0.05840172 0.00895713 0 0 0 0
-0.06094981 0.01884233 -0.06019558 0 0 0 0
-0.06160372 0.03218022 -0.03336946 0 0 0 0
-0.03486015 0.06451640 -0.00646269 0 0 0 0
-0.01370500 -0.08552141 0.01130922 0 0 0 0
0.06539230 0.03089740 0.02544655 0 0 0 0
0.01574291 -0.03433371 -0.08636312 0 0 0 0
0.06920162 -0.02465645 -0.03316802 0 0 0 0
0.00337406 -0.09060498 -0.03283930 0 0 0 0
-0.01008044 -0.03159634 0.09051298 0 0 0 0
0.06413099 -0.01042069 -0.06596591 0 0 0 0
-0.05129278 0.04855490 -0.00157902 0 0 0 0
0.03644412 -0.00264205 0.09156179 0 0 0 0
-0.01833688 0.06294242 -0.05793392 0 0 0 0
-0.04953354 0.04974826 0.00958188 0 0 0 0
-0.06847841 0.00800447 -0.06373991 0 0 0 0
-0.04751068 0.05176166 0.00987709 0 0 0 0
0.08843680 -0.00975469 0.01711428 0 0 0 0
-0.09451806 -0.00241291 0.02263699 0 0 0 0
-0.06539430 0.01394621 -0.06015655 0 0 0 0
-0.08311411 -0.01279235 -0.02669502 0 0 0 0
-0.02743827 0.06998020 0.02050110 0 0 0 0
0.00055510 -0.09228747 0.03617120 0 0 0 0
0.09500147 0.00088236 0.02601138 0 0 0 0
0.01253084 0.05916688 -0.06910844 0 0 0 0
0.01933642 -0.01628320 0.09296525 0 0 0 0
-0.00676722 0.06523444 0.06883506 0 0 0 0
0.02151588 0.07654522 0.01768561 0 0 0 0
-0.00881441 0.05004497 -0.08061450 0 0 0 0
0.00948262 0.04853822 0.08100045 0 0 0 0
-0.09605247 0.00044938 0.02451707 0 0 0 0
-0.04593571 -0.03933043 -0.05135720 0 0 0 0
0.04959670 0.04964859 0.01072060 0 0 0 0
-0.04920589 -0.02928559 -0.06162776 0 0 0 0
0.00841298 0.08857767 -0.02304204 0 0 0 0
0.04542757 0.04391639 0.04407462 0 0 0 0
0.03775782 0.04737619 0.05193583 0 0 0 0
0.01975210 -0.06760525 -0.04775160 0 0 0 0
0.00597863 -0.08467361 -0.04187930 0 0 0 0
0.04270592 0.03951088 -0.05638742 0 0 0 0
-0.02968528 0.03767801 -0.07388112 0 0 0 0
-0.07224274 0.02172336 -0.03323271 0 0 0 0
0.00549045 0.08359408 -0.04505835 0 0 0 0
0.06395393 0.00757418 -0.06929521 0 0 0 0
0.08143057 0.01535248 0.02328509 0 0 0 0
0.03184954 0.06206112 -0.03302510 0 0 0 0
0.02737337 -0.06084666 -0.04609799 0 0 0 0
0.06857880 0.03089043 -0.00841912 0 0 0 0
-0.02591427 -0.07042366 0.02523526 0 0 0 0
0.03731682 -0.04775573 0.05202394 0 0 0 0
-0.03609808 -0.06388502 -0.00017526 0 0 0 0
-0.02096490 -0.07884308 -0.00199049 0 0 0 0
-0.01891195 -0.07643808 -0.02856983 0 0 0 0
-0.02132571 0.05468047 -0.06433768 0 0 0 0
0.06495158 0.02694697 -0.03849266 0 0 0 0
0.04827376 -0.05168650 -0.00041198 0 0 0 0
0.02657785 -0.01446109 0.09077121 0 0 0 0
-0.03943138 -0.03604237 0.06547252 0 0 0 0
0.02608565 0.04609742 -0.06857401 0 0 0 0
-0.03261956 -0.05394011 -0.04928061 0 0 0 0
-0.02988403 -0.06800211 -0.01821117 0 0 0 0
-0.04674314 -0.04618749 -0.03568817 0 0 0 0
-0.03720391 -0.05896676 -0.02580482 0 0 0 0
0.00350067 0.08603682 -0.04431117 0 0 0 0
-0.00100114 0.09824236 -0.00981542 0 0 0 0
0.00659719 -0.08062495 -0.04813057 0 0 0 0
-0.00869533 0.07009567 -0.06129795 0 0 0 0
-0.07367913 -0.02100112 -0.03093390 0 0 0 0
0.05277307 -0.00244987 -0.08298896 0 0 0 0
-0.02619192 -0.04245517 0.07208376 0 0 0 0
-0.07784343 -0.01893428 -0.02375951 0 0 0 0
-0.02471486 0.07279047 0.02012053 0 0 0 0
0.02252923 -0.01710391 -0.09139244 0 0 0 0
0.08432042 0.01546876 -0.00623994 0 0 0 0
-0.04869302 0.00596904 -0.08345314 0 0 0 0
-0.03919253 0.01909789 0.08082499 0 0 0 0
-0.01723969 -0.07237304 -0.04342847 0 0 0 0
-0.04176207 -0.03420630 0.06499351 0 0 0 0
-0.03208576 -0.03765167 -0.07126693 0 0 0 0
0.08059708 0.01883021 0.00504515 0 0 0 0
0.02119129 0.07337853 -0.03123397 0 0 0 0
0.00523487 -0.04484307 -0.08636248 0 0 0 0
-0.03027302 -0.01831081 0.08714327 0 0 0 0
-0.05541102 0.03644104 -0.03913608 0 0 0 0
-0.03305171 -0.01732021 -0.08622091 0 0 0 0
0.02299001 0.05190824 -0.06558431 0 0 0 0
-0.00916737 0.07890250 -0.04673215 0 0 0 0
-0.05745915 -0.02284020 -0.05895422 0 0 0 0
-0.03365489 0.03921862 -0.06781376 0 0 0 0
0.05982855 0.01427774 0.06679683 0 0 0 0
-0.03427586 -0.04110258 -0.06505556 0 0 0 0
-0.07864575 0.00338300 -0.05669760 0 0 0 0
0.00385672 0.07449965 -0.06177653 0 0 0 0
-0.00743378 -0.07205872 -0.05996596 0 0 0 0
-0.04275133 -0.02673146 0.07127444 0 0 0 0
-0.03391711 -0.06140577 0.02968248 0 0 0 0
0.05145155 -0.00307517 0.08327488 0 0 0 0
-0.05783753 0.03545576 -0.03549965 0 0 0 0
-0.01287040 -0.07185084 0.05252758 0 0 0 0
0.07552642 -0.02162679 0.02166330 0 0 0 0
-0.01268239 0.08309066 0.02771015 0 0 0 0
-0.08286893 -0.00794930 -0.04142823 0 0 0 0
0.01362584 0.08634798 -0.00027134 0 0 0 0
-0.05703468 0.03316029 -0.04231241 0 0 0 0
0.01011830 -0.02597871 0.09277197 0 0 0 0
-0.00821584 -0.05874909 0.07371286 0 0 0 0
-0.04785725 0.03756115 -0.05146819 0 0 0 0
-0.01683544 -0.07938633 -0.02674507 0 0 0 0
0.07384852 0.01580874 -0.04334310 0 0 0 0
0.07474453 0.02419095 -0.01103493 0 0 0 0
0.09313264 0.00571705 -0.01192423 0 0 0 0
-0.03028380 0.05106946 -0.05781190 0 0 0 0
0.05867361 0.03294247 0.03894186 0 0 0 0
-0.02811537 0.02645139 -0.08350681 0 0 0 0
0.03601661 0.02392578 0.07974967 0 0 0 0
0.00872882 0.02777922 -0.09289740 0 0 0 0
0.02002152 -0.06406681 0.05343490 0 0 0 0
0.00340222 0.07293265 0.06455006 0 0 0 0
0.04913937 -0.04630657 0.02914334 0 0 0 0
0.06539106 -0.00883522 -0.06632422 0 0 0 0
-0.02820430 -0.04274970 0.06984966 0 0 0 0
-0.03205262 -0.04180463 -0.06703234 0 0 0 0
0.01732253 -0.03323013 0.08586170 0 0 0 0
0.01520787 0.06669579 0.05656677 0 0 0 0
-0.04304621 0.05097142 -0.03305910 0 0 0 0
0.04668020 0.03811485 -0.05266305 0 0 0 0
-0.02209613 0.03277015 -0.08325515 0 0 0 0
0.02286833 -0.05467138 0.06282284 0 0 0 0
0.06555162 0.02366062 0.04437216 0 0 0 0
-0.05115799 -0.04848543 -0.00169469 0 0 0 0
0.07224526 -0.01398368 -0.04991455 0 0 0 0
-0.01638971 -0.07919340 0.02854236 0 0 0 0
0.04344113 0.04168696 0.05194433 0 0 0 0
-0.05240142 0.04169010 0.03334977 0 0 0 0
-0.05835460 0.00046469 -0.08015506 0 0 0 0
-0.08975752 0.00841124 -0.01898277 0 0 0 0
0.02015221 -0.06758536 0.04770346 0 0 0 0
-0.08853941 0.01098952 0.00187568 0 0 0 0
0.04312007 -0.00051964 0.08968654 0 0 0 0
0.03116559 -0.04745464 0.06127383 0 0 0 0
0.07305180 0.02063162 -0.03364264 0 0 0 0
-0.05490812 0.04335514 -0.01800311 0 0 0 0
0.04968345 -0.02090005 -0.07063361 0 0 0 0
0.01837346 -0.02991855 -0.08722254 0 0 0 0
0.05563401 -0.03508628 -0.04169438 0 0 0 0
0.08186570 0.01474983 0.02401901 0 0 0 0
0.03775943 -0.00640856 -0.08920856 0 0 0 0
-0.04720797 -0.00039184 -0.08748069 0 0 0 0
0.00607651 -0.07045157 -0.06378968 0 0 0 0
0.04338559 0.04274188 -0.04993633 0 0 0 0
-0.07548217 0.01242218 -0.04670311 0 0 0 0
0.07059950 0.02585654 0.02471777 0 0 0 0
-0.02188003 0.07745638 0.00787915 0 0 0 0
0.04600096 -0.05360665 -0.00756323 0 0 0 0
-0.06485024 -0.03177748 -0.02426487 0 0 0 0
-0.03555575 0.04809571 -0.05475079 0 0 0 0
-0.08570363 -0.00810485 -0.03376383 0 0 0 0
0.02070419 -0.07543727 -0.02696330 0 0 0 0
-0.01784573 0.06454898 -0.05632671 0 0 0 0
0.08743875 -0.01193675 0.00666011 0 0 0 0
-0.00644391 0.08681063 0.03524053 0 0 0 0
0.03019123 -0.06632966 0.02443365 0 0 0 0
-0.03511240 -0.03812188 -0.06741651 0 0 0 0
0.06951159 -0.00059271 0.07045592 0 0 0 0
-0.02124720 0.04825472 -0.07152626 0 0 0 0
0.03588379 0.04604683 -0.05685949 0 0 0 0
-0.02200714 0.06669411 -0.04517561 0 0 0 0
0.05934181 -0.03221443 -0.03970311 0 0 0 0
0.06857587 0.01281123 -0.05775607 0 0 0 0
-0.03757615 -0.02953872 0.07356764 0 0 0 0
-0.00017719 -0.00249840 0.09953791 0 0 0 0
0.02944795 0.05513499 -0.05306964 0 0 0 0
0.03022236 -0.03004358 -0.07922528 0 0 0 0
-0.00956448 0.01960363 -0.09519652 0 0 0 0
-0.05572442 0.04017076 -0.02673302 0 0 0 0
0.08516275 -0.01437204 0.00169276 0 0 0 0
0.05650111 -0.04307231 0.00048818 0 0 0 0
-0.04111892 0.04862653 -0.04396810 0 0 0 0
-0.03475276 -0.01548597 -0.08628505 0 0 0 0
0.06539453 -0.02287084 0.04651117 0 0 0 0
0.03329441 0.06301410 0.02536415 0 0 0 0
-0.04308785 0.02503309 -0.07304687 0 0 0 0
0.05669405 0.04003643 0.02351540 0 0 0 0
-0.08680946 -0.01032056 -0.02288797 0 0 0 0
0.02975844 -0.04527073 -0.06544015 0 0 0 0
-0.04826758 -0.00034751 -0.08706695 0 0 0 0
0.02174746 -0.05390179 -0.06478526 0 0 0 0
-0.07167874 -0.02676646 -0.01611717 0 0 0 0
-0.01120866 0.03811266 -0.08672685 0 0 0 0
-0.01404193 -0.08466972 0.01483530 0 0 0 0
-0.01511052 0.06842478 -0.05421242 0 0 0 0
-0.02594627 0.06157467 0.04819284 0 0 0 0
0.03047199 0.04347255 -0.06692289 0 0 0 0
0.07005608 0.01102859 0.05774087 0 0 0 0
-0.07471755 -0.02465718 -0.00900370 0 0 0 0
-0.00502284 -0.07342964 -0.06127012 0 0 0 0
-0.07010998 0.02876475 0.01412086 0 0 0 0
-0.04243037 -0.03608284 -0.06160383 0 0 0 0
0.06826623 -0.01804287 0.05025126 0 0 0 0
0.00416349 0.07584918 -0.05995277 0 0 0 0
-0.02249955 -0.07484095 -0.02158617 0 0 0 0
0.00857173 -0.08396656 -0.03675428 0 0 0 0
0.00059172 -0.09632860 -0.02418509 0 0 0 0
0.06106465 0.03099540 -0.03873741 0 0 0 0
-0.03297996 -0.01816007 -0.08585101 0 0 0 0
-0.00898601 0.09019521 0.01271867 0 0 0 0
-0.04801115 -0.04435274 -0.03722820 0 0 0 0
-0.01481721 0.07775999 0.03677067 0 0 0 0
0.00248996 -0.09238288 -0.03041056 0 0 0 0
-0.00010865 0.09512323 -0.02896791 0 0 0 0
-0.05771523 -0.03936277 0.02199287 0 0 0 0
-0.02657803 0.05566129 -0.05635025 0 0 0 0
0.01761819 0.00374575 -0.09760731 0 0 0 0
-0.07133332 -0.00813708 -0.06054986 0 0 0 0
0.01343678 0.08080275 -0.03231148 0 0 0 0
-0.05184534 -0.01227207 0.07647052 0 0 0 0
-0.01984640 -0.07804890 -0.01815448 0 0 0 0
0.01885035 -0.07710552 -0.02652854 0 0 0 0
0.05761914 0.02201829 0.05981560 0 0 0 0
-0.01700952 0.07499227 0.03807054 0 0 0 0
-0.05748096 -0.03362990 -0.04055683 0 0 0 0
-0.08620436 0.01334097 -0.00471312 0 0 0 0
-0.05327817 0.04504379 0.01654267 0 0 0 0
-0.07374316 0.00171057 -0.06503043 0 0 0 0
0.01202743 0.06457552 0.06416576 0 0 0 0
-0.06500585 0.02437476 -0.04387338 0 0 0 0
-0.04824118 0.00272621 -0.08553394 0 0 0 0
0.03713536 0.05915402 -0.02656136 0 0 0 0
0.02349945 0.05937517 -0.05572493 0 0 0 0
0.03052980 0.06141395 -0.03836986 0 0 0 0
-0.02955432 0.03843908 -0.07318731 0 0 0 0
0.04990356 -0.04729722 -0.02233404 0 0 0 0
0.09391249 0.00583152 -0.00483127 0 0 0 0
-0.01567036 -0.05690557 -0.06863908 0 0 0 0
-0.05468719 0.02570210 -0.05884143 0 0 0 0
-0.07342497 0.02127840 0.03196760 0 0 0 0
-0.09806620 -0.00078215 -0.01225953 0 0 0 0
0.02803058 0.06978856 -0.02025060 0 0 0 0
0.01410343 -0.05278333 -0.07428403 0 0 0 0
-0.00144022 0.05993799 -0.07846204 0 0 0 0
-0.01600346 0.00202073 -0.09803791 0 0 0 0
-0.09664117 0.00004129 -0.02211693 0 0 0 0
-0.06322432 -0.00146337 -0.07565279 0 0 0 0
-0.05763332 0.02803980 -0.05097996 0 0 0 0
0.02633102 0.04771387 -0.06679706 0 0 0 0
0.01201532 0.08554786 -0.02111298 0 0 0 0
-0.06170935 0.03757352 0.00954860 0 0 0 0
0.08811663 -0.01166613 -0.00603977 0 0 0 0
0.08793639 -0.00516590 0.03558448 0 0 0 0
-0.01457990 0.05378863 -0.07277425 0 0 0 0
-0.08131941 -0.01777289 -0.00940917 0 0 0 0
0.00769043 0.06075593 -0.07268855 0 0 0 0
-0.01798877 0.04337574 -0.07848186 0 0 0 0
0.00402025 0.06365727 -0.07353512 0 0 0 0
-0.08578972 -0.01342709 0.01160872 0 0 0 0
0.00160459 0.09714569 -0.01295466 0 0 0 0
0.04853030 -0.03572300 -0.05370150 0 0 0 0
-0.04546858 0.01413335 0.07997128 0 0 0 0
0.00837333 -0.03795904 0.08860881 0 0 0 0
0.02399730 0.03269758 -0.08230828 0 0 0 0
-0.08062097 0.00366941 -0.05296683 0 0 0 0
-0.00085185 -0.07510150 -0.06442253 0 0 0 0
-0.00032207 -0.08265259 -0.05542496 0 0 0 0
0.02250028 -0.00566934 0.09592193 0 0 0 0
-0.02040459 0.07922979 -0.00141281 0 0 0 0
-0.07689106 0.02246164 -0.00670994 0 0 0 0
0.05085161 0.04066412 -0.03978078 0 0 0 0
0.00755570 0.01709722 -0.09643862 0 0 0 0
-0.06360541 0.01674401 -0.05946783 0 0 0 0
0.01357904 0.07878942 0.03724221 0 0 0 0
0.02956424 -0.06504557 -0.03106388 0 0 0 0
-0.06617974 0.02103435 -0.04802620 0 0 0 0
0.04520837 0.02598262 0.06962014 0 0 0 0
0.09248978 -0.00459457 0.02196499 0 0 0 0
-0.03140096 0.02126445 0.08448645 0 0 0 0
-0.09231459 -0.00006419 -0.03718772 0 0 0 0
0.07590395 0.02101995 0.02266792 0 0 0 0
0.05197932 -0.03696074 0.04498702 0 0 0 0
-0.03648831 0.05525512 -0.03891420 0 0 0 0
-0.09126439 -0.00816839 0.00487395 0 0 0 0
-0.00746709 0.00572228 -0.09889606 0 0 0 0
0.08938253 0.00902981 0.01614670 0 0 0 0
-0.01798838 -0.08079234 -0.01263909 0 0 0 0
-0.00836872 -0.02861018 -0.09260315 0 0 0 0
-0.01509906 0.01229769 0.09607244 0 0 0 0
0.00078157 0.05879463 0.07998803 0 0 0 0
-0.06564904 0.02575232 0.03942692 0 0 0 0
-0.00180295 -0.09491210 -0.02379768 0 0 0 0
0.00220314 0.08477849 0.04928714 0 0 0 0
-0.01273472 -0.07766145 0.04169765 0 0 0 0
-0.08392488 -0.00594106 -0.04294310 0 0 0 0
0.01193904 0.00935877 -0.09761583 0 0 0 0
0.01831667 0.07581021 0.03326991 0 0 0 0
0.07822077 0.01948780 -0.01930946 0 0 0 0
0.02561454 -0.02985237 0.08266287 0 0 0 0
-0.04371500 0.03353963 0.06323151 0 0 0 0
0.05214569 -0.03860206 -0.04161975 0 0 0 0
0.05548427 -0.01843132 0.06698152 0 0 0 0
0.03693840 -0.04514090 0.05631499 0 0 0 0
-0.05319339 0.00098246 -0.08372696 0 0 0 0
0.02500456 -0.01203618 -0.09258263 0 0 0 0
-0.00828062 -0.07635497 -0.05239737 0 0 0 0
-0.07290398 -0.00046320 0.06722446 0 0 0 0
-0.05189008 -0.04789536 -0.00612325 0 0 0 0
-0.03010897 0.01309909 -0.08990391 0 0 0 0
0.04182038 -0.03385901 -0.06472418 0 0 0 0
0.06512742 -0.00333585 -0.07266992 0 0 0 0
-0.03652737 -0.06291921 -0.00573672 0 0 0 0
-0.03609559 0.05371255 -0.04386470 0 0 0 0
0.07283060 0.02510523 0.01823439 0 0 0 0
0.00662127 -0.00111211 0.09953791 0 0 0 0
0.00562372 -0.08625525 -0.03908450 0 0 0 0
0.07451878 0.02412699 -0.01351253 0 0 0 0
-0.06951068 -0.00733159 -0.06344371 0 0 0 0
-0.04416095 0.02877882 -0.06818283 0 0 0 0
0.02449438 -0.07281840 -0.02175758 0 0 0 0
-0.00582379 0.04871229 -0.08350158 0 0 0 0
-0.00470677 0.07720018 -0.05689853 0 0 0 0
0.04648774 -0.05083260 -0.02171083 0 0 0 0
-0.04022348 -0.04527647 -0.05097152 0 0 0 0
-0.02868697 -0.04294161 0.06919636 0 0 0 0
-0.04325254 -0.03643087 -0.05972658 0 0 0 0
0.02879826 -0.06329744 -0.03795695 0 0 0 0
-0.03724904 0.00348384 -0.09086283 0 0 0 0
-0.01739648 -0.01194432 -0.09520932 0 0 0 0
-0.01975037 -0.06034224 -0.05986473 0 0 0 0
-0.01586746 0.08336017 -0.00800642 0 0 0 0
-0.00371440 -0.03196847 -0.09329478 0 0 0 0
-0.02820668 0.06728334 0.02895021 0 0 0 0
-0.00124292 0.00079477 -0.09987367 0 0 0 0
0.05011614 -0.03068857 0.05814222 0 0 0 0
0.03945349 0.02329334 -0.07737374 0 0 0 0
0.01169117 0.01701072 0.09576593 0 0 0 0
-0.04617699 0.03319893 0.06019050 0 0 0 0
0.05366317 -0.04622873 -0.00112059 0 0 0 0
0.01594804 0.05231871 -0.07260589 0 0 0 0
0.07537349 0.02276213 -0.01666799 0 0 0 0
-0.02333720 0.05872251 0.05634307 0 0 0 0
0.05482503 0.04448422 0.00872611 0 0 0 0
-0.09529068 0.00465229 -0.00059118 0 0 0 0
-0.00341865 -0.06931983 -0.06796245 0 0 0 0
-0.03277533 -0.05397750 0.04961514 0 0 0 0
0.02365306 0.02024781 -0.08951373 0 0 0 0
0.00577371 -0.07771931 -0.05428215 0 0 0 0
-0.02108646 0.07220819 -0.03549509 0 0 0 0
0.02341991 -0.05452886 0.06223643 0 0 0 0
-0.08222242 0.01736154 0.00015958 0 0 0 0
0.05116612 -0.02790070 -0.06099425 0 0 0 0
0.04471511 -0.05452812 -0.00981700 0 0 0 0
0.00301480 0.05778912 0.07918888 0 0 0 0
-0.02988313 -0.06143307 0.03961929 0 0 0 0
0.06600016 0.02903549 -0.02996818 0 0 0 0
0.06475426 -0.01114483 0.06506060 0 0 0 0
0.03134650 0.01592971 -0.08761277 0 0 0 0
-0.00009391 0.08147841 0.05704179 0 0 0 0
-0.01039552 -0.08831225 -0.01339531 0 0 0 0
0.03127006 0.04415522 -0.06506611 0 0 0 0
-0.02075192 -0.07093266 -0.03907410 0 0 0 0
-0.06935223 -0.02530792 -0.03098850 0 0 0 0
0.03166690 0.05733611 0.04484479 0 0 0 0
0.06948879 -0.02606481 0.02867162 0 0 0 0
-0.07075037 0.02770798 -0.01598078 0 0 0 0
0.02329149 -0.03415401 0.08137496 0 0 0 0
0.08243965 0.00162678 0.05346631 0 0 0 0
-0.06723651 0.03149219 -0.01317832 0 0 0 0
0.03968848 -0.05429820 -0.03316340 0 0 0 0
0.02195240 0.07377137 -0.02731055 0 0 0 0
0.01541594 0.01804729 -0.09412829 0 0 0 0
-0.04010772 -0.00301395 -0.08971245 0 0 0 0
-0.01221501 0.05409672 0.07434543 0 0 0 0
-0.04627324 0.02947383 -0.06466259 0 0 0 0
0.04924424 0.03212406 -0.05778709 0 0 0 0
0.05263568 -0.01764271 -0.07067128 0 0 0 0
0.00214305 -0.09747461 -0.00184692 0 0 0 0
-0.01912333 -0.01284591 -0.09426647 0 0 0 0
-0.05205619 -0.03675413 -0.04496654 0 0 0 0
0.00548915 -0.06928214 -0.06572410 0 0 0 0
0.01010808 0.07735919 0.04831408 0 0 0 0
-0.05496712 -0.00819189 -0.07695417 0 0 0 0
0.06379313 -0.03142188 -0.02948080 0 0 0 0
-0.07599376 0.01074593 -0.04892641 0 0 0 0
0.00187295 0.09146854 0.03504411 0 0 0 0
-0.00658805 -0.09127773 -0.01833710 0 0 0 0
0.05880670 -0.04064127 0.00440011 0 0 0 0
0.05407334 -0.04424066 -0.01747710 0 0 0 0
0.04045568 0.05373447 0.03312697 0 0 0 0
-0.07113581 0.02810761 0.01077877 0 0 0 0
-0.04058370 -0.05906587 -0.00188655 0 0 0 0
0.07160900 0.01980053 -0.03982151 0 0 0 0
0.05701626 0.04066839 -0.02070370 0 0 0 0
-0.09093224 0.00615338 -0.02316268 0 0 0 0
0.04079052 -0.05691845 -0.01930698 0 0 0 0
-0.01938451 0.06627562 0.05118159 0 0 0 0
-0.02147036 0.06925394 0.04095638 0 0 0 0
-0.01491346 0.06846173 0.05445724 0 0 0 0
0.02830620 0.06250910 -0.04112335 0 0 0 0
-0.06464119 -0.00198933 0.07403671 0 0 0 0
0.05220428 0.01982963 -0.06873825 0 0 0 0
-0.04335768 -0.04855296 -0.03845983 0 0 0 0
-0.02462360 -0.07514094 -0.00547133 0 0 0 0
0.04893272 0.00908334 0.08100357 0 0 0 0
-0.01415798 0.08378230 -0.01984240 0 0 0 0
-0.06250214 -0.00278616 0.07533658 0 0 0 0
0.04172871 0.03711000 0.06096063 0 0 0 0
-0.07098370 0.02665039 -0.02087405 0 0 0 0
-0.01000122 -0.01756481 -0.09567472 0 0 0 0
0.05016147 0.04608114 -0.02668845 0 0 0 0
0.07191140 -0.02512050 0.02219481 0 0 0 0
0.01145220 0.08281031 -0.03206903 0 0 0 0
0.02162387 -0.03901854 0.07929401 0 0 0 0
-0.02081992 0.07248436 0.03512818 0 0 0 0
-0.00111551 0.09223148 -0.03498831 0 0 0 0
0.04010961 0.03463864 -0.06574947 0 0 0 0
-0.02233347 0.07392181 -0.02551973 0 0 0 0
-0.00122666 0.06054717 -0.07813339 0 0 0 0
-0.08373640 -0.01563834 0.00668376 0 0 0 0
-0.01897426 -0.04791506 -0.07377852 0 0 0 0
0.02358829 -0.00371026 0.09609157 0 0 0 0
-0.01073054 0.08801339 0.01469392 0 0 0 0
-0.06603456 0.03347096 -0.00512584 0 0 0 0
0.03492723 0.05993418 0.03161057 0 0 0 0
0.03133049 0.00765915 -0.09193555 0 0 0 0
0.04550881 0.05420025 -0.00374178 0 0 0 0
0.06262518 0.03163137 -0.03225414 0 0 0 0
-0.07703374 -0.02247991 0.00235206 0 0 0 0
0.02302212 -0.00335823 0.09627039 0 0 0 0
-0.02162234 -0.04127435 0.07765273 0 0 0 0
0.04340304 0.03952854 0.05509319 0 0 0 0
0.06625470 0.01300664 -0.06025583 0 0 0 0
0.03170040 0.05571484 -0.04764065 0 0 0 0
0.00923089 0.02181332 -0.09457361 0 0 0 0
0.05903663 0.03984598 0.01408626 0 0 0 0
-0.03747890 0.01586035 -0.08419813 0 0 0 0
-0.04817092 0.03439942 -0.05580420 0 0 0 0
0.05152776 -0.04762582 0.01289910 0 0 0 0
0.04539893 -0.05297319 -0.01687468 0 0 0 0
0.03148317 0.06426562 0.02781646 0 0 0 0
-0.06771249 0.03149417 0.01192549 0 0 0 0
-0.02888482 -0.07060665 -0.00527152 0 0 0 0
0.05589336 0.02521534 -0.05821532 0 0 0 0
-0.04614547 0.02228655 0.07229205 0 0 0 0
0.04996637 -0.03500590 -0.05184197 0 0 0 0
0.07900518 -0.01809002 -0.02268978 0 0 0 0
0.02988649 -0.04321948 -0.06755780 0 0 0 0
-0.04810056 0.01019269 -0.08069754 0 0 0 0
0.07817636 0.01601217 0.03313066 0 0 0 0
0.01989053 -0.07947510 0.00696794 0 0 0 0
-0.05319914 0.04525848 -0.01598829 0 0 0 0
-0.00200465 0.05966828 -0.07817521 0 0 0 0
-0.01001452 -0.08881021 0.01433987 0 0 0 0
0.02581729 0.04090665 -0.07440554 0 0 0 0
0.01968185 0.05693378 -0.06369328 0 0 0 0
-0.03000395 0.04742028 -0.06280291 0 0 0 0
0.05761529 -0.02918594 -0.04882491 0 0 0 0
-0.01465194 -0.00388310 -0.09804292 0 0 0 0
-0.07832587 0.01448199 -0.03602178 0 0 0 0
-0.03965030 0.05931456 -0.01073026 0 0 0 0
-0.04869743 -0.03517776 -0.05442625 0 0 0 0
0.00684320 0.00644998 -0.09864791 0 0 0 0
-0.04979320 0.04154233 0.03957563 0 0 0 0
0.08515469 -0.01215437 -0.02178057 0 0 0 0
-0.06438093 -0.02267407 -0.04833116 0 0 0 0
-0.01240278 0.08667482 -0.00956150 0 0 0 0
0.00246165 -0.09601809 -0.01575916 0 0 0 0
0.03813845 0.03296914 0.06970091 0 0 0 0
-0.09119154 -0.00814378 0.00791341 0 0 0 0
-0.08180307 -0.01758018 -0.00895100 0 0 0 0
0.04903019 0.04882517 -0.01840153 0 0 0 0
-0.04222681 0.01271591 -0.08329508 0 0 0 0
0.01344126 -0.04828075 0.07859126 0 0 0 0
-0.01475986 -0.08496260 -0.00287701 0 0 0 0
-0.01757171 -0.02195157 0.09138483 0 0 0 0
-0.00471532 0.06849321 0.06766626 0 0 0 0
-0.04503053 0.05125485 -0.02541832 0 0 0 0
0.02912291 0.06333901 -0.03696184 0 0 0 0
0.02145253 -0.01880268 -0.09151535 0 0 0 0
0.04176620 -0.05670902 -0.01580590 0 0 0 0
-0.02226593 -0.07718811 0.00421096 0 0 0 0
0.02454182 0.00621771 -0.09466813 0 0 0 0
0.05758292 -0.02643766 -0.05414756 0 0 0 0
0.01039654 -0.02415830 -0.09383801 0 0 0 0
0.02479474 -0.06969593 -0.03144904 0 0 0 0
0.02543671 -0.06366776 -0.04502547 0 0 0 0
0.07444260 0.00496657 -0.06061728 0 0 0 0
-0.09790041 -0.00139257 -0.00950938 0 0 0 0
-0.03398895 -0.06196305 0.02692614 0 0 0 0
0.00484938 0.07532582 -0.05975525 0 0 0 0
-0.04204419 -0.05671757 -0.01283566 0 0 0 0
-0.03173833 -0.00581360 -0.09239469 0 0 0 0
-0.05993009 -0.00364566 0.07699510 0 0 0 0
0.00196650 -0.09515312 -0.02295230 0 0 0 0
0.02720974 0.05983391 -0.04842500 0 0 0 0
-0.05927218 -0.02973287 -0.04518948 0 0 0 0
0.01591548 -0.04622346 -0.07782742 0 0 0 0
-0.02790180 -0.02644217 0.08339383 0 0 0 0
-0.02718430 0.04523666 0.06842898 0 0 0 0
0.03756885 0.03889877 -0.06375905 0 0 0 0
0.06114286 -0.01747615 -0.06148733 0 0 0 0
-0.01142072 -0.05913525 0.07023512 0 0 0 0
0.01083258 -0.08775373 0.01538447 0 0 0 0
0.06296876 0.03689488 -0.00141349 0 0 0 0
0.06941798 0.00985409 -0.06076824 0 0 0 0
0.08886825 -0.00568716 0.03230187 0 0 0 0
-0.00105118 0.02363244 -0.09643057 0 0 0 0
-0.01436136 -0.01158525 -0.09626613 0 0 0 0
0.09462189 -0.00051311 0.02866037 0 0 0 0
-0.01826338 0.00919781 -0.09570221 0 0 0 0
-0.03211916 0.06108084 -0.03495622 0 0 0 0
-0.00162101 0.08117718 -0.05582076 0 0 0 0
-0.05936678 0.02771245 -0.04836630 0 0 0 0
-0.03763705 0.03338711 -0.07025848 0 0 0 0
0.01105410 0.06590222 -0.06331815 0 0 0 0
0.04022025 0.00608212 -0.08816122 0 0 0 0
-0.00711144 -0.08596905 -0.03621664 0 0 0 0
0.00420949 -0.06083665 -0.07534765 0 0 0 0
0.05608935 -0.03122408 0.04866160 0 0 0 0
-0.05277481 -0.04405767 -0.02357496 0 0 0 0
0.03282969 0.04443801 -0.06275578 0 0 0 0
-0.00619401 0.09162388 -0.02025481 0 0 0 0
-0.06064637 -0.00748123 0.07258687 0 0 0 0
-0.05536244 -0.03870416 0.03340607 0 0 0 0
0.03869703 -0.02508901 0.07679144 0 0 0 0
0.02328612 -0.06676069 -0.04347099 0 0 0 0
-0.01223974 0.08729716 -0.00800061 0 0 0 0
-0.00999084 -0.08979914 -0.00626482 0 0 0 0
0.02482172 0.07456004 0.00646479 0 0 0 0
-0.00272000 0.00571912 -0.09927378 0 0 0 0
-0.03876167 0.00867076 0.08789275 0 0 0 0
-0.05773128 -0.04134965 -0.00952706 0 0 0 0
-0.05016620 0.04923917 0.00572872 0 0 0 0
0.01989575 0.06782136 0.04774970 0 0 0 0
0.06409432 0.00669430 -0.07010945 0 0 0 0
-0.07199667 -0.02675645 -0.01284852 0 0 0 0
0.03974014 0.03575096 -0.06498357 0 0 0 0
-0.00832452 -0.05987552 -0.07295977 0 0 0 0
-0.00892965 0.06751214 -0.06388469 0 0 0 0
-0.05839074 0.04118435 -0.00776441 0 0 0 0
0.05088980 -0.04850305 0.00611915 0 0 0 0
0.02448374 0.04187468 -0.07467835 0 0 0 0
-0.01749839 -0.07173894 0.04431549 0 0 0 0
0.04592530 0.00704556 -0.08440560 0 0 0 0
-0.00061721 -0.07001855 0.07012453 0 0 0 0
-0.02886618 0.02535971 -0.08373308 0 0 0 0
-0.02058103 -0.07477573 0.02953407 0 0 0 0
0.08618883 -0.00336713 -0.04353728 0 0 0 0
-0.00045736 0.09847055 -0.00945233 0 0 0 0
0.04644900 -0.05309904 0.00127993 0 0 0 0
-0.05446296 0.03274370 -0.04815609 0 0 0 0
