ply
format ascii 1.0
comment https://github.com/mikedh/trimesh
element vertex 1119
property float x
property float y
property float z
property uchar red
property uchar green
property uchar blue
property uchar alpha
end_header
0.00440629 0.03110718 -0.09443190 0 0 0 0
-0.08574069 -0.04921890 0.01082800 0 0 0 0
0.01076491 0.05062357 0.08495963 0 0 0 0
-0.09375905 0.01857127 0.02678443 0 0 0 0
-0.01051246 0.08634763 -0.04785889 0 0 0 0
-0.01085910 -0.01761800 0.09735999 0 0 0 0
-0.05395557 0.08269008 0.01364314 0 0 0 0
-0.03214084 0.09421460 -0.00492098 0 0 0 0
-0.03414997 -0.05064851 -0.07840767 0 0 0 0
-0.01295382 0.02731383 -0.09493951 0 0 0 0
-0.09506363 0.01750657 -0.02314938 0 0 0 0
0.04149612 -0.05164353 0.07438347 0 0 0 0
-0.06749052 -0.02759191 0.06766941 0 0 0 0
0.06317567 -0.00034074 0.07714072 0 0 0 0
0.00755302 0.08386400 -0.05370144 0 0 0 0
0.01833168 -0.00580801 0.09764953 0 0 0 0
-0.09460951 0.02742161 -0.01079535 0 0 0 0
0.09862287 0.00582619 -0.00997672 0 0 0 0
-0.07654245 0.00922861 -0.06279357 0 0 0 0
0.02357515 -0.01796949 -0.09510101 0 0 0 0
0.00261513 -0.09870628 -0.01251774 0 0 0 0
0.03653067 -0.09192847 -0.00898911 0 0 0 0
-0.01686202 0.06597944 0.07241829 0 0 0 0
0.07934409 -0.05245164 0.02898413 0 0 0 0
0.04708007 0.08740314 0.00606315 0 0 0 0
-0.01411988 -0.08633256 -0.04748791 0 0 0 0
0.00958684 -0.00298210 0.09944616 0 0 0 0
0.03724407 0.06548585 -0.06496084 0 0 0 0
-0.07981541 0.00293913 -0.05985776 0 0 0 0
-0.06897525 -0.05393795 0.04719365 0 0 0 0
0.05615428 -0.07432471 -0.03528780 0 0 0 0
-0.08239762 0.00127727 -0.05588587 0 0 0 0
-0.06189132 0.06241132 -0.04642502 0 0 0 0
0.06069485 -0.06796224 -0.04040615 0 0 0 0
-0.09775291 0.01714076 0.00569447 0 0 0 0
0.04271246 -0.00570914 -0.08995847 0 0 0 0
0.03785058 0.08821017 -0.02711019 0 0 0 0
-0.01326296 -0.09484956 -0.02713097 0 0 0 0
0.07274674 -0.06745464 0.00613803 0 0 0 0
-0.04758120 0.07469875 0.04519974 0 0 0 0
0.08701355 0.01495060 0.04582746 0 0 0 0
-0.09445269 0.02398768 -0.01858336 0 0 0 0
-0.03566217 0.01174661 0.09212112 0 0 0 0
0.01061370 0.00335033 -0.09902575 0 0 0 0
-0.01506135 -0.08284926 -0.05264500 0 0 0 0
0.00099685 0.09707879 -0.02205363 0 0 0 0
0.07033583 -0.06628368 0.02336368 0 0 0 0
-0.07225086 -0.04478981 0.05173055 0 0 0 0
0.07414041 0.04868761 -0.04446014 0 0 0 0
-0.01645594 0.05838814 0.07923193 0 0 0 0
0.03381576 -0.08342914 -0.04219500 0 0 0 0
0.01051694 -0.02369672 0.09635847 0 0 0 0
-0.02880014 0.08128484 0.04990309 0 0 0 0
-0.09515520 0.02388604 -0.01626073 0 0 0 0
0.09073099 0.00236205 0.04042652 0 0 0 0
-0.02260528 0.03739880 0.08962024 0 0 0 0
0.00545180 0.04892425 -0.08647751 0 0 0 0
-0.05775971 0.07971239 -0.01272576 0 0 0 0
0.08675879 -0.00325392 0.04915659 0 0 0 0
-0.04457174 0.04839003 0.07457562 0 0 0 0
0.04969748 -0.08103789 0.02917699 0 0 0 0
-0.02547265 0.02740582 -0.09244142 0 0 0 0
0.01200784 -0.05061991 -0.08491550 0 0 0 0
-0.03172326 0.09301038 -0.01585764 0 0 0 0
-0.09711607 -0.02013846 -0.00746964 0 0 0 0
-0.03195574 -0.06975292 -0.06300822 0 0 0 0
-0.09012447 -0.02880762 0.03194626 0 0 0 0
0.03556333 0.02416075 -0.08967935 0 0 0 0
-0.01574576 -0.06949890 -0.06981036 0 0 0 0
-0.02319111 0.09481624 -0.01779415 0 0 0 0
-0.09122162 0.03865337 -0.00497256 0 0 0 0
0.00431025 -0.09921585 0.00552702 0 0 0 0
0.01195755 -0.09493202 0.02616417 0 0 0 0
0.04713054 -0.02207040 -0.08479918 0 0 0 0
-0.04941455 -0.08639590 -0.00673764 0 0 0 0
-0.02300489 0.08991600 0.03527014 0 0 0 0
0.05613744 -0.02455754 -0.07826120 0 0 0 0
-0.00740209 0.09213917 0.03614722 0 0 0 0
-0.01335027 0.09541702 -0.02372454 0 0 0 0
0.06145792 -0.07158408 -0.03111178 0 0 0 0
0.09554146 0.01702165 0.02065340 0 0 0 0
-0.06342879 -0.02656079 0.07167361 0 0 0 0
0.07135029 -0.03991117 0.05674855 0 0 0 0
0.03947199 0.01846534 -0.08960496 0 0 0 0
-0.02619201 -0.03269909 -0.09054406 0 0 0 0
0.04408850 0.08417692 0.02929662 0 0 0 0
-0.02702911 -0.09570435 -0.00111982 0 0 0 0
-0.00138251 -0.00434707 0.09953791 0 0 0 0
-0.03990821 0.08695480 0.02762869 0 0 0 0
-0.03321827 -0.05003591 0.07959755 0 0 0 0
0.01106831 0.08253611 -0.05400594 0 0 0 0
-0.04985842 0.00557110 0.08599941 0 0 0 0
-0.01722715 -0.04382923 -0.08775739 0 0 0 0
0.05862739 0.01842348 -0.07813155 0 0 0 0
0.08296867 -0.05370901 0.01054148 0 0 0 0
-0.00486856 0.05985600 -0.07952952 0 0 0 0
0.07622949 -0.01390039 0.06249162 0 0 0 0
-0.01488966 -0.08701127 0.04561358 0 0 0 0
0.03152157 -0.04085821 0.08506033 0 0 0 0
0.09332082 0.00886048 -0.03314820 0 0 0 0
0.05914491 0.05847972 -0.05495902 0 0 0 0
-0.03061253 0.04225455 -0.08508439 0 0 0 0
-0.03359562 0.09329201 0.00149256 0 0 0 0
-0.04349723 -0.06995431 0.05576991 0 0 0 0
0.09265197 0.02325416 -0.02766851 0 0 0 0
0.06404649 -0.07517321 0.01164794 0 0 0 0
-0.04646120 0.05387972 -0.07002507 0 0 0 0
-0.01681886 -0.01074050 -0.09766616 0 0 0 0
0.02212939 -0.09155484 -0.03133256 0 0 0 0
-0.02578709 0.09224272 -0.02677300 0 0 0 0
0.01151065 0.09343143 -0.03118682 0 0 0 0
0.07251674 -0.06573708 -0.01729028 0 0 0 0
0.05932148 -0.05372632 -0.05882025 0 0 0 0
0.00316708 -0.04225320 -0.09026552 0 0 0 0
0.04875663 -0.01022432 0.08619504 0 0 0 0
-0.07502480 0.05263836 0.03837105 0 0 0 0
0.02649137 0.02207376 0.09337354 0 0 0 0
0.04708335 0.03179785 -0.08160879 0 0 0 0
-0.01839442 -0.03894142 0.08986958 0 0 0 0
-0.09484582 -0.01106154 -0.02758434 0 0 0 0
0.06271172 0.07634284 0.01085298 0 0 0 0
-0.03680781 0.08859389 -0.02596488 0 0 0 0
-0.06478961 -0.07479383 -0.01039188 0 0 0 0
0.01240694 -0.09062108 0.03885770 0 0 0 0
0.06383683 -0.01179235 0.07542025 0 0 0 0
-0.05032846 -0.08508404 0.00928916 0 0 0 0
0.00999254 -0.02236694 -0.09671462 0 0 0 0
-0.04207930 0.09020180 -0.00143073 0 0 0 0
-0.01780328 -0.02904319 0.09353987 0 0 0 0
-0.04649045 0.08779796 -0.00652952 0 0 0 0
0.03441081 -0.02618505 -0.08986464 0 0 0 0
0.07543479 -0.06397054 0.00873200 0 0 0 0
-0.01288256 0.09891184 -0.00004066 0 0 0 0
-0.03159907 -0.05553950 -0.07607184 0 0 0 0
0.07061999 0.01897357 0.06747054 0 0 0 0
0.06355990 0.06483526 -0.04065130 0 0 0 0
0.01450783 -0.03344163 -0.09285616 0 0 0 0
0.01924920 -0.08933115 -0.03879417 0 0 0 0
-0.03050372 -0.09464987 -0.00256364 0 0 0 0
0.04374762 0.07004161 0.05545346 0 0 0 0
-0.06126940 -0.06862583 -0.03802954 0 0 0 0
-0.05683016 -0.06740250 -0.04590457 0 0 0 0
0.05127921 -0.01896664 -0.08320898 0 0 0 0
-0.02987039 0.03828671 -0.08686295 0 0 0 0
-0.00827372 -0.08482882 -0.05114717 0 0 0 0
0.03715636 -0.07110761 -0.05965611 0 0 0 0
-0.09364243 0.01199120 0.03175110 0 0 0 0
0.01705455 0.02148155 -0.09577226 0 0 0 0
0.09891601 0.00977475 -0.00155368 0 0 0 0
-0.01273950 -0.09861512 -0.00321988 0 0 0 0
0.06175184 0.02550739 -0.07362348 0 0 0 0
-0.03800424 -0.05005984 0.07757376 0 0 0 0
-0.07670154 -0.02399665 -0.05898486 0 0 0 0
-0.07395940 0.02187150 0.06312451 0 0 0 0
0.05830443 -0.07913209 -0.01390513 0 0 0 0
0.00632102 0.08450293 -0.05225047 0 0 0 0
-0.04098026 -0.06660976 -0.06160643 0 0 0 0
-0.02293893 -0.00836345 -0.09647106 0 0 0 0
-0.07485369 -0.05593247 0.03394086 0 0 0 0
0.00804369 0.05423646 -0.08332249 0 0 0 0
-0.05272454 -0.02469941 -0.08070748 0 0 0 0
0.06198428 -0.03875848 -0.06728788 0 0 0 0
-0.01696873 -0.01446147 -0.09703289 0 0 0 0
0.02797781 0.00588538 -0.09535490 0 0 0 0
-0.01893928 0.08764492 -0.04314227 0 0 0 0
0.06123593 -0.00510615 -0.07813373 0 0 0 0
0.07553412 0.01705538 -0.06258345 0 0 0 0
-0.02147290 -0.03639054 -0.09035413 0 0 0 0
0.06831209 -0.07185745 0.00411923 0 0 0 0
-0.06805994 0.04221784 -0.05947401 0 0 0 0
-0.01602635 0.09482086 -0.02588611 0 0 0 0
0.06086334 0.07820427 0.01202212 0 0 0 0
-0.03897358 0.09085371 -0.01074512 0 0 0 0
0.03687835 0.07551857 -0.05306993 0 0 0 0
-0.03087809 0.03034020 0.08984826 0 0 0 0
-0.03566693 0.09250405 0.00002245 0 0 0 0
0.00271009 0.03097411 0.09474305 0 0 0 0
0.07040711 -0.06873509 -0.01230027 0 0 0 0
0.09593406 -0.02437293 0.00705572 0 0 0 0
-0.07105953 -0.05821911 0.03804212 0 0 0 0
0.06903784 0.05113447 -0.04982343 0 0 0 0
-0.05380915 0.05951142 -0.05863199 0 0 0 0
0.07277627 -0.00308408 0.06769790 0 0 0 0
-0.02702635 -0.09411471 -0.01714040 0 0 0 0
0.07496773 -0.06546028 -0.00150994 0 0 0 0
0.04642162 -0.00266958 -0.08793778 0 0 0 0
-0.05823613 0.01136776 0.08014325 0 0 0 0
0.02643963 -0.05783255 0.07691434 0 0 0 0
-0.07850855 -0.02251652 0.05666902 0 0 0 0
0.06249344 0.07109635 0.03115610 0 0 0 0
-0.02275221 -0.09385027 -0.02369026 0 0 0 0
0.03037955 -0.02749028 0.09075785 0 0 0 0
-0.09552035 -0.01898355 0.01892792 0 0 0 0
0.02300945 0.09676147 0.00145337 0 0 0 0
-0.03067465 -0.08508559 -0.04228804 0 0 0 0
-0.02400829 -0.03012540 -0.09185122 0 0 0 0
-0.03034521 -0.09471320 -0.00653505 0 0 0 0
-0.05128084 0.07801740 -0.03381139 0 0 0 0
-0.05053527 -0.04164606 -0.07489567 0 0 0 0
-0.06404355 -0.03015717 0.06995478 0 0 0 0
0.08980419 -0.00138473 0.04209713 0 0 0 0
0.01451552 0.09340642 -0.03115902 0 0 0 0
-0.08514664 -0.01415882 0.04988805 0 0 0 0
-0.07988494 0.05294632 0.02581960 0 0 0 0
0.07113355 -0.04932221 0.04931575 0 0 0 0
0.04032430 0.06379619 -0.06467443 0 0 0 0
0.04838023 0.06300335 -0.06029331 0 0 0 0
0.09311341 -0.02516189 -0.02477267 0 0 0 0
-0.09473179 -0.03012274 -0.00555271 0 0 0 0
-0.05395341 0.07151949 0.04258654 0 0 0 0
0.02638003 0.06579915 -0.06963558 0 0 0 0
0.05498591 -0.08268593 -0.00830265 0 0 0 0
-0.02559780 0.09134831 0.02980864 0 0 0 0
-0.07588044 0.06296898 -0.01073905 0 0 0 0
-0.09138720 -0.01511853 -0.03629006 0 0 0 0
0.01424851 0.08784063 0.04405100 0 0 0 0
-0.04518634 0.02904639 -0.08396928 0 0 0 0
-0.05175154 0.03955230 -0.07502617 0 0 0 0
0.00218381 -0.09707451 -0.02144261 0 0 0 0
0.09491400 -0.01346792 0.02682672 0 0 0 0
0.00991363 0.07494314 -0.06443004 0 0 0 0
-0.00535399 -0.08254029 -0.05522168 0 0 0 0
0.07059167 0.05937704 -0.03769359 0 0 0 0
-0.06624121 -0.04827519 -0.05675855 0 0 0 0
0.08842057 -0.00681002 -0.04501638 0 0 0 0
0.06348640 -0.00888902 -0.07614828 0 0 0 0
0.03540369 -0.08431865 -0.03929744 0 0 0 0
-0.07645652 0.05586333 0.03089765 0 0 0 0
-0.07941782 -0.03169401 -0.05089151 0 0 0 0
-0.00806075 0.06698946 -0.07310453 0 0 0 0
0.00254164 -0.03273179 0.09407288 0 0 0 0
0.08960323 0.04161185 -0.01121429 0 0 0 0
0.07541053 0.03475080 0.05477095 0 0 0 0
0.09072496 0.00094959 -0.04063759 0 0 0 0
-0.04461536 0.01521087 -0.08767150 0 0 0 0
-0.09173007 -0.00187136 -0.03808573 0 0 0 0
-0.02871727 -0.08032463 0.05158838 0 0 0 0
-0.09799486 -0.01493963 -0.00933445 0 0 0 0
-0.02291257 -0.06595303 0.07084032 0 0 0 0
-0.07460921 -0.02174132 -0.06208941 0 0 0 0
0.06682252 -0.06405492 -0.03560568 0 0 0 0
0.06944473 -0.02754213 -0.06543869 0 0 0 0
-0.01069008 -0.04320008 -0.08913475 0 0 0 0
-0.01468013 0.09523562 0.02330636 0 0 0 0
0.09761305 -0.00727824 -0.01746500 0 0 0 0
-0.04438652 -0.00468706 0.08925965 0 0 0 0
-0.01328894 0.08080940 -0.05692720 0 0 0 0
0.06101440 0.07695578 -0.01829454 0 0 0 0
-0.02091138 -0.08999573 -0.03728917 0 0 0 0
-0.01131051 0.06901475 0.07055208 0 0 0 0
0.04932583 -0.08282898 0.02332418 0 0 0 0
-0.04619288 -0.08013590 -0.03607157 0 0 0 0
-0.09262285 0.03552097 0.00713170 0 0 0 0
-0.03270421 0.09045785 -0.02447306 0 0 0 0
-0.02769926 0.04536030 0.08416110 0 0 0 0
0.08894459 -0.01062613 -0.04274426 0 0 0 0
-0.01042453 -0.09765336 0.01664099 0 0 0 0
0.07986201 -0.03291445 0.05007913 0 0 0 0
0.08641307 -0.04244887 -0.02420197 0 0 0 0
0.08887724 0.04254872 -0.01087691 0 0 0 0
0.08605641 -0.04899550 -0.00854454 0 0 0 0
0.08870827 -0.04059828 -0.02004808 0 0 0 0
0.04127318 0.08997107 0.00766704 0 0 0 0
0.05227548 0.06592680 -0.05318280 0 0 0 0
-0.09908827 -0.00384417 0.00405286 0 0 0 0
0.07246288 -0.02141604 -0.06464587 0 0 0 0
0.08755702 0.00297535 -0.04714024 0 0 0 0
-0.02333455 -0.09071275 -0.03333890 0 0 0 0
-0.08514898 -0.01345242 0.05011114 0 0 0 0
0.05277087 -0.06149768 0.05727316 0 0 0 0
-0.06220240 0.06801129 -0.03676083 0 0 0 0
-0.00496594 -0.03165445 0.09440811 0 0 0 0
-0.00355435 0.09663823 -0.02261912 0 0 0 0
-0.08281671 0.04612014 0.03036013 0 0 0 0
-0.08951091 0.03698107 -0.02230426 0 0 0 0
0.08459325 -0.03013391 -0.04360335 0 0 0 0
0.00746873 0.01285613 0.09849920 0 0 0 0
-0.04916994 -0.07697475 0.03861775 0 0 0 0
0.00278687 -0.09809566 -0.01525936 0 0 0 0
-0.04537180 -0.06857819 0.05555679 0 0 0 0
0.01855382 0.05430885 0.08123859 0 0 0 0
0.03698682 0.03544924 0.08527706 0 0 0 0
-0.03785586 0.08928309 -0.02173761 0 0 0 0
0.00711241 -0.05276469 0.08400958 0 0 0 0
0.07324741 -0.05249270 0.04165832 0 0 0 0
-0.02758384 -0.05322925 -0.07967116 0 0 0 0
-0.09045173 -0.04158844 -0.00377214 0 0 0 0
-0.05398331 -0.04767000 0.06870856 0 0 0 0
0.08869258 -0.02669724 0.03607605 0 0 0 0
-0.01692182 -0.00720959 0.09780952 0 0 0 0
0.08071807 0.05100964 -0.02781237 0 0 0 0
-0.08931492 0.03429241 0.02673656 0 0 0 0
-0.05623276 -0.07156517 -0.03998516 0 0 0 0
0.08302397 0.04129549 -0.03627246 0 0 0 0
0.07767557 -0.00681125 -0.06180266 0 0 0 0
-0.04672069 0.07354830 -0.04788051 0 0 0 0
0.02762513 -0.02362450 0.09266673 0 0 0 0
0.04701399 -0.08718074 0.00573785 0 0 0 0
0.09528369 -0.02641307 0.00840335 0 0 0 0
-0.01624014 0.07548906 0.06288309 0 0 0 0
0.06808942 -0.03220284 -0.06476034 0 0 0 0
-0.03250019 0.09353535 0.00730470 0 0 0 0
-0.09438411 0.01155092 -0.02820298 0 0 0 0
-0.04498037 0.08557428 -0.02272836 0 0 0 0
0.00813197 -0.08332825 -0.05404802 0 0 0 0
-0.03440947 0.06210962 -0.06951089 0 0 0 0
0.01700447 -0.07692883 -0.06042507 0 0 0 0
-0.08764946 -0.01568830 0.04448365 0 0 0 0
0.03999998 0.04833993 0.07770507 0 0 0 0
-0.04797442 -0.03972242 0.07817120 0 0 0 0
-0.04806921 -0.07000489 -0.05138796 0 0 0 0
-0.05822347 0.07018943 -0.03927432 0 0 0 0
-0.05234307 0.00284977 -0.08504557 0 0 0 0
0.08903409 -0.02175155 0.03855231 0 0 0 0
0.00393066 -0.06879189 -0.07195643 0 0 0 0
0.00154496 -0.00799369 -0.09921874 0 0 0 0
-0.04475726 -0.03632089 -0.08098660 0 0 0 0
-0.07664537 0.04952385 0.03969605 0 0 0 0
0.02752284 0.09260106 -0.02300359 0 0 0 0
-0.06499194 -0.06256378 0.04125435 0 0 0 0
-0.00074916 0.01849171 -0.09796528 0 0 0 0
0.04920480 -0.08230721 -0.02655247 0 0 0 0
-0.08221830 -0.05247505 -0.01773118 0 0 0 0
-0.07968178 0.05937367 0.00660159 0 0 0 0
0.02065232 0.08081072 0.05405621 0 0 0 0
-0.01567014 0.00326688 -0.09828879 0 0 0 0
0.04969409 -0.03786213 -0.07730322 0 0 0 0
-0.04503078 -0.08719382 -0.01425168 0 0 0 0
0.09551693 -0.01677974 0.02049094 0 0 0 0
0.02885737 -0.02221129 0.09257678 0 0 0 0
0.09200467 -0.03605839 0.01261973 0 0 0 0
0.00947334 0.03344489 -0.09367786 0 0 0 0
0.04707387 0.07950076 -0.03737191 0 0 0 0
-0.05229419 -0.00867831 0.08416463 0 0 0 0
0.05233755 -0.03631955 -0.07643805 0 0 0 0
0.06042631 -0.07735191 -0.01463638 0 0 0 0
-0.00991711 0.09327091 -0.03310717 0 0 0 0
0.05040752 -0.07671560 0.03757843 0 0 0 0
0.07917794 0.05385194 -0.02663866 0 0 0 0
0.04505236 -0.00825472 -0.08841674 0 0 0 0
0.03907541 0.05764105 0.07104385 0 0 0 0
0.04865969 0.07932332 0.03478240 0 0 0 0
-0.06065924 0.04982664 -0.06122628 0 0 0 0
0.07656480 -0.05987375 -0.02058941 0 0 0 0
0.03905422 -0.00180310 -0.09162158 0 0 0 0
-0.07638244 -0.05378725 -0.03377832 0 0 0 0
0.09336378 -0.00154549 -0.03379651 0 0 0 0
-0.09181838 0.01627364 0.03429852 0 0 0 0
0.00176692 -0.00031089 -0.09962829 0 0 0 0
0.09893066 -0.00886363 -0.00479816 0 0 0 0
-0.02903315 -0.01424160 -0.09439056 0 0 0 0
-0.01659271 -0.01879298 -0.09652749 0 0 0 0
0.00942480 -0.09896164 0.00523989 0 0 0 0
-0.09600396 0.01979498 -0.01671762 0 0 0 0
0.02914931 0.02889381 -0.09064063 0 0 0 0
0.01307535 0.08102964 0.05631373 0 0 0 0
0.08583711 0.00094368 -0.04978094 0 0 0 0
0.09871244 -0.00596855 -0.00953879 0 0 0 0
0.07710128 -0.01716038 0.06022275 0 0 0 0
-0.02957274 -0.04679796 -0.08274901 0 0 0 0
-0.03781376 -0.09128651 -0.01027351 0 0 0 0
-0.00655443 -0.05458947 0.08290803 0 0 0 0
-0.02059743 0.09536556 -0.01752452 0 0 0 0
-0.06920068 0.05387652 -0.04679781 0 0 0 0
-0.05846875 0.07820611 -0.01810545 0 0 0 0
0.07461239 -0.02698851 0.05990483 0 0 0 0
0.04722653 0.04945977 -0.07259725 0 0 0 0
-0.08353262 -0.04807990 -0.02526445 0 0 0 0
-0.00071943 0.02962290 -0.09510317 0 0 0 0
0.03194323 -0.06120589 -0.07170534 0 0 0 0
-0.07969706 0.01559865 0.05755181 0 0 0 0
-0.01504752 -0.09720352 -0.01290649 0 0 0 0
0.06910331 0.04534892 0.05498787 0 0 0 0
0.09422553 -0.02922568 -0.01067547 0 0 0 0
0.06080068 0.01529767 -0.07711397 0 0 0 0
-0.06200033 0.06743390 -0.03951019 0 0 0 0
0.04707528 -0.05677301 -0.06701177 0 0 0 0
-0.04518723 -0.04110451 0.07890086 0 0 0 0
0.08629370 0.01055460 -0.04798252 0 0 0 0
-0.08828397 0.00041163 0.04561629 0 0 0 0
-0.02784805 0.05376437 0.07918894 0 0 0 0
0.09605262 -0.02445317 0.00135233 0 0 0 0
0.02120655 0.04237842 0.08787566 0 0 0 0
0.05153798 -0.05288175 -0.06662206 0 0 0 0
0.00410512 -0.00899663 0.09947356 0 0 0 0
-0.00466584 -0.06389345 -0.07607643 0 0 0 0
-0.07471894 0.06232648 -0.02169498 0 0 0 0
-0.05580688 -0.07735109 -0.02701451 0 0 0 0
0.01605320 -0.00611728 -0.09838381 0 0 0 0
-0.09205516 0.02731942 -0.02661159 0 0 0 0
-0.09565739 -0.02298045 -0.01237691 0 0 0 0
0.07608568 -0.04310584 0.04755943 0 0 0 0
-0.05838099 -0.07591479 0.02708664 0 0 0 0
0.08875267 -0.01544488 -0.04299236 0 0 0 0
0.06904078 0.05431616 -0.04645658 0 0 0 0
-0.07956026 0.04648454 -0.03695013 0 0 0 0
-0.03441520 0.04110760 0.08370951 0 0 0 0
-0.06648339 0.03778922 0.06391500 0 0 0 0
-0.03856099 0.03517016 -0.08470848 0 0 0 0
0.04710096 -0.06093517 0.06318346 0 0 0 0
0.05489419 -0.06343542 0.05347661 0 0 0 0
0.08222988 0.01608910 -0.05378210 0 0 0 0
-0.06372441 0.04405487 0.06260713 0 0 0 0
0.04585501 0.08834436 0.00103857 0 0 0 0
-0.07944702 -0.03747372 -0.04609085 0 0 0 0
0.02760590 0.02861121 0.09125031 0 0 0 0
-0.09002282 0.00646707 -0.04189437 0 0 0 0
-0.05942402 -0.07123635 -0.03583553 0 0 0 0
-0.08724290 -0.04723801 -0.00219291 0 0 0 0
-0.02877916 0.09459554 0.01024904 0 0 0 0
0.03457721 0.00654699 -0.09315050 0 0 0 0
0.01522647 -0.07887818 0.05853194 0 0 0 0
-0.02034310 0.05406100 -0.08133571 0 0 0 0
-0.05066910 -0.03857220 0.07684003 0 0 0 0
0.01914995 -0.03861025 0.08985761 0 0 0 0
-0.00833155 0.09916063 -0.00392910 0 0 0 0
0.03922698 -0.06901787 -0.05963747 0 0 0 0
0.03261151 -0.01780985 -0.09252927 0 0 0 0
0.05653859 -0.06480034 -0.04968325 0 0 0 0
-0.02382530 0.08087365 -0.05235166 0 0 0 0
0.09481388 -0.02972497 -0.00366252 0 0 0 0
-0.02112888 -0.05840003 -0.07782456 0 0 0 0
-0.08594190 0.04772688 0.01493069 0 0 0 0
0.09754793 0.01970576 -0.00432208 0 0 0 0
-0.00242989 -0.09808853 -0.01557158 0 0 0 0
-0.01941082 0.08086739 0.05423209 0 0 0 0
-0.02128647 0.09170408 -0.03131186 0 0 0 0
-0.02940664 0.07793473 -0.05449987 0 0 0 0
0.01672080 0.09727336 -0.00897739 0 0 0 0
-0.04018084 -0.08897384 -0.01947424 0 0 0 0
-0.00512025 0.04147331 0.09038957 0 0 0 0
0.09927993 0.00416328 -0.00288395 0 0 0 0
0.04952708 -0.04264904 0.07499587 0 0 0 0
0.03018857 0.04428660 -0.08402575 0 0 0 0
0.07268670 0.02432050 -0.06330386 0 0 0 0
0.03673641 0.02503247 -0.08903184 0 0 0 0
0.00147110 0.04646448 -0.08805579 0 0 0 0
0.02499719 -0.08542456 0.04476323 0 0 0 0
0.01030261 0.07885267 0.05945075 0 0 0 0
-0.05317067 -0.07914334 0.02768793 0 0 0 0
0.03656410 -0.06274778 -0.06826795 0 0 0 0
-0.05094881 0.01800374 0.08343382 0 0 0 0
-0.02604788 0.00440781 -0.09594374 0 0 0 0
-0.08318760 -0.04167027 -0.03503951 0 0 0 0
0.07081355 0.04894378 -0.04972719 0 0 0 0
0.00251751 0.05602980 -0.08253635 0 0 0 0
0.03590416 -0.09011953 0.02033105 0 0 0 0
-0.00084340 0.09673940 -0.02286532 0 0 0 0
-0.08700217 -0.02121922 0.04291142 0 0 0 0
-0.01309018 -0.00976356 -0.09825626 0 0 0 0
0.07869346 -0.03522215 -0.04946179 0 0 0 0
0.01199369 0.08777977 -0.04459511 0 0 0 0
-0.01533658 -0.07065906 -0.06836314 0 0 0 0
-0.09670620 0.02071264 0.01117026 0 0 0 0
-0.02346809 0.08164041 0.05167297 0 0 0 0
0.02760100 -0.08739547 0.03792568 0 0 0 0
-0.00735603 0.09686317 -0.02085353 0 0 0 0
-0.06689263 0.07298382 0.00516827 0 0 0 0
-0.06057234 -0.04680102 0.06408545 0 0 0 0
-0.01915233 -0.02443573 -0.09475558 0 0 0 0
-0.01965268 0.05611550 0.07993016 0 0 0 0
-0.07335303 0.01875783 0.06495363 0 0 0 0
-0.00608304 -0.00933652 -0.09891844 0 0 0 0
-0.00964704 0.08069390 -0.05727021 0 0 0 0
0.04999476 0.02241534 0.08300118 0 0 0 0
0.02770055 -0.09530218 -0.00716340 0 0 0 0
0.09208792 0.01109913 -0.03597444 0 0 0 0
-0.02128306 -0.02944307 -0.09276404 0 0 0 0
0.01495070 -0.09705193 -0.01427706 0 0 0 0
-0.05232754 0.07451821 0.03933940 0 0 0 0
-0.07852825 -0.01723867 0.05819403 0 0 0 0
0.07293939 -0.00099303 -0.06806319 0 0 0 0
-0.00085676 -0.07436762 -0.06601819 0 0 0 0
-0.06642692 -0.06860848 -0.02658123 0 0 0 0
0.00893116 0.01702427 0.09764878 0 0 0 0
0.07590871 -0.06340428 -0.01138166 0 0 0 0
-0.07571717 0.06363969 -0.01070018 0 0 0 0
0.02600856 0.06917030 -0.06657971 0 0 0 0
-0.00003832 -0.09743594 -0.02070359 0 0 0 0
-0.01225923 0.04212385 -0.08926086 0 0 0 0
-0.09417225 -0.02747271 0.01655071 0 0 0 0
0.03294684 -0.04737810 -0.08139458 0 0 0 0
0.08590923 0.03120427 -0.03927465 0 0 0 0
-0.02068132 -0.09747534 -0.00597912 0 0 0 0
-0.01464827 -0.08991127 -0.03964067 0 0 0 0
-0.00768901 0.00074404 -0.09936124 0 0 0 0
-0.07488510 -0.05313393 -0.03755469 0 0 0 0
0.00040469 -0.09831355 -0.01458435 0 0 0 0
-0.06458078 -0.04094336 -0.06365716 0 0 0 0
0.01871991 0.02950562 -0.09359620 0 0 0 0
-0.09079923 -0.02912526 -0.02795691 0 0 0 0
-0.09644067 0.01393592 0.01981699 0 0 0 0
-0.08491404 0.00678562 0.05143566 0 0 0 0
-0.00522669 0.09075093 -0.04058689 0 0 0 0
0.07970110 0.05905301 -0.00078162 0 0 0 0
0.02305499 -0.09341402 -0.02454466 0 0 0 0
-0.07588895 0.04208593 -0.04814490 0 0 0 0
0.04649434 -0.06675406 -0.05726661 0 0 0 0
-0.01249806 0.09742756 0.01583612 0 0 0 0
0.02840657 0.09510535 -0.00340014 0 0 0 0
0.04651420 0.06673203 0.05689027 0 0 0 0
0.01614565 -0.09481456 0.02560372 0 0 0 0
-0.02335155 0.05974896 -0.07616924 0 0 0 0
0.04367296 0.08909582 0.00487049 0 0 0 0
-0.03897937 0.02459201 -0.08824869 0 0 0 0
0.01426804 0.09319354 -0.03079189 0 0 0 0
0.00739811 -0.09691800 -0.02048218 0 0 0 0
-0.07431754 -0.06576087 0.00589576 0 0 0 0
-0.00224791 0.06383415 0.07668807 0 0 0 0
0.00697084 -0.03030751 -0.09471423 0 0 0 0
-0.06207437 -0.00022256 -0.07765339 0 0 0 0
-0.09726541 0.01477240 -0.01482950 0 0 0 0
-0.07912708 -0.00785337 0.05967622 0 0 0 0
0.08232917 0.02442286 -0.04998831 0 0 0 0
0.01937205 -0.09674210 -0.01089285 0 0 0 0
-0.08100466 0.05138060 0.02659360 0 0 0 0
-0.02822129 -0.07282287 -0.06166927 0 0 0 0
-0.05290670 0.07949334 -0.02754293 0 0 0 0
-0.04054942 0.07303699 0.05366959 0 0 0 0
0.09749728 0.01865520 -0.00721118 0 0 0 0
-0.00841068 0.04410383 0.08916643 0 0 0 0
-0.09193087 0.03130607 0.02019169 0 0 0 0
-0.01840640 -0.01519142 -0.09692914 0 0 0 0
-0.05038086 0.08581415 -0.00145432 0 0 0 0
0.00723770 -0.09601748 -0.02535668 0 0 0 0
0.06944264 0.05652246 -0.04384181 0 0 0 0
0.09867612 0.00423717 -0.00948620 0 0 0 0
0.05450162 -0.06747685 -0.04884138 0 0 0 0
-0.04722873 -0.08197002 -0.03048303 0 0 0 0
-0.01881383 -0.08532329 -0.04699557 0 0 0 0
-0.08034603 -0.02932132 0.05103244 0 0 0 0
-0.01153670 0.06764875 -0.07225411 0 0 0 0
-0.02602499 0.04703928 0.08370267 0 0 0 0
0.01024309 -0.08471431 -0.05130170 0 0 0 0
-0.08275528 0.01073880 -0.05457001 0 0 0 0
-0.05126356 -0.07380643 -0.04374585 0 0 0 0
-0.02198583 0.08413478 -0.04820114 0 0 0 0
0.04482603 -0.08859281 0.00592110 0 0 0 0
0.06223606 0.04218122 0.06542204 0 0 0 0
-0.01610549 0.01479345 0.09713660 0 0 0 0
-0.09484354 -0.01241228 0.02653649 0 0 0 0
-0.06427009 0.02728105 -0.07101425 0 0 0 0
-0.09336503 -0.02308540 -0.02462615 0 0 0 0
0.05650194 0.06419843 0.05095115 0 0 0 0
0.02719373 -0.07566898 -0.05886190 0 0 0 0
-0.05624129 -0.05866908 0.05693291 0 0 0 0
-0.01308008 0.01813992 -0.09701835 0 0 0 0
0.04448704 0.01424157 -0.08790018 0 0 0 0
-0.07032902 -0.05997691 -0.03801258 0 0 0 0
0.05800502 0.02130092 -0.07797956 0 0 0 0
0.02714970 0.09263524 0.02259659 0 0 0 0
0.04671805 0.07804857 -0.03997598 0 0 0 0
-0.09489672 0.00690775 -0.02867725 0 0 0 0
-0.04872919 -0.07205684 -0.04787474 0 0 0 0
-0.09934127 0.00687018 -0.00111159 0 0 0 0
-0.08032444 -0.04396632 -0.03889715 0 0 0 0
-0.05923397 0.01747288 0.07838172 0 0 0 0
-0.02266829 -0.01909580 -0.09510031 0 0 0 0
-0.03123382 0.05051082 -0.08012364 0 0 0 0
-0.01616602 -0.05724202 0.07987712 0 0 0 0
-0.00079238 0.09322540 -0.03474675 0 0 0 0
0.00710923 0.06376956 -0.07610043 0 0 0 0
-0.04865812 0.08453963 0.01913121 0 0 0 0
0.09078653 0.03955523 -0.00934079 0 0 0 0
-0.06517572 0.00565062 0.07508798 0 0 0 0
-0.06354675 -0.07447578 0.01730742 0 0 0 0
-0.05009010 0.00535122 -0.08573728 0 0 0 0
0.06434136 -0.07517757 -0.00805004 0 0 0 0
-0.00616739 0.08844496 0.04517791 0 0 0 0
-0.01521160 -0.09652799 0.01736540 0 0 0 0
-0.06086466 0.05701373 -0.05423876 0 0 0 0
0.08389509 0.05330362 -0.00658775 0 0 0 0
-0.09795182 -0.00851438 0.01519237 0 0 0 0
-0.08400778 -0.05364264 -0.00514161 0 0 0 0
-0.01490864 -0.05199846 -0.08367913 0 0 0 0
-0.09219885 -0.03693544 -0.00479419 0 0 0 0
0.06277902 0.07501812 0.01676376 0 0 0 0
-0.09314349 0.00442998 -0.03456447 0 0 0 0
0.07880206 0.03133985 0.05193176 0 0 0 0
-0.05169462 0.02014379 -0.08261184 0 0 0 0
-0.04776397 -0.03978933 -0.07760260 0 0 0 0
-0.06654973 0.05295967 0.05148955 0 0 0 0
-0.07480551 -0.02028039 0.06278635 0 0 0 0
-0.02412067 0.09658779 -0.00435256 0 0 0 0
-0.07614926 0.05803601 -0.02780391 0 0 0 0
0.05780561 0.01426720 0.07996136 0 0 0 0
0.07133225 -0.06870212 -0.01093415 0 0 0 0
0.08951587 -0.03881730 -0.01833456 0 0 0 0
-0.00617869 -0.00530540 0.09953791 0 0 0 0
-0.07543080 -0.06075407 -0.02256031 0 0 0 0
-0.07420648 0.03505413 0.05581863 0 0 0 0
-0.04218299 0.07897944 -0.04417812 0 0 0 0
0.08712999 0.02702640 -0.03976176 0 0 0 0
-0.07624574 -0.06367924 0.00508447 0 0 0 0
0.09026238 -0.03228068 -0.02721847 0 0 0 0
-0.03083735 -0.00375322 0.09480093 0 0 0 0
0.02034892 0.09201893 0.03208984 0 0 0 0
0.01933495 0.00418895 -0.09769879 0 0 0 0
0.07399249 0.05689607 0.03478058 0 0 0 0
0.00890948 -0.09497231 -0.02796053 0 0 0 0
-0.04918894 -0.08614151 0.00550728 0 0 0 0
-0.02722383 -0.06782176 -0.06721136 0 0 0 0
0.06420495 -0.05102115 -0.05610280 0 0 0 0
-0.05162007 -0.06376415 0.05591758 0 0 0 0
-0.02821729 0.02916724 0.09091306 0 0 0 0
0.06532834 0.05274183 0.05306047 0 0 0 0
-0.01150130 -0.05078423 -0.08479340 0 0 0 0
-0.07724137 0.05265297 0.03434477 0 0 0 0
-0.06280207 0.03208534 -0.07049911 0 0 0 0
0.08936281 0.00147024 0.04330603 0 0 0 0
-0.05349881 -0.07495697 0.03695147 0 0 0 0
-0.02840258 0.05122815 0.08052591 0 0 0 0
-0.07176711 0.04571418 -0.05112004 0 0 0 0
0.03244828 0.08352692 -0.04285501 0 0 0 0
-0.09310846 -0.00412466 -0.03478175 0 0 0 0
0.03099594 0.05158062 -0.07927498 0 0 0 0
-0.08145582 0.00347973 0.05688760 0 0 0 0
0.08500639 0.05133677 -0.00443729 0 0 0 0
0.06306762 -0.04464466 -0.06279316 0 0 0 0
-0.07131936 0.02846224 0.06346379 0 0 0 0
-0.03139278 -0.06265383 -0.07085675 0 0 0 0
-0.03203550 0.07137578 0.06177143 0 0 0 0
0.03232040 0.06679631 0.06636792 0 0 0 0
-0.09437725 0.02377218 0.01930401 0 0 0 0
-0.05815353 -0.03032302 -0.07502875 0 0 0 0
-0.06588466 -0.06798179 -0.03003295 0 0 0 0
-0.07529470 0.03405607 -0.05541527 0 0 0 0
0.09389035 -0.02158495 0.02326921 0 0 0 0
0.09336194 -0.02768283 -0.01854795 0 0 0 0
-0.04873025 -0.08613885 0.00506604 0 0 0 0
0.02713272 -0.05736785 -0.07674145 0 0 0 0
-0.06183067 0.03717605 0.06837106 0 0 0 0
-0.08502895 0.05157331 -0.00361657 0 0 0 0
0.01740046 0.05786907 0.07926666 0 0 0 0
-0.08061666 -0.05361447 -0.02257171 0 0 0 0
-0.02879011 -0.01964223 0.09324966 0 0 0 0
-0.03490379 0.06578726 -0.06599958 0 0 0 0
-0.06385763 -0.06140584 0.04570704 0 0 0 0
0.00969688 0.00973477 -0.09885668 0 0 0 0
0.03638389 0.08602854 -0.03352005 0 0 0 0
0.02276831 -0.07361753 0.06302417 0 0 0 0
0.04910179 -0.07444712 -0.04457875 0 0 0 0
-0.02096038 0.01811621 -0.09563338 0 0 0 0
-0.09879555 0.00797453 -0.00766494 0 0 0 0
-0.09064226 -0.03611382 -0.01778311 0 0 0 0
0.09644773 0.01234281 -0.02218838 0 0 0 0
-0.08024313 -0.04310019 0.03978422 0 0 0 0
-0.00588833 -0.03582072 0.09262736 0 0 0 0
0.03073436 0.08554831 -0.04012826 0 0 0 0
-0.07093097 -0.06502550 0.02451469 0 0 0 0
-0.07959861 0.05341104 -0.02656826 0 0 0 0
0.00775788 0.09909721 -0.00676576 0 0 0 0
-0.02359169 0.05620358 -0.07856077 0 0 0 0
0.00559083 0.09286640 -0.03548542 0 0 0 0
0.09223066 0.03697006 -0.00541557 0 0 0 0
0.09847204 0.01175236 0.01036198 0 0 0 0
0.05623224 0.06333209 -0.05168340 0 0 0 0
0.00955555 0.04155220 0.09005402 0 0 0 0
0.00354189 -0.00273639 -0.09978218 0 0 0 0
0.09166905 -0.01578515 0.03510523 0 0 0 0
-0.05873433 0.05966818 -0.05326154 0 0 0 0
-0.03201962 0.09267143 -0.01848919 0 0 0 0
-0.03384141 -0.04425251 -0.08280829 0 0 0 0
0.04327025 0.08761195 -0.01735619 0 0 0 0
-0.00995766 0.04249627 0.08964586 0 0 0 0
0.01646758 0.09620760 0.01931315 0 0 0 0
-0.01982323 -0.02193856 -0.09502409 0 0 0 0
0.02645039 0.07409177 -0.06135223 0 0 0 0
-0.08206331 -0.02102546 0.05201677 0 0 0 0
0.01525667 0.01564686 0.09714191 0 0 0 0
-0.04480776 -0.08862338 0.00524816 0 0 0 0
0.06727743 0.05022987 -0.05293940 0 0 0 0
-0.07595614 0.00532114 0.06439808 0 0 0 0
-0.03634549 -0.08965544 -0.02302845 0 0 0 0
0.03234747 -0.08355466 -0.04286550 0 0 0 0
0.06014466 -0.07918355 -0.00140695 0 0 0 0
-0.05888952 -0.07914326 -0.01186353 0 0 0 0
-0.02742005 0.01821866 -0.09426307 0 0 0 0
0.09847204 0.01167825 -0.00029789 0 0 0 0
-0.03702465 -0.04659375 0.08002269 0 0 0 0
-0.04156070 0.08878618 0.01703563 0 0 0 0
0.05876439 0.05693100 -0.05662436 0 0 0 0
-0.00948137 -0.02914441 -0.09465814 0 0 0 0
-0.00839275 -0.03356264 0.09331553 0 0 0 0
-0.09228965 0.02916816 -0.02256097 0 0 0 0
0.06077655 0.06614869 -0.04315584 0 0 0 0
-0.07919867 0.05096338 -0.03128656 0 0 0 0
0.08176410 -0.00888597 -0.05610564 0 0 0 0
-0.04453512 0.07709161 0.04413380 0 0 0 0
0.09524697 0.02724761 0.00647856 0 0 0 0
0.05471180 -0.07445839 -0.03637426 0 0 0 0
0.04577629 0.08290257 0.03049508 0 0 0 0
-0.09714734 -0.01408860 -0.01761296 0 0 0 0
0.09085162 0.00970920 -0.03946932 0 0 0 0
0.07142193 -0.02024553 -0.06613243 0 0 0 0
-0.03161141 0.06341406 0.06971344 0 0 0 0
0.04145609 0.08652507 -0.02629089 0 0 0 0
-0.07100125 -0.05728526 -0.03981785 0 0 0 0
0.06675806 0.07182993 -0.01648964 0 0 0 0
-0.02228880 -0.08844440 0.03921107 0 0 0 0
0.06503939 0.06343687 0.04059543 0 0 0 0
0.09281396 0.03133446 0.01642974 0 0 0 0
0.09785104 -0.00778189 -0.01449432 0 0 0 0
0.08811080 0.03819732 -0.02560028 0 0 0 0
-0.04842348 -0.08675960 -0.00187871 0 0 0 0
0.06661522 0.06909301 -0.02670323 0 0 0 0
0.03563722 0.02132278 0.09053592 0 0 0 0
0.01530954 0.07643883 0.06189992 0 0 0 0
0.01539758 0.06740893 -0.07161491 0 0 0 0
-0.03557165 -0.05818045 -0.07264890 0 0 0 0
-0.00901468 -0.09478384 -0.02772692 0 0 0 0
0.01689074 -0.09012308 0.03814667 0 0 0 0
-0.04132832 -0.08258624 -0.03757271 0 0 0 0
0.04493356 -0.08363370 0.03090248 0 0 0 0
-0.04131578 0.04664527 0.07815135 0 0 0 0
0.03682045 -0.08841580 0.02636685 0 0 0 0
0.05953304 -0.07922570 0.00663510 0 0 0 0
0.03101713 0.03457288 0.08851688 0 0 0 0
-0.05053983 0.07321377 -0.04394418 0 0 0 0
-0.00158349 -0.09838774 -0.01513981 0 0 0 0
0.06534413 0.00910179 -0.07491875 0 0 0 0
0.04809008 0.06485336 -0.05820929 0 0 0 0
-0.00125375 0.06279096 0.07747282 0 0 0 0
-0.07746608 0.05811942 0.02130088 0 0 0 0
0.04356632 -0.08418743 -0.02916755 0 0 0 0
-0.00425373 0.08770926 0.04684760 0 0 0 0
-0.03215253 -0.01506518 -0.09304793 0 0 0 0
0.07034577 -0.06498101 -0.02617340 0 0 0 0
-0.04620958 0.08286992 0.02968442 0 0 0 0
-0.05297394 -0.04418197 -0.07203043 0 0 0 0
0.02110984 -0.09196808 -0.03060753 0 0 0 0
0.01240694 0.09394752 -0.02951423 0 0 0 0
0.07647283 -0.01669865 0.06155274 0 0 0 0
-0.04598265 -0.06200893 0.06304996 0 0 0 0
-0.08781078 -0.04175512 0.01949420 0 0 0 0
0.00389825 -0.00005843 -0.09949523 0 0 0 0
0.04601695 -0.00102103 -0.08819652 0 0 0 0
0.03919805 -0.02430781 -0.08821337 0 0 0 0
0.06657565 -0.00030576 0.07383335 0 0 0 0
0.03315051 0.09377103 0.00049760 0 0 0 0
-0.00056581 0.08747216 -0.04740620 0 0 0 0
-0.04641018 -0.08660081 -0.01325620 0 0 0 0
0.01762408 0.09736466 -0.00960342 0 0 0 0
0.03733272 0.08974288 -0.02131187 0 0 0 0
0.05851749 -0.03666465 -0.07173388 0 0 0 0
-0.09160977 -0.03751994 -0.01111625 0 0 0 0
-0.06284799 0.05339490 -0.05540826 0 0 0 0
-0.04072960 0.08687449 -0.02552178 0 0 0 0
-0.03655405 -0.08444627 -0.03797726 0 0 0 0
-0.03571062 0.02555429 0.08952676 0 0 0 0
0.05866170 0.04855522 0.06442399 0 0 0 0
-0.09293836 0.03433709 -0.00681941 0 0 0 0
-0.00100805 0.01241617 -0.09875007 0 0 0 0
-0.07257207 0.06595512 -0.01741213 0 0 0 0
0.01384765 0.08716491 -0.04534267 0 0 0 0
-0.03201497 -0.05801393 -0.07420115 0 0 0 0
-0.07689850 -0.02261500 -0.05886034 0 0 0 0
-0.06028684 -0.06734001 0.04093578 0 0 0 0
-0.08416526 -0.03408191 -0.04044823 0 0 0 0
0.08837173 -0.03720028 -0.02673250 0 0 0 0
0.06500758 -0.05925689 0.04670738 0 0 0 0
0.01595466 0.06757525 -0.07138485 0 0 0 0
0.09554960 0.01510313 -0.02313589 0 0 0 0
0.04748940 0.08715416 -0.00357277 0 0 0 0
-0.00808950 -0.07852317 -0.06060047 0 0 0 0
-0.01901855 0.08441830 -0.04869000 0 0 0 0
0.03018970 -0.08140908 -0.04874910 0 0 0 0
0.06713059 -0.02961734 -0.06739420 0 0 0 0
0.02583968 -0.00666509 -0.09590298 0 0 0 0
0.03434731 -0.07855593 -0.05001969 0 0 0 0
-0.04246026 0.03327741 -0.08379525 0 0 0 0
0.08230670 -0.04874767 0.02742613 0 0 0 0
-0.05601551 0.07501264 -0.03316459 0 0 0 0
0.09884502 -0.00661356 0.00330729 0 0 0 0
0.09579360 -0.00101800 -0.02674441 0 0 0 0
-0.02908524 -0.07966737 0.05190827 0 0 0 0
0.01832415 0.05058661 -0.08380725 0 0 0 0
-0.04643039 0.08615145 0.01802039 0 0 0 0
-0.00791414 -0.07971026 -0.05879643 0 0 0 0
-0.01487184 -0.06973664 -0.06974741 0 0 0 0
-0.08510463 0.03826115 -0.03391441 0 0 0 0
-0.03300301 -0.01447168 0.09272884 0 0 0 0
0.01113261 -0.09291700 -0.03342119 0 0 0 0
0.01932008 -0.02373633 -0.09484762 0 0 0 0
0.07873075 -0.06070619 -0.00547979 0 0 0 0
0.05828577 -0.02054379 -0.07793362 0 0 0 0
-0.06505026 -0.02473842 -0.07120317 0 0 0 0
-0.00111585 0.09943668 -0.00548179 0 0 0 0
-0.05989320 -0.00324599 -0.07939704 0 0 0 0
-0.00345280 -0.08655213 0.04926435 0 0 0 0
-0.06415774 -0.04774326 0.05885687 0 0 0 0
0.06020960 -0.05570961 -0.05627330 0 0 0 0
-0.04493985 0.02117484 -0.08653609 0 0 0 0
-0.03393286 -0.08311962 -0.04312006 0 0 0 0
0.01539599 -0.09338767 0.03097063 0 0 0 0
0.07665445 -0.06036865 -0.01736431 0 0 0 0
-0.03254974 0.06095470 -0.07184375 0 0 0 0
0.07063496 0.06925284 0.00757038 0 0 0 0
0.00220811 0.08126572 -0.05765793 0 0 0 0
0.08906369 -0.01062324 0.04239269 0 0 0 0
0.05043956 0.07858737 0.03397856 0 0 0 0
0.08654411 0.04845243 0.00012335 0 0 0 0
-0.08923306 0.04336647 -0.00065681 0 0 0 0
-0.06017620 0.03094265 -0.07285132 0 0 0 0
0.01007598 0.04438680 -0.08860116 0 0 0 0
0.02668481 0.08628528 0.04097214 0 0 0 0
0.06353804 -0.07027106 -0.02973618 0 0 0 0
-0.09373538 0.02939924 -0.01677433 0 0 0 0
0.08119207 0.05699152 0.00482758 0 0 0 0
0.01177568 0.09802832 -0.00996141 0 0 0 0
-0.05330689 0.01640991 -0.08268183 0 0 0 0
0.09164973 -0.02129452 -0.03134988 0 0 0 0
0.01121965 -0.09812021 -0.00937748 0 0 0 0
0.08885609 -0.01941913 -0.04005694 0 0 0 0
-0.08651979 0.01000817 -0.04750641 0 0 0 0
-0.00977553 -0.07183601 0.06814326 0 0 0 0
-0.08163212 -0.04164353 0.03793424 0 0 0 0
-0.00010928 -0.09150867 0.03866742 0 0 0 0
-0.07898191 0.05042294 -0.03385576 0 0 0 0
0.09392130 0.02395975 -0.02375688 0 0 0 0
0.03627030 0.07572151 -0.05317371 0 0 0 0
0.03117511 -0.05928075 -0.07347383 0 0 0 0
0.05345730 0.07861561 -0.02834110 0 0 0 0
-0.00702584 0.00898450 -0.09900783 0 0 0 0
0.09320100 0.00973749 -0.03345842 0 0 0 0
-0.08454946 0.01800684 0.04949334 0 0 0 0
0.07399873 0.03986114 -0.05354892 0 0 0 0
0.06456082 -0.07378648 -0.01625881 0 0 0 0
-0.06099045 0.00022646 0.07905323 0 0 0 0
0.06074012 -0.07725616 -0.01348079 0 0 0 0
0.09607363 0.02511800 -0.00392397 0 0 0 0
-0.01542353 0.02318021 -0.09556868 0 0 0 0
0.08967800 -0.03380908 -0.02698829 0 0 0 0
-0.05921132 0.06178022 -0.05069587 0 0 0 0
0.00712344 -0.04004812 0.09084360 0 0 0 0
-0.01253914 0.08107777 -0.05632468 0 0 0 0
-0.07947432 -0.05048709 -0.03210408 0 0 0 0
0.05144886 -0.07712285 -0.03584041 0 0 0 0
0.05656301 0.01747599 -0.07981755 0 0 0 0
-0.00125100 -0.09881832 -0.01136751 0 0 0 0
0.07677218 -0.02367964 -0.05887388 0 0 0 0
0.08980617 -0.03589287 0.02190777 0 0 0 0
-0.09362363 0.02194541 0.02508884 0 0 0 0
0.09801909 -0.00431412 -0.01574639 0 0 0 0
-0.08615725 -0.04904361 0.00179796 0 0 0 0
0.00818837 0.05535946 0.08220952 0 0 0 0
0.04731804 0.08633625 -0.01136945 0 0 0 0
0.07639994 0.01640624 -0.06172700 0 0 0 0
-0.02945358 -0.04860844 -0.08178455 0 0 0 0
0.07426209 -0.04266621 -0.05031502 0 0 0 0
-0.03494563 -0.08945215 0.02463720 0 0 0 0
0.03202567 -0.00678575 -0.09428001 0 0 0 0
0.09365989 -0.03368821 -0.00006601 0 0 0 0
-0.06292823 -0.03076347 -0.07083540 0 0 0 0
0.00240492 -0.08447926 0.05234032 0 0 0 0
-0.07528009 -0.05474790 -0.03435080 0 0 0 0
0.09688651 -0.01750542 -0.01144988 0 0 0 0
0.01027409 -0.02110974 -0.09706809 0 0 0 0
0.03168022 -0.06228955 0.07082295 0 0 0 0
0.01625661 -0.09226356 0.03332027 0 0 0 0
0.07619563 0.03961048 -0.04997209 0 0 0 0
0.08445511 0.04925202 -0.01858776 0 0 0 0
-0.02477688 0.09022219 -0.03280803 0 0 0 0
-0.06491532 0.02304436 -0.07188945 0 0 0 0
-0.03665061 0.07671025 -0.05185241 0 0 0 0
-0.07447823 -0.01583536 -0.06383891 0 0 0 0
-0.00569015 0.03589898 0.09266640 0 0 0 0
-0.03122253 0.04128736 -0.08495065 0 0 0 0
0.00921182 -0.08051194 0.05741432 0 0 0 0
0.09061456 0.02870206 -0.02960515 0 0 0 0
-0.08991370 -0.01635139 -0.03938590 0 0 0 0
0.00044637 0.06689051 -0.07360623 0 0 0 0
-0.06992897 0.02786457 -0.06481279 0 0 0 0
0.00329125 -0.09864604 -0.01062744 0 0 0 0
0.01599321 0.06877974 -0.07058396 0 0 0 0
0.05800791 0.00918340 -0.08026780 0 0 0 0
-0.08731601 0.00114448 -0.04761922 0 0 0 0
0.00207048 0.08737084 -0.04773353 0 0 0 0
0.05103082 -0.08224189 0.02286243 0 0 0 0
0.02798991 0.09515360 -0.00429053 0 0 0 0
0.01641723 -0.09795821 -0.00644780 0 0 0 0
-0.05198913 -0.02706756 0.08043768 0 0 0 0
-0.08067241 0.05370335 -0.02198913 0 0 0 0
0.04319587 -0.08935326 0.00240452 0 0 0 0
0.09481321 -0.02834749 -0.00872724 0 0 0 0
0.06538780 -0.07413349 0.00921090 0 0 0 0
0.07158044 -0.06275585 -0.02920000 0 0 0 0
-0.09517564 0.00448683 -0.02734742 0 0 0 0
0.07400005 0.05927069 -0.02890557 0 0 0 0
0.01736105 0.04499734 -0.08695300 0 0 0 0
-0.01392174 -0.08704905 0.04672753 0 0 0 0
0.09497632 0.02379320 0.01644616 0 0 0 0
0.00151646 0.04059098 -0.09084041 0 0 0 0
-0.06542677 -0.00579664 0.07482418 0 0 0 0
-0.07561924 0.05493882 -0.03376282 0 0 0 0
0.08447354 -0.01054245 0.05142470 0 0 0 0
-0.05252705 0.06244775 -0.05709836 0 0 0 0
-0.02629602 -0.08065086 -0.05223662 0 0 0 0
0.01987468 -0.05136492 -0.08317475 0 0 0 0
-0.04015059 -0.02324522 0.08845773 0 0 0 0
-0.06661833 0.05501546 -0.04929949 0 0 0 0
0.06666599 0.07344113 -0.00023022 0 0 0 0
0.01628631 -0.02948130 0.09372272 0 0 0 0
0.00342909 0.09830441 -0.01280127 0 0 0 0
0.04151204 -0.06914763 0.05787002 0 0 0 0
-0.09625585 0.01739890 0.01824110 0 0 0 0
-0.03332910 0.06300272 0.06926753 0 0 0 0
0.01349734 0.09822013 -0.00034015 0 0 0 0
0.03322391 0.09124660 -0.02254342 0 0 0 0
0.01396494 0.02191489 0.09633749 0 0 0 0
0.09251659 0.01350609 -0.03377398 0 0 0 0
-0.00735226 -0.05523591 -0.08271015 0 0 0 0
0.09929575 -0.00637999 0.00274703 0 0 0 0
0.07502587 -0.00751475 -0.06487533 0 0 0 0
0.06292577 -0.06521104 -0.04106877 0 0 0 0
-0.03874078 0.08705433 0.02976858 0 0 0 0
0.02876655 0.07922844 -0.05294506 0 0 0 0
-0.08422411 0.05197252 -0.00755325 0 0 0 0
-0.01582605 0.09754417 -0.00992591 0 0 0 0
0.03120984 -0.04830806 0.08124311 0 0 0 0
0.01102095 -0.09423145 -0.02871298 0 0 0 0
-0.01692201 -0.04298207 0.08856120 0 0 0 0
-0.03964248 0.02123246 -0.08879526 0 0 0 0
0.08677890 -0.04774236 -0.00896531 0 0 0 0
0.07334329 -0.02173218 -0.06360622 0 0 0 0
0.08073370 0.02204208 -0.05344166 0 0 0 0
-0.06627442 -0.07134894 -0.02072397 0 0 0 0
-0.08628130 -0.04975475 -0.00320052 0 0 0 0
0.06112022 0.07852580 -0.00399034 0 0 0 0
0.01054503 -0.03473147 0.09268241 0 0 0 0
-0.07108422 0.05737928 0.03858203 0 0 0 0
-0.03433862 -0.08843277 -0.02911623 0 0 0 0
0.05301236 0.00033669 -0.08448361 0 0 0 0
-0.03108887 -0.08865842 -0.03176543 0 0 0 0
-0.06689890 0.05609209 -0.04721073 0 0 0 0
0.03314424 -0.02613803 0.09025902 0 0 0 0
-0.02808809 -0.03919282 -0.08705094 0 0 0 0
0.00850921 0.09935074 -0.00194923 0 0 0 0
0.07276183 0.05889617 -0.03266493 0 0 0 0
-0.03172027 -0.00379943 0.09444140 0 0 0 0
0.03018607 -0.04980939 0.08085579 0 0 0 0
-0.03274872 -0.03577960 0.08718349 0 0 0 0
-0.01671412 -0.07312492 0.06562187 0 0 0 0
0.08105724 0.00903998 0.05665924 0 0 0 0
-0.08423456 0.03420490 0.03967267 0 0 0 0
0.06035762 -0.00668186 -0.07881041 0 0 0 0
0.06455841 0.07344666 0.01827428 0 0 0 0
-0.00065509 0.04308856 -0.08993240 0 0 0 0
-0.04402428 -0.08214009 -0.03444527 0 0 0 0
0.04616974 -0.07077435 -0.05226673 0 0 0 0
0.03422132 0.02918893 -0.08872940 0 0 0 0
0.02057098 -0.06119410 -0.07550746 0 0 0 0
0.03814384 0.01936403 -0.09006853 0 0 0 0
0.01730076 0.09474697 -0.02603658 0 0 0 0
-0.04801745 0.06498642 -0.05810456 0 0 0 0
-0.03359205 0.04455759 -0.08274059 0 0 0 0
0.04003446 0.01812750 -0.08924954 0 0 0 0
-0.06219444 -0.03319127 0.07016048 0 0 0 0
0.03513838 -0.03661660 -0.08598366 0 0 0 0
-0.05128931 -0.02862532 -0.08051919 0 0 0 0
0.08041681 -0.01920609 -0.05519288 0 0 0 0
-0.05805025 -0.03556043 -0.07288121 0 0 0 0
0.03856061 0.08039452 0.04398267 0 0 0 0
-0.01199764 -0.00039371 0.09905931 0 0 0 0
-0.04262695 0.08817734 -0.01637351 0 0 0 0
-0.03112763 -0.09176630 -0.02301516 0 0 0 0
0.07611274 -0.01882824 -0.06088695 0 0 0 0
0.09835972 -0.01529784 -0.00528943 0 0 0 0
-0.04944820 -0.05359140 -0.06745545 0 0 0 0
0.03379729 0.05000339 -0.07900001 0 0 0 0
0.08985701 -0.03906680 -0.01875443 0 0 0 0
-0.05440375 0.07857499 0.02691774 0 0 0 0
-0.02336123 0.09645546 -0.00042463 0 0 0 0
-0.05850383 -0.08016317 0.00091484 0 0 0 0
-0.03647311 0.06586552 -0.06477045 0 0 0 0
-0.05957188 -0.06453677 -0.04611593 0 0 0 0
-0.03153526 0.01445600 -0.09331039 0 0 0 0
0.07951712 0.03701549 -0.04646673 0 0 0 0
-0.09790976 -0.00619964 0.01570398 0 0 0 0
-0.08524355 0.04108171 0.03101914 0 0 0 0
-0.04497253 -0.08732577 -0.01403060 0 0 0 0
0.00399152 0.03287152 0.09391821 0 0 0 0
0.09868041 -0.00333002 -0.01034896 0 0 0 0
0.07095227 -0.06892014 0.00814199 0 0 0 0
-0.01296462 -0.09644395 0.01972892 0 0 0 0
-0.05228482 0.07170590 -0.04454458 0 0 0 0
-0.05036558 0.06251968 -0.05854420 0 0 0 0
-0.07633986 0.06317814 0.00443142 0 0 0 0
-0.03241972 -0.03245721 0.08878614 0 0 0 0
-0.09863275 0.00541453 0.01169401 0 0 0 0
0.05227437 -0.06908473 -0.04837242 0 0 0 0
0.08107506 0.02898269 -0.04970716 0 0 0 0
0.05570803 0.06680973 -0.04805982 0 0 0 0
0.05393352 -0.02122127 0.08089924 0 0 0 0
-0.09248655 0.00221445 0.03595228 0 0 0 0
0.09344806 -0.03138886 0.01368593 0 0 0 0
0.07852101 -0.05990499 0.01217250 0 0 0 0
0.05848321 0.00522893 -0.08063101 0 0 0 0
0.08544262 0.04753925 -0.01649721 0 0 0 0
-0.06227098 0.01718615 0.07572525 0 0 0 0
0.05306832 -0.07480072 -0.03803863 0 0 0 0
-0.07904337 -0.03841817 0.04657521 0 0 0 0
-0.05388096 0.00722873 -0.08345665 0 0 0 0
-0.00454785 -0.00028854 -0.09977428 0 0 0 0
-0.03660889 -0.09218898 -0.00730047 0 0 0 0
-0.05897247 0.05914571 -0.05376421 0 0 0 0
0.08040254 0.05736581 -0.00806102 0 0 0 0
-0.00165690 -0.05890473 -0.08004825 0 0 0 0
0.03245816 0.06415930 -0.06879384 0 0 0 0
0.02056966 -0.03042976 -0.09263109 0 0 0 0
-0.00156148 -0.02281185 0.09694231 0 0 0 0
-0.03073230 -0.09436218 -0.00485792 0 0 0 0
-0.09079134 0.01678441 0.03714721 0 0 0 0
0.00068869 0.09811949 -0.01492888 0 0 0 0
-0.07158619 0.06865472 0.01112271 0 0 0 0
-0.08292575 -0.04023620 0.03762833 0 0 0 0
0.00828389 -0.04632562 -0.08764283 0 0 0 0
-0.08826865 -0.00130573 -0.04587280 0 0 0 0
0.06581945 -0.01749327 -0.07274803 0 0 0 0
0.08388517 -0.05305020 -0.00331246 0 0 0 0
0.03739280 -0.01993410 -0.09003223 0 0 0 0
-0.09815115 0.00759995 -0.01156531 0 0 0 0
0.06966549 -0.06143669 -0.03466564 0 0 0 0
0.09237097 -0.02959230 0.02194646 0 0 0 0
0.04855216 0.01330917 -0.08621025 0 0 0 0
0.06546994 -0.05499304 -0.05035965 0 0 0 0
-0.07406305 -0.05388094 -0.03886068 0 0 0 0
0.04361770 0.01900508 -0.08738405 0 0 0 0
0.06328584 0.07358203 -0.02209730 0 0 0 0
-0.07543365 -0.06384283 -0.00806520 0 0 0 0
0.06902498 -0.06146280 0.03672113 0 0 0 0
-0.04762817 -0.08437182 -0.02280937 0 0 0 0
0.09224582 0.01156242 0.03504733 0 0 0 0
-0.00378937 -0.09739070 -0.02043653 0 0 0 0
-0.04517337 0.06977536 -0.05425837 0 0 0 0
0.03235020 -0.02173652 0.09155100 0 0 0 0
-0.02183186 -0.09649609 -0.00674778 0 0 0 0
-0.02306254 0.09072548 -0.03297440 0 0 0 0
-0.08097024 -0.00597257 -0.05796398 0 0 0 0
-0.00183165 0.06644285 -0.07439949 0 0 0 0
-0.07374571 -0.05347663 -0.03980731 0 0 0 0
-0.06464218 -0.07173644 -0.02385037 0 0 0 0
-0.00733728 0.09860108 -0.00929538 0 0 0 0
-0.07257397 -0.06731716 -0.01026733 0 0 0 0
-0.02843124 -0.07847990 0.05384699 0 0 0 0
0.09834007 0.00056800 -0.01319028 0 0 0 0
-0.09303436 -0.01154141 0.03322277 0 0 0 0
-0.08805893 0.01351567 0.04403212 0 0 0 0
-0.04517557 -0.07956330 0.03873243 0 0 0 0
-0.09012743 -0.03303827 0.02479840 0 0 0 0
0.09207623 0.01978909 0.03279526 0 0 0 0
-0.03066197 -0.07399906 -0.05889590 0 0 0 0
-0.04843673 0.05962343 0.06376528 0 0 0 0
-0.02315181 -0.07531725 0.06092243 0 0 0 0
-0.04118292 0.07126228 0.05544896 0 0 0 0
-0.08764457 -0.04342441 0.01833902 0 0 0 0
0.08117349 -0.04688022 -0.03324217 0 0 0 0
0.08291768 0.03796759 -0.03981279 0 0 0 0
-0.08094983 -0.04875923 -0.03055464 0 0 0 0
0.01567129 0.08256575 -0.05364773 0 0 0 0
-0.00489834 0.01831555 0.09769855 0 0 0 0
0.01070616 -0.09902352 -0.00696246 0 0 0 0
-0.05359483 -0.04582788 -0.07009417 0 0 0 0
0.05153439 -0.08135952 -0.02564830 0 0 0 0
0.02684657 0.06097613 -0.07399311 0 0 0 0
0.08543707 -0.03413055 -0.03721964 0 0 0 0
0.09909639 -0.00118646 -0.00843251 0 0 0 0
0.04620586 0.08446696 -0.02614307 0 0 0 0
0.01215018 -0.04152154 -0.08963694 0 0 0 0
0.02757434 -0.08582969 -0.04211758 0 0 0 0
0.07209060 -0.03289063 -0.06052167 0 0 0 0
0.03641545 -0.06646327 -0.06433509 0 0 0 0
-0.05519245 -0.08165116 -0.01135539 0 0 0 0
-0.06294886 -0.07638250 -0.01058071 0 0 0 0
0.09849709 -0.01195325 -0.00041909 0 0 0 0
0.01022076 -0.04818926 -0.08636990 0 0 0 0
0.03820746 0.07788981 0.04923497 0 0 0 0
0.08891542 0.03867321 -0.02264565 0 0 0 0
-0.04689676 0.07953423 0.03656391 0 0 0 0
0.02945046 0.07497708 -0.05831272 0 0 0 0
0.00507635 0.09913914 0.00484116 0 0 0 0
-0.04566299 -0.08047239 0.03591887 0 0 0 0
0.00189842 -0.09851813 0.01510572 0 0 0 0
0.09072537 -0.01558980 0.03699500 0 0 0 0
-0.05091625 -0.06486865 0.05530783 0 0 0 0
0.02778740 -0.09556754 0.00037275 0 0 0 0
0.01585051 0.05550382 0.08105400 0 0 0 0
-0.00862447 -0.06793261 0.07206847 0 0 0 0
0.07159455 -0.04674882 -0.05063223 0 0 0 0
0.04641532 0.03606312 -0.08051746 0 0 0 0
0.00590512 -0.09886736 -0.00930301 0 0 0 0
0.02099104 -0.09149007 -0.03227262 0 0 0 0
-0.00901890 -0.08542841 -0.04976855 0 0 0 0
0.04351065 -0.08598609 0.02463097 0 0 0 0
0.02155006 0.06544684 -0.07179168 0 0 0 0
-0.04279729 0.08859942 0.01508094 0 0 0 0
0.05916559 0.06117751 -0.05096748 0 0 0 0
0.05093562 -0.05544235 -0.06482973 0 0 0 0
-0.09364440 -0.02144986 0.02445696 0 0 0 0
-0.06732066 -0.02263109 -0.06952009 0 0 0 0
-0.05924273 -0.03233554 -0.07364974 0 0 0 0
0.07170425 -0.02651310 -0.06366821 0 0 0 0
0.08592427 0.04166343 -0.02800758 0 0 0 0
0.01813904 0.09657852 -0.01492078 0 0 0 0
0.07197242 0.01502788 -0.06680540 0 0 0 0
-0.00694614 0.05747714 -0.08090661 0 0 0 0
0.04484148 -0.08477096 -0.02659538 0 0 0 0
0.02913010 -0.03565157 -0.08822605 0 0 0 0
-0.03362248 -0.01413959 -0.09285018 0 0 0 0
-0.03628045 0.02395667 -0.08965749 0 0 0 0
0.07826935 0.02317345 -0.05701761 0 0 0 0
0.06985533 -0.04896545 -0.05094707 0 0 0 0
0.04645248 0.02844271 -0.08343597 0 0 0 0
-0.06865183 0.06344302 -0.03369798 0 0 0 0
-0.05051016 0.08589052 -0.00536773 0 0 0 0
-0.03831599 0.06898169 -0.06048214 0 0 0 0
0.01091189 0.09072778 0.03852073 0 0 0 0
0.06322297 0.02131841 -0.07421069 0 0 0 0
0.00890630 0.06006406 -0.07896908 0 0 0 0
