ply
format ascii 1.0
comment https://github.com/mikedh/trimesh
element vertex 1119
property float x
property float y
property float z
property uchar red
property uchar green
property uchar blue
property uchar alpha
end_header
0.07968480 0.09391416 -0.03301561 0 0 0 0
0.01027443 -0.04882699 0.08698499 0 0 0 0
0.08001703 0.04369303 -0.05994796 0 0 0 0
0.09830119 0.05937802 -0.01564390 0 0 0 0
-0.03306020 -0.05324593 -0.08446445 0 0 0 0
-0.09880410 -0.07738410 -0.01253322 0 0 0 0
0.01170703 0.07899317 0.06073920 0 0 0 0
-0.07730725 0.01413067 -0.06270619 0 0 0 0
-0.09774055 -0.03039117 -0.01911171 0 0 0 0
-0.03262024 0.06807412 0.07263865 0 0 0 0
0.05156004 0.02726476 0.08520597 0 0 0 0
0.03727911 0.03935827 0.09145163 0 0 0 0
-0.09067283 -0.09988682 -0.00117323 0 0 0 0
0.03375496 0.05444890 -0.08356665 0 0 0 0
0.01658429 0.06349932 -0.07666447 0 0 0 0
0.01743609 -0.02212144 0.09709981 0 0 0 0
0.09346039 -0.07720833 -0.03493666 0 0 0 0
-0.05212498 -0.02775451 -0.08488199 0 0 0 0
0.04749686 -0.09191927 -0.03843638 0 0 0 0
-0.06256776 -0.05129222 0.07797126 0 0 0 0
0.06522612 -0.05532771 0.07539679 0 0 0 0
0.09242330 0.06905124 -0.03804113 0 0 0 0
0.05631034 -0.08018304 -0.05910007 0 0 0 0
0.09180762 0.09679145 -0.02498217 0 0 0 0
-0.00074052 0.06700060 0.07367831 0 0 0 0
0.09965537 -0.00292909 -0.00206702 0 0 0 0
-0.04673027 -0.09969551 -0.00331886 0 0 0 0
0.03747667 -0.04780557 -0.08745680 0 0 0 0
0.07525042 -0.00896515 0.06568880 0 0 0 0
-0.00989965 -0.04559359 -0.08852203 0 0 0 0
0.06972721 -0.01777675 -0.07127818 0 0 0 0
-0.09157786 0.01928398 -0.03966168 0 0 0 0
0.00581490 0.09942655 0.00506809 0 0 0 0
-0.07947839 0.00794421 0.06004360 0 0 0 0
0.06448723 -0.08449216 0.05285597 0 0 0 0
0.06018428 -0.05103974 -0.07948660 0 0 0 0
0.03572918 0.02989433 -0.09301809 0 0 0 0
0.08504188 -0.04522886 -0.05218992 0 0 0 0
-0.06162509 -0.09380887 -0.03330170 0 0 0 0
-0.00798683 -0.07845201 -0.06127071 0 0 0 0
-0.06884073 0.02198386 -0.07211725 0 0 0 0
-0.09656254 -0.04469349 -0.02448448 0 0 0 0
0.03685793 -0.09653690 -0.02588877 0 0 0 0
0.07546484 -0.09820919 -0.01621293 0 0 0 0
-0.09085162 -0.03347287 0.04066878 0 0 0 0
0.01702232 -0.03145668 -0.09443666 0 0 0 0
-0.06281115 -0.00905505 -0.07732575 0 0 0 0
0.01711980 0.09642370 0.02485946 0 0 0 0
0.04536695 -0.08111507 -0.05793134 0 0 0 0
-0.09819837 -0.05558230 -0.01867574 0 0 0 0
0.02806537 0.05157999 -0.08518893 0 0 0 0
0.06442368 0.09070849 0.04099210 0 0 0 0
0.02315353 -0.04694907 -0.08779701 0 0 0 0
0.02461811 0.09804411 -0.01949258 0 0 0 0
0.05051964 0.01424687 -0.08578610 0 0 0 0
-0.03097887 0.08812364 -0.04664344 0 0 0 0
-0.02410715 0.07132731 -0.07000040 0 0 0 0
0.06112270 0.06919806 -0.07186083 0 0 0 0
0.09619845 0.04764456 -0.02571121 0 0 0 0
-0.02707613 -0.09536926 -0.02850502 0 0 0 0
-0.02114588 0.09829949 -0.01762764 0 0 0 0
0.03190873 -0.04951989 -0.08634915 0 0 0 0
0.01714516 0.01869933 -0.09799983 0 0 0 0
-0.02158317 -0.09801075 0.01790616 0 0 0 0
0.06048651 0.01310625 -0.07906067 0 0 0 0
-0.09414622 0.01893453 -0.03238503 0 0 0 0
-0.03986495 0.08854480 0.04587993 0 0 0 0
0.07715330 -0.04013259 0.06337679 0 0 0 0
0.06841578 0.08132616 -0.05785661 0 0 0 0
0.04191190 0.07537925 -0.06512382 0 0 0 0
-0.02345261 0.01016026 0.09684057 0 0 0 0
0.00078424 0.07188457 -0.06950601 0 0 0 0
0.08255221 -0.04745986 -0.05583411 0 0 0 0
0.09941062 0.01367798 -0.00610948 0 0 0 0
-0.07369389 0.09073639 0.04092908 0 0 0 0
0.06504082 -0.05197090 0.07557625 0 0 0 0
0.07140680 0.07975945 -0.05963124 0 0 0 0
-0.02710755 0.09020276 -0.04310069 0 0 0 0
0.09755210 0.07801548 -0.02115032 0 0 0 0
-0.08991419 0.02601255 -0.04285064 0 0 0 0
-0.05237187 0.01773040 0.08467753 0 0 0 0
0.01263769 0.09200085 -0.03885088 0 0 0 0
0.02811860 -0.09200484 -0.03884323 0 0 0 0
-0.06554634 0.09333532 -0.03458852 0 0 0 0
0.07609265 -0.03721687 -0.06426914 0 0 0 0
0.00984410 -0.09642304 -0.02495451 0 0 0 0
0.04928678 0.09416427 0.03318545 0 0 0 0
0.08652352 -0.08951347 -0.04435078 0 0 0 0
0.00810946 -0.09446581 -0.03154907 0 0 0 0
-0.09855382 0.09974229 -0.00477776 0 0 0 0
-0.03057044 -0.08005993 -0.05990072 0 0 0 0
-0.00991366 -0.09871461 -0.01308673 0 0 0 0
-0.06428747 -0.08197923 -0.05684771 0 0 0 0
-0.06153200 -0.09472618 -0.03080910 0 0 0 0
-0.08928853 0.06499472 -0.04404990 0 0 0 0
0.07425052 -0.05512277 -0.06653921 0 0 0 0
-0.09803887 0.01923560 -0.01726651 0 0 0 0
0.03852224 0.07094562 0.06985776 0 0 0 0
-0.08177031 -0.09422720 -0.03235302 0 0 0 0
0.09436752 0.04270306 -0.03178368 0 0 0 0
0.09686743 -0.06999791 -0.02451228 0 0 0 0
-0.09939352 -0.08936679 -0.00628678 0 0 0 0
0.09235175 -0.09546112 -0.02881200 0 0 0 0
0.00854672 0.08736736 -0.04789102 0 0 0 0
-0.03863000 0.08299196 -0.05510870 0 0 0 0
0.04163333 -0.05241932 -0.08471622 0 0 0 0
0.03975647 0.09207176 -0.03871495 0 0 0 0
0.04998983 -0.09411575 0.03329506 0 0 0 0
-0.06990760 -0.03380898 0.07086303 0 0 0 0
-0.06365553 0.06495958 -0.07572232 0 0 0 0
-0.08870565 -0.09610662 -0.02602063 0 0 0 0
0.04144602 0.09725667 -0.02210466 0 0 0 0
0.01856698 0.09356098 0.03454828 0 0 0 0
-0.00958023 -0.04764017 -0.08753645 0 0 0 0
-0.05444477 0.06071831 -0.07903198 0 0 0 0
-0.09424862 -0.04684454 -0.03228084 0 0 0 0
-0.00092999 -0.08213229 -0.05652679 0 0 0 0
-0.01845978 -0.09971736 -0.00400031 0 0 0 0
0.03852023 0.09293614 -0.03670299 0 0 0 0
0.05827389 0.04539542 -0.08071198 0 0 0 0
0.09999487 -0.04142579 -0.00005320 0 0 0 0
-0.02400754 0.08389468 -0.05361956 0 0 0 0
-0.06786858 -0.08489736 -0.05196553 0 0 0 0
-0.04395293 -0.09223998 0.03753245 0 0 0 0
0.09882605 -0.06097100 -0.01239748 0 0 0 0
0.04076374 -0.03120971 -0.09084796 0 0 0 0
0.09689831 -0.04559049 0.02278008 0 0 0 0
-0.09203367 0.07334136 0.03799850 0 0 0 0
-0.01598318 -0.09789417 0.01841693 0 0 0 0
-0.05221165 0.07400690 0.06689309 0 0 0 0
0.00016920 -0.05900876 -0.08016354 0 0 0 0
0.00922746 0.09189324 -0.03850711 0 0 0 0
-0.00434747 0.02796895 -0.09559466 0 0 0 0
-0.06349199 0.09577965 -0.02712229 0 0 0 0
-0.01361204 0.01753264 -0.09830578 0 0 0 0
0.09175086 -0.02229574 0.03863737 0 0 0 0
0.02858759 -0.06133034 -0.07851095 0 0 0 0
-0.04550761 0.01061995 0.08896204 0 0 0 0
-0.01863281 -0.02317335 0.09689495 0 0 0 0
-0.01521298 0.08462478 0.05266585 0 0 0 0
-0.09058106 -0.04335236 -0.04207272 0 0 0 0
0.00148921 -0.05733312 -0.08141410 0 0 0 0
0.03799135 -0.05349335 -0.08427979 0 0 0 0
0.07211540 0.08698292 -0.04852519 0 0 0 0
0.01444871 -0.06450458 -0.07606190 0 0 0 0
0.00388637 0.00317815 -0.09949333 0 0 0 0
0.02573559 -0.09705783 -0.02281570 0 0 0 0
-0.02083053 0.01788052 -0.09744097 0 0 0 0
0.02444318 -0.09936475 -0.00658503 0 0 0 0
0.02120816 -0.07627392 0.06463744 0 0 0 0
-0.09764914 -0.04501588 0.01949047 0 0 0 0
0.05900032 0.08225908 0.05605726 0 0 0 0
-0.01152043 -0.08168876 -0.05721195 0 0 0 0
0.04539965 0.04098098 0.08900575 0 0 0 0
0.04995827 -0.09455850 0.03229487 0 0 0 0
-0.09714823 0.05731820 -0.02251109 0 0 0 0
-0.08602636 -0.09964237 -0.00166162 0 0 0 0
0.02388858 -0.09963592 -0.00146080 0 0 0 0
0.08129452 -0.06453107 -0.05770630 0 0 0 0
0.04353196 -0.07949974 0.06001300 0 0 0 0
-0.04773933 -0.07502397 -0.06556933 0 0 0 0
-0.09177436 -0.06075576 -0.03883015 0 0 0 0
-0.00189569 -0.09911858 0.01305246 0 0 0 0
-0.00007365 -0.06656241 -0.07405682 0 0 0 0
-0.09708344 -0.06113016 -0.02317611 0 0 0 0
-0.00089849 -0.07659760 0.06417342 0 0 0 0
-0.06796296 0.07349788 -0.06748299 0 0 0 0
-0.02593999 0.09874873 -0.01297070 0 0 0 0
0.06818055 -0.06059566 0.07253558 0 0 0 0
-0.09123661 0.09122001 -0.04031579 0 0 0 0
-0.03826842 -0.09698400 -0.02379120 0 0 0 0
0.00479986 0.03435884 -0.09347308 0 0 0 0
-0.07404123 0.08904271 -0.04452108 0 0 0 0
-0.09779413 -0.09929868 0.00905579 0 0 0 0
-0.06754246 0.07103504 -0.07024921 0 0 0 0
-0.03364779 0.09217881 -0.03773110 0 0 0 0
-0.09841998 -0.02033609 -0.01490914 0 0 0 0
-0.01907128 0.07400012 0.06689965 0 0 0 0
0.06880101 -0.09352121 -0.03473173 0 0 0 0
-0.07167309 0.09925336 -0.00975441 0 0 0 0
-0.02481619 0.09260838 -0.03768636 0 0 0 0
-0.03005423 -0.02437440 -0.09502223 0 0 0 0
-0.08774716 0.01047437 -0.04700441 0 0 0 0
0.04654413 0.09092444 -0.04113964 0 0 0 0
-0.09954536 0.06427088 0.00136333 0 0 0 0
0.03693761 -0.05906615 -0.08043848 0 0 0 0
0.07342018 0.06964359 -0.06721182 0 0 0 0
0.02785897 -0.09783871 -0.01850451 0 0 0 0
0.07014428 -0.09743191 0.02044221 0 0 0 0
0.01477847 -0.09566192 0.02819704 0 0 0 0
0.06869917 0.05374274 0.07203333 0 0 0 0
-0.05503822 0.09934114 0.00773149 0 0 0 0
0.09002771 -0.00308765 -0.04263301 0 0 0 0
-0.04623767 0.00440178 -0.08819766 0 0 0 0
0.09514273 0.04452017 0.03047178 0 0 0 0
0.05146895 -0.01588568 -0.08569261 0 0 0 0
-0.01851887 0.00868799 -0.09804716 0 0 0 0
-0.04681761 -0.05650685 -0.08203076 0 0 0 0
0.09153858 0.00658088 -0.03947084 0 0 0 0
-0.09582172 0.07874288 -0.02783214 0 0 0 0
0.00007597 -0.05476014 -0.08339790 0 0 0 0
-0.00736335 -0.09410312 -0.03250213 0 0 0 0
0.09997316 0.02923404 -0.00027827 0 0 0 0
-0.04411431 -0.09228238 -0.03744968 0 0 0 0
0.02607428 0.09670479 0.02362796 0 0 0 0
-0.09229658 -0.04738405 -0.03741110 0 0 0 0
0.08046820 0.09927402 0.00982469 0 0 0 0
0.02667489 0.06941280 0.07134222 0 0 0 0
-0.08193078 -0.08864240 -0.04578771 0 0 0 0
-0.01008382 0.09957986 -0.00773494 0 0 0 0
0.04391972 0.09850203 -0.01440169 0 0 0 0
-0.04713277 -0.00355623 0.08808780 0 0 0 0
-0.01659530 0.05996121 -0.07967650 0 0 0 0
-0.09926970 0.08045468 -0.00757025 0 0 0 0
0.09272735 -0.09649193 -0.02601097 0 0 0 0
-0.04645445 0.01369877 -0.08807558 0 0 0 0
-0.02706256 -0.09698065 0.02241934 0 0 0 0
0.09907489 -0.01321259 0.01324388 0 0 0 0
-0.05100081 -0.04802341 0.08556999 0 0 0 0
0.07907290 -0.01473119 -0.06098755 0 0 0 0
0.05984808 0.07088320 -0.07000531 0 0 0 0
0.06032885 0.08512574 0.05194769 0 0 0 0
-0.02266460 -0.09304982 -0.03631998 0 0 0 0
-0.02872727 0.00038988 -0.09537020 0 0 0 0
0.04130715 -0.09975835 -0.00527847 0 0 0 0
0.03332948 -0.04123808 -0.09061953 0 0 0 0
0.06596644 0.09569033 0.02807257 0 0 0 0
-0.05037396 0.06475366 0.07585435 0 0 0 0
-0.03546239 0.08005901 -0.05990174 0 0 0 0
-0.03807963 -0.08920906 -0.04420223 0 0 0 0
0.06676687 -0.03792814 -0.07437351 0 0 0 0
0.06556924 0.06917010 0.07157727 0 0 0 0
0.06578546 -0.03920195 -0.07510595 0 0 0 0
-0.06120215 -0.08403520 0.05351106 0 0 0 0
0.09417487 0.09852048 -0.01428751 0 0 0 0
-0.05187508 0.03438745 -0.08548754 0 0 0 0
-0.03094936 0.01377336 -0.09460510 0 0 0 0
0.05084063 -0.00357916 -0.08599519 0 0 0 0
0.00658275 0.07806718 -0.06209496 0 0 0 0
0.01636267 0.08978860 -0.04389693 0 0 0 0
-0.09932683 -0.01956315 -0.00697808 0 0 0 0
0.05547474 -0.09987378 -0.00130841 0 0 0 0
-0.08778959 -0.09393951 -0.03294671 0 0 0 0
-0.09055424 0.01948923 0.04134055 0 0 0 0
0.08137389 0.07873387 -0.05760680 0 0 0 0
-0.02103341 0.04559937 -0.08851925 0 0 0 0
0.00089857 -0.03941646 0.09142808 0 0 0 0
0.03254761 0.09269112 -0.03633901 0 0 0 0
0.09982593 -0.01815357 -0.00180433 0 0 0 0
0.03500841 -0.09552494 -0.02798048 0 0 0 0
-0.09578903 -0.09534747 -0.02709069 0 0 0 0
-0.05755895 -0.03000667 -0.08124556 0 0 0 0
-0.00024515 0.02833696 0.09588934 0 0 0 0
0.01309079 0.07135589 0.06946044 0 0 0 0
-0.07197569 -0.03982041 0.06886019 0 0 0 0
-0.03212729 0.09381571 -0.03328313 0 0 0 0
0.09918053 -0.09616856 0.01273974 0 0 0 0
-0.09829532 0.09516416 -0.01568023 0 0 0 0
0.09493394 -0.09355406 0.03138651 0 0 0 0
-0.04083135 0.06020432 -0.07927126 0 0 0 0
-0.05159392 -0.06291800 -0.07715935 0 0 0 0
-0.01577176 -0.09041914 -0.04251272 0 0 0 0
-0.00430765 0.06703403 0.07364593 0 0 0 0
-0.08568959 -0.02177346 0.05113938 0 0 0 0
0.04602447 0.09076626 -0.04121737 0 0 0 0
0.04508785 -0.08163117 0.05695743 0 0 0 0
-0.05563526 -0.09701742 -0.02358450 0 0 0 0
-0.01701506 -0.02464411 0.09660852 0 0 0 0
-0.05351458 0.09902165 -0.01014161 0 0 0 0
-0.07599361 0.09942219 0.00520417 0 0 0 0
-0.04420554 0.09448141 -0.03149650 0 0 0 0
0.03217039 -0.07463498 0.06628482 0 0 0 0
-0.09302033 0.07582198 0.03576962 0 0 0 0
0.05102934 -0.06246332 0.07807241 0 0 0 0
0.01054675 0.07391032 0.06698661 0 0 0 0
0.06000914 -0.09434199 -0.03185306 0 0 0 0
0.00045233 -0.02041177 -0.09755079 0 0 0 0
0.04683527 0.03167977 -0.08792407 0 0 0 0
-0.00070527 -0.09946613 0.00383416 0 0 0 0
-0.03771574 0.07265156 -0.06854425 0 0 0 0
-0.07582393 -0.09915877 -0.00872022 0 0 0 0
0.03149946 -0.08930628 -0.04469257 0 0 0 0
0.00193591 0.07793126 -0.06192370 0 0 0 0
-0.02523271 0.09906711 0.01327791 0 0 0 0
0.05388536 -0.07588793 0.06507140 0 0 0 0
0.05537121 -0.08322294 0.05467550 0 0 0 0
-0.05599220 0.08206303 -0.05664105 0 0 0 0
-0.07789022 -0.07263847 0.06232036 0 0 0 0
0.01860906 0.03294470 0.09404820 0 0 0 0
0.02527201 -0.03574304 -0.09326581 0 0 0 0
0.09475841 -0.09573440 -0.02727477 0 0 0 0
0.07984263 -0.03063462 0.05952143 0 0 0 0
0.04516249 0.07277723 -0.06791978 0 0 0 0
0.09344684 0.08680242 -0.03498228 0 0 0 0
-0.02331319 -0.09864987 -0.01399545 0 0 0 0
-0.04784196 -0.09426945 0.03294783 0 0 0 0
0.06190229 0.09466199 -0.03098353 0 0 0 0
-0.00097740 0.08751103 -0.04765402 0 0 0 0
-0.05640322 0.02988189 -0.08247253 0 0 0 0
-0.09327842 -0.08319806 -0.03474310 0 0 0 0
-0.01258863 -0.05586689 -0.08277459 0 0 0 0
-0.09727073 0.02155797 0.02114840 0 0 0 0
0.03993424 -0.08053912 -0.05915491 0 0 0 0
-0.07775470 0.09971778 -0.00401329 0 0 0 0
0.06462485 0.07321616 0.06765887 0 0 0 0
0.02676054 -0.06922956 0.07151968 0 0 0 0
0.09478657 -0.04130720 -0.03064499 0 0 0 0
0.08044839 0.03233048 0.05865303 0 0 0 0
0.02962918 0.01119680 -0.09513370 0 0 0 0
-0.05162444 -0.09798525 -0.01969087 0 0 0 0
0.02930469 -0.09774488 -0.01908488 0 0 0 0
-0.02087628 0.09411146 -0.03247947 0 0 0 0
0.01318212 0.09895347 -0.01084842 0 0 0 0
-0.01172818 0.07640810 -0.06383368 0 0 0 0
-0.00811449 -0.06698229 -0.07421274 0 0 0 0
0.00463254 0.03994253 -0.09124343 0 0 0 0
-0.01041237 0.07643799 -0.06388886 0 0 0 0
-0.09971398 -0.03846594 -0.00690531 0 0 0 0
-0.05022510 0.07254976 -0.06817025 0 0 0 0
-0.03915675 -0.06131077 -0.07844551 0 0 0 0
-0.05383768 -0.01694865 -0.08391742 0 0 0 0
0.08041988 0.00064597 -0.05880308 0 0 0 0
-0.09340127 0.09552707 0.02878791 0 0 0 0
-0.08899486 0.03031543 0.04486322 0 0 0 0
0.01715786 -0.03689650 0.09244829 0 0 0 0
-0.01644519 -0.01294460 -0.09859095 0 0 0 0
0.04382235 0.04251420 -0.08955795 0 0 0 0
0.05179894 0.06288348 0.07766552 0 0 0 0
-0.09776494 -0.01542434 0.01898313 0 0 0 0
0.04687436 0.09955551 0.00104685 0 0 0 0
0.02386412 0.03392000 -0.09361878 0 0 0 0
0.04130812 -0.08091883 -0.05852855 0 0 0 0
0.07274649 -0.09195785 -0.03833152 0 0 0 0
-0.09199409 0.07385419 0.03808790 0 0 0 0
-0.09868316 0.02809031 0.01496014 0 0 0 0
-0.09787255 -0.04163943 -0.01829522 0 0 0 0
-0.07254036 0.09884301 -0.01199346 0 0 0 0
0.04624347 0.08194004 -0.05689685 0 0 0 0
0.05200466 -0.09550916 0.02886631 0 0 0 0
-0.08512978 -0.09967509 -0.00268214 0 0 0 0
-0.09894662 -0.09402303 0.01380583 0 0 0 0
0.01425446 0.05613465 0.08222823 0 0 0 0
-0.03964749 0.05460474 0.08322409 0 0 0 0
0.07604390 0.04511039 -0.06432281 0 0 0 0
-0.06845609 -0.09828818 0.01669066 0 0 0 0
-0.08059654 0.08466648 0.05260609 0 0 0 0
-0.03472051 0.08995627 -0.04276996 0 0 0 0
-0.08158751 -0.09776078 -0.01898650 0 0 0 0
-0.03058706 -0.04926257 -0.08675514 0 0 0 0
-0.07164103 0.08449300 -0.05324201 0 0 0 0
-0.07638891 -0.09690907 -0.02425465 0 0 0 0
-0.07919230 0.06024779 0.06045372 0 0 0 0
0.03043672 0.07814325 0.06195763 0 0 0 0
-0.09357997 0.04778247 -0.03453373 0 0 0 0
-0.08143684 -0.03353729 -0.05752785 0 0 0 0
0.06597175 0.00523488 -0.07496692 0 0 0 0
-0.09649317 -0.03185076 0.02455511 0 0 0 0
0.01172831 -0.03497865 -0.09363391 0 0 0 0
0.07880227 -0.05087738 -0.06128554 0 0 0 0
0.01169645 0.06963283 -0.07138212 0 0 0 0
0.01331962 -0.09627806 0.02549759 0 0 0 0
-0.00748331 -0.01509393 -0.09877378 0 0 0 0
0.06598070 0.09367364 0.03429378 0 0 0 0
-0.01487809 -0.06894652 -0.07213782 0 0 0 0
0.02456391 -0.07445080 -0.06628807 0 0 0 0
0.02223165 0.01563806 -0.09749542 0 0 0 0
-0.03422952 0.06548637 -0.07532917 0 0 0 0
-0.02875564 -0.08228283 -0.05627849 0 0 0 0
-0.08943401 0.08984702 -0.04297937 0 0 0 0
-0.01171862 0.08226076 -0.05649468 0 0 0 0
0.09818746 -0.03536546 -0.01878884 0 0 0 0
-0.03178734 -0.07376222 -0.06683520 0 0 0 0
0.07355611 0.00312054 -0.06740997 0 0 0 0
-0.01984509 -0.09423921 -0.03231254 0 0 0 0
0.08206187 -0.09844159 -0.01615462 0 0 0 0
-0.09564977 0.09935441 0.00731777 0 0 0 0
-0.04252722 0.09443058 -0.03161231 0 0 0 0
0.02430500 0.06840247 0.07232067 0 0 0 0
-0.04052733 0.09723732 -0.02221093 0 0 0 0
-0.09723857 0.01967991 0.02128931 0 0 0 0
0.07731784 0.00958983 0.06314091 0 0 0 0
0.09063000 0.03474151 -0.04147855 0 0 0 0
0.02638720 -0.03363944 0.09376694 0 0 0 0
0.09364081 -0.06395850 -0.03432875 0 0 0 0
0.03989341 -0.08713605 -0.04817580 0 0 0 0
-0.02058911 0.08396055 -0.05351090 0 0 0 0
-0.07319209 -0.08890453 -0.04478595 0 0 0 0
0.03434020 0.05666757 0.08188134 0 0 0 0
-0.05422022 0.07410373 0.06679931 0 0 0 0
-0.04979946 0.07659619 -0.06359784 0 0 0 0
-0.06994574 0.00756571 -0.07117655 0 0 0 0
-0.05467143 -0.00815901 0.08318068 0 0 0 0
-0.03157839 -0.02995161 0.09460136 0 0 0 0
0.05678009 -0.01128804 0.08180809 0 0 0 0
-0.04099884 0.08156712 -0.05745913 0 0 0 0
0.04001470 0.04717281 0.08806174 0 0 0 0
-0.05690512 0.06973620 0.07102902 0 0 0 0
0.06172104 0.01714362 -0.07813931 0 0 0 0
-0.00783516 -0.00691530 -0.09929886 0 0 0 0
0.03228765 0.09997323 -0.00027746 0 0 0 0
0.06352904 -0.05147303 -0.07663917 0 0 0 0
-0.09634648 -0.09751852 0.02006275 0 0 0 0
0.06579242 -0.08032428 0.05883095 0 0 0 0
-0.08239397 0.00273166 -0.05632763 0 0 0 0
-0.05799335 -0.05428905 -0.08092135 0 0 0 0
-0.06554158 -0.09275199 -0.03617359 0 0 0 0
-0.00271470 -0.00635085 -0.09933510 0 0 0 0
0.00449681 -0.01402658 -0.09884231 0 0 0 0
-0.02209084 0.09946272 -0.00556947 0 0 0 0
-0.03998037 0.09972982 -0.00438905 0 0 0 0
-0.01340382 -0.09990792 -0.00095448 0 0 0 0
-0.09020529 0.07378840 -0.04229264 0 0 0 0
0.09667409 -0.02945734 0.02376244 0 0 0 0
-0.05410212 -0.09772246 -0.01922355 0 0 0 0
-0.00144745 -0.07390584 0.06699096 0 0 0 0
-0.03629913 -0.07599869 0.06496415 0 0 0 0
-0.05049403 0.07986750 -0.05949574 0 0 0 0
0.09792792 0.00377014 -0.01795272 0 0 0 0
0.07081354 -0.09984426 -0.00161433 0 0 0 0
-0.06416883 -0.09948619 0.00320860 0 0 0 0
-0.08518557 0.00902352 0.05186193 0 0 0 0
0.09592775 0.05696410 0.02703241 0 0 0 0
-0.08880144 -0.06834509 0.04530016 0 0 0 0
0.02618285 0.09926046 -0.00766600 0 0 0 0
-0.04954783 -0.08533925 -0.05161993 0 0 0 0
0.06091756 -0.09938037 -0.00642311 0 0 0 0
0.06687440 -0.05983195 0.07380052 0 0 0 0
0.09924357 -0.09912685 0.01077418 0 0 0 0
0.04624203 -0.09835500 -0.01531111 0 0 0 0
0.04974980 -0.06232054 0.07820166 0 0 0 0
-0.01339590 0.08894925 0.04496627 0 0 0 0
-0.06266411 -0.08412039 -0.05324723 0 0 0 0
-0.09951816 -0.05132804 -0.00499473 0 0 0 0
-0.05246677 0.08240701 -0.05631130 0 0 0 0
0.07173290 0.08764210 0.04791912 0 0 0 0
0.09885217 -0.03039950 0.01421969 0 0 0 0
0.09894955 -0.07532734 0.01379299 0 0 0 0
0.09865786 0.09584070 -0.01391264 0 0 0 0
-0.00655651 -0.01795926 -0.09804629 0 0 0 0
-0.08253986 -0.02546097 -0.05614471 0 0 0 0
0.01951922 -0.09449585 -0.03144786 0 0 0 0
-0.09825081 -0.07048808 -0.01813223 0 0 0 0
0.09113572 -0.08530458 0.04002700 0 0 0 0
0.05482788 -0.09271433 -0.03627593 0 0 0 0
0.09918310 0.09826438 -0.01018894 0 0 0 0
-0.08437719 0.08012421 -0.05346400 0 0 0 0
0.09826509 -0.08223985 -0.01586720 0 0 0 0
0.06410615 0.03509780 -0.07614786 0 0 0 0
-0.02441261 0.02702780 0.09614430 0 0 0 0
0.01910987 -0.05351628 -0.08409843 0 0 0 0
-0.01571528 -0.04112469 -0.09107725 0 0 0 0
-0.03974917 -0.08294011 0.05508096 0 0 0 0
0.04562216 -0.08536538 -0.05119349 0 0 0 0
0.09344693 -0.01851669 -0.03498198 0 0 0 0
-0.04573745 -0.06110280 -0.07860072 0 0 0 0
-0.02834783 0.09812967 0.01738516 0 0 0 0
0.04389041 0.09962215 -0.00103110 0 0 0 0
0.09932077 -0.04798684 -0.00704091 0 0 0 0
-0.09835999 0.05292364 -0.01700043 0 0 0 0
-0.03984343 -0.08249108 0.05572466 0 0 0 0
0.00812959 0.09959649 -0.00023121 0 0 0 0
0.06287806 0.07438181 -0.06637456 0 0 0 0
0.00740017 -0.09679513 0.02323213 0 0 0 0
0.02245493 0.06782243 -0.07337557 0 0 0 0
-0.01944675 0.09616700 -0.02581719 0 0 0 0
0.06428524 0.02274605 -0.07622559 0 0 0 0
0.03277143 -0.08432455 0.05309625 0 0 0 0
0.09181333 -0.09669061 -0.02547109 0 0 0 0
0.01406077 -0.09936123 0.00710514 0 0 0 0
0.01195513 -0.08153972 -0.05739884 0 0 0 0
0.04566932 -0.09360687 0.03444461 0 0 0 0
-0.02211322 0.09233853 -0.03729710 0 0 0 0
-0.09146784 0.02753809 -0.03966305 0 0 0 0
0.09977937 -0.02925590 -0.00650087 0 0 0 0
-0.06894280 0.09491112 -0.03030654 0 0 0 0
-0.06045750 0.09418593 -0.03227712 0 0 0 0
0.06269517 0.04847438 -0.07734905 0 0 0 0
0.09585352 0.00804383 0.02735759 0 0 0 0
-0.04044526 -0.09697472 -0.02384864 0 0 0 0
0.04482958 0.08970456 -0.04403557 0 0 0 0
0.09318073 -0.08980988 -0.03587890 0 0 0 0
0.03440506 -0.09320130 -0.03495268 0 0 0 0
0.09929465 0.02605468 0.00918136 0 0 0 0
0.04389820 -0.03122704 0.08961362 0 0 0 0
-0.09058132 -0.03142877 0.04127939 0 0 0 0
-0.05718302 0.09474412 -0.03076034 0 0 0 0
0.09975123 -0.06459235 -0.00257869 0 0 0 0
-0.02258482 0.08881043 -0.04551053 0 0 0 0
-0.01830618 0.09075644 -0.04159616 0 0 0 0
-0.01539066 0.04304149 -0.08975105 0 0 0 0
0.06554863 -0.03218923 -0.07491986 0 0 0 0
0.01685843 -0.09833766 -0.01723196 0 0 0 0
0.01204350 0.00306006 0.09906249 0 0 0 0
0.07897286 0.01692421 0.06076831 0 0 0 0
-0.00930448 0.03838255 -0.09199469 0 0 0 0
-0.03212558 0.04331475 -0.08961947 0 0 0 0
0.01817967 0.09559111 -0.02845882 0 0 0 0
-0.08423100 -0.07448298 -0.05306475 0 0 0 0
-0.02212089 0.01979867 -0.09710260 0 0 0 0
-0.07937436 0.09964340 -0.00369648 0 0 0 0
-0.04893410 -0.06947683 0.07128022 0 0 0 0
0.02851803 -0.09562715 -0.02836086 0 0 0 0
-0.01615676 0.05234332 -0.08513809 0 0 0 0
-0.08767711 0.02068791 0.04784007 0 0 0 0
-0.09730054 0.03164681 -0.02199792 0 0 0 0
0.00864258 0.09093000 0.04049172 0 0 0 0
0.07449411 0.09023980 0.04205089 0 0 0 0
0.08810636 0.01463531 0.04687037 0 0 0 0
0.08829220 -0.09957201 0.00053227 0 0 0 0
-0.04870444 -0.09701104 -0.02362394 0 0 0 0
-0.04196920 0.06236634 0.07816634 0 0 0 0
0.05082328 -0.08069948 0.05829307 0 0 0 0
-0.01495166 0.09945384 0.00421732 0 0 0 0
0.08504880 -0.01203226 -0.05217666 0 0 0 0
0.00953757 0.09973445 -0.00453316 0 0 0 0
-0.05823192 -0.09917244 -0.00857858 0 0 0 0
-0.01494106 -0.07666831 0.06407204 0 0 0 0
-0.00936678 -0.09424083 0.03301250 0 0 0 0
0.00123661 -0.02392606 -0.09693699 0 0 0 0
0.08926549 -0.06224643 0.04425187 0 0 0 0
-0.05772955 -0.02649236 0.08119006 0 0 0 0
0.06963426 -0.02531420 0.07112775 0 0 0 0
-0.06937029 -0.07144095 -0.06990366 0 0 0 0
0.04074008 -0.09929933 -0.00726324 0 0 0 0
-0.05351068 -0.03634237 0.08393624 0 0 0 0
0.00885810 -0.09918635 -0.01016884 0 0 0 0
0.09486331 0.06882059 -0.03020975 0 0 0 0
-0.01183567 0.07625133 -0.06403027 0 0 0 0
0.02417126 -0.01149561 0.09670061 0 0 0 0
0.01560426 0.03203151 -0.09424581 0 0 0 0
0.02210514 -0.09968998 -0.00314643 0 0 0 0
0.02572559 -0.05612724 -0.08262797 0 0 0 0
-0.04750246 -0.06552504 -0.07530031 0 0 0 0
-0.00521620 0.05079544 0.08570367 0 0 0 0
-0.00006017 0.06677707 0.07389478 0 0 0 0
0.02187368 -0.07376482 -0.06714825 0 0 0 0
-0.09429161 -0.01306517 -0.03213601 0 0 0 0
-0.04491160 0.03127554 -0.08894449 0 0 0 0
0.07411440 0.06166276 -0.06644741 0 0 0 0
-0.07021736 -0.06938409 -0.07073848 0 0 0 0
-0.08836233 -0.03158860 0.04629213 0 0 0 0
0.08751360 -0.01091457 0.04820942 0 0 0 0
0.07283159 0.01150420 -0.06831848 0 0 0 0
-0.03372293 0.07481225 -0.06583483 0 0 0 0
0.09758361 -0.03005026 -0.02104414 0 0 0 0
0.02439816 -0.06392785 -0.07629965 0 0 0 0
-0.06392056 0.06918191 -0.07182680 0 0 0 0
-0.00822395 0.06987738 0.07089230 0 0 0 0
0.08813968 -0.06043143 -0.04661698 0 0 0 0
-0.05109974 0.09973320 -0.00678646 0 0 0 0
0.00790465 -0.03348937 -0.09412143 0 0 0 0
0.07415290 0.09034500 0.04181323 0 0 0 0
-0.03671326 0.06069900 -0.07890208 0 0 0 0
-0.08258152 0.00039053 -0.05609246 0 0 0 0
-0.04715049 0.09302822 -0.03639277 0 0 0 0
0.06551992 -0.01105795 -0.07530413 0 0 0 0
-0.09882899 -0.08148744 -0.01237933 0 0 0 0
0.05434215 0.09863861 -0.01355689 0 0 0 0
0.00809202 -0.03345719 -0.09377244 0 0 0 0
0.01023097 0.06342362 0.07714242 0 0 0 0
-0.08362591 -0.01593811 -0.05478285 0 0 0 0
0.09087718 0.04616384 -0.04126807 0 0 0 0
-0.04466770 -0.08837862 -0.04622283 0 0 0 0
0.07236901 -0.07842743 -0.06130152 0 0 0 0
-0.06284138 0.05479556 -0.07722457 0 0 0 0
-0.07166751 0.00788873 -0.06971079 0 0 0 0
-0.01024608 0.04843175 -0.08715525 0 0 0 0
-0.04662688 -0.08630551 -0.04964265 0 0 0 0
0.08382072 0.09225442 0.03749983 0 0 0 0
0.09736838 0.09910924 -0.01064585 0 0 0 0
0.09400318 -0.07458901 -0.03310781 0 0 0 0
-0.00000362 -0.08507861 -0.05166655 0 0 0 0
0.01883055 -0.00380358 -0.09796543 0 0 0 0
0.07777555 -0.08336546 -0.05510945 0 0 0 0
0.04819317 0.09915796 0.01287992 0 0 0 0
-0.07713224 -0.03161090 -0.06292565 0 0 0 0
-0.01584327 -0.02585908 -0.09629519 0 0 0 0
-0.08993421 -0.08661501 -0.04365672 0 0 0 0
0.06309877 0.09714731 0.02168913 0 0 0 0
-0.08119702 0.09346627 0.03476222 0 0 0 0
-0.03372644 -0.00212353 -0.09368305 0 0 0 0
-0.03872603 -0.08483301 -0.05259029 0 0 0 0
-0.06546588 -0.08979867 -0.04307206 0 0 0 0
0.06538226 -0.09946539 0.00385726 0 0 0 0
0.06899868 0.06410677 -0.07208039 0 0 0 0
0.03099338 0.01364659 -0.09477596 0 0 0 0
0.02307154 -0.09957757 -0.00774904 0 0 0 0
0.06340773 0.06358056 0.07699044 0 0 0 0
0.08869959 -0.02122060 -0.04569336 0 0 0 0
-0.05856908 -0.09121196 0.03985476 0 0 0 0
0.09596951 0.08928154 -0.02743055 0 0 0 0
-0.00111659 0.00799427 -0.09933113 0 0 0 0
-0.08764713 -0.00865018 -0.04742952 0 0 0 0
0.09473900 -0.08315256 -0.03062857 0 0 0 0
0.02926439 -0.09851930 -0.01429483 0 0 0 0
0.09588314 0.08117138 0.02722785 0 0 0 0
0.04099012 -0.01246920 -0.09115303 0 0 0 0
0.06125451 -0.09796970 -0.01974330 0 0 0 0
-0.03984277 0.09774838 -0.01906322 0 0 0 0
-0.06910476 -0.09024263 -0.04299234 0 0 0 0
-0.01926229 -0.08676302 -0.04888794 0 0 0 0
0.06525266 0.01319827 -0.07517182 0 0 0 0
-0.06749059 0.09935751 -0.00911020 0 0 0 0
-0.06135408 -0.09922805 0.01125808 0 0 0 0
-0.08070535 -0.09967763 -0.00334172 0 0 0 0
-0.08907243 0.03358266 0.04468801 0 0 0 0
0.06351189 -0.04077913 0.07705694 0 0 0 0
0.00670579 -0.09783153 -0.02020884 0 0 0 0
0.01337348 -0.05478134 0.08310913 0 0 0 0
-0.08159320 -0.07985409 -0.05741609 0 0 0 0
0.07753240 -0.09208272 -0.03799220 0 0 0 0
0.02075185 0.07674763 -0.06340793 0 0 0 0
0.09885667 0.09682067 -0.01185188 0 0 0 0
-0.08131744 -0.02906618 -0.05787099 0 0 0 0
0.01012277 -0.04000812 0.09118854 0 0 0 0
-0.00284777 -0.09587907 0.02724566 0 0 0 0
0.00505622 0.09848128 -0.01574305 0 0 0 0
-0.00572398 0.03295904 -0.09393784 0 0 0 0
0.09935825 0.07571147 0.00719786 0 0 0 0
0.02833300 0.00656331 -0.09547359 0 0 0 0
0.09971918 0.01103831 -0.00291094 0 0 0 0
0.07416065 0.03501552 0.06674419 0 0 0 0
-0.07174161 -0.04125688 -0.06964770 0 0 0 0
-0.03719392 0.08894799 0.04496912 0 0 0 0
-0.02745193 -0.09920258 0.01205247 0 0 0 0
-0.06883571 -0.06530564 -0.07225983 0 0 0 0
0.05663560 0.02833301 -0.08193468 0 0 0 0
0.00713021 0.08469176 -0.05230470 0 0 0 0
0.02335073 -0.09539573 -0.02841585 0 0 0 0
0.08052586 0.09360807 -0.03384735 0 0 0 0
0.01805202 -0.04888196 -0.08670843 0 0 0 0
-0.08924817 0.09182802 0.03846307 0 0 0 0
-0.06353704 -0.04464359 -0.07663236 0 0 0 0
-0.08596595 -0.09450884 -0.03140406 0 0 0 0
-0.00329053 -0.03102825 -0.09476681 0 0 0 0
-0.00650133 -0.03876946 -0.09200865 0 0 0 0
0.09718796 0.03010771 -0.02252965 0 0 0 0
0.02125863 0.09749547 -0.02062760 0 0 0 0
0.00190297 0.08247356 0.05574979 0 0 0 0
-0.07071251 -0.09836697 -0.01523706 0 0 0 0
-0.09218957 0.03616426 0.03764633 0 0 0 0
0.05326466 -0.07725443 0.06323182 0 0 0 0
-0.07241561 -0.08844702 -0.04611000 0 0 0 0
-0.09316586 0.04494036 -0.03592900 0 0 0 0
0.00731466 0.07345217 -0.06717660 0 0 0 0
0.04153941 -0.09217868 0.03767092 0 0 0 0
0.01726601 0.09906771 -0.00966415 0 0 0 0
-0.01435494 0.09373016 -0.03402770 0 0 0 0
-0.02346856 -0.08426674 -0.05367574 0 0 0 0
-0.04114627 0.09880777 -0.01235873 0 0 0 0
0.07669260 -0.00068382 0.06403723 0 0 0 0
-0.07656710 -0.07784416 -0.06234054 0 0 0 0
0.09500819 0.09783957 0.01865614 0 0 0 0
0.01222937 0.05263614 -0.08459412 0 0 0 0
-0.01151082 -0.08539636 -0.05114239 0 0 0 0
-0.09142451 0.05519971 -0.03995561 0 0 0 0
-0.06000249 -0.09110016 -0.04066215 0 0 0 0
0.09476241 -0.04664735 -0.03071063 0 0 0 0
0.02397996 0.03791390 -0.09229271 0 0 0 0
0.06456800 -0.08739734 -0.04767495 0 0 0 0
0.06841631 -0.09726283 0.02118302 0 0 0 0
-0.00452774 -0.01515119 -0.09840836 0 0 0 0
-0.05559783 -0.03271580 -0.08270918 0 0 0 0
0.02325575 0.08168258 -0.05721971 0 0 0 0
-0.09454776 -0.00072389 -0.03127295 0 0 0 0
0.00166047 -0.01035669 0.09939100 0 0 0 0
0.07260206 0.09924994 0.01057561 0 0 0 0
-0.08546878 0.06340156 -0.05102291 0 0 0 0
0.04499697 0.07172455 -0.06907890 0 0 0 0
0.06074255 0.04948873 -0.07886958 0 0 0 0
0.02899252 0.07024154 -0.07071186 0 0 0 0
-0.05155172 -0.08047541 -0.05926000 0 0 0 0
0.01464613 0.09415327 0.03321028 0 0 0 0
0.09099160 -0.00455186 0.04035256 0 0 0 0
0.04795565 -0.09933705 -0.00923679 0 0 0 0
-0.09928583 0.05327364 0.00945639 0 0 0 0
0.09978691 0.04269469 -0.00616914 0 0 0 0
0.00762542 0.08941962 -0.04450560 0 0 0 0
0.03366663 0.09935633 -0.00667229 0 0 0 0
0.03275593 -0.09823238 -0.01832318 0 0 0 0
-0.07738294 -0.04311667 -0.06261127 0 0 0 0
0.02686280 -0.03211139 0.09438557 0 0 0 0
-0.09175232 0.05810178 0.03863408 0 0 0 0
0.02380528 0.04272473 -0.08990361 0 0 0 0
-0.07465959 0.00723005 -0.06602625 0 0 0 0
0.06076354 0.06761743 -0.07315867 0 0 0 0
0.09745247 -0.05788134 -0.02089357 0 0 0 0
0.08510187 0.09652931 0.02439676 0 0 0 0
0.01864827 -0.06888467 -0.07220592 0 0 0 0
0.09406523 0.03584632 -0.03260508 0 0 0 0
0.00947339 0.03807870 -0.09214102 0 0 0 0
0.01691617 0.06216446 0.07830326 0 0 0 0
-0.06494045 0.09709429 -0.02310900 0 0 0 0
0.04968796 0.02821952 0.08642456 0 0 0 0
-0.05239381 -0.08809783 -0.04633225 0 0 0 0
0.09631257 0.03804589 -0.02532671 0 0 0 0
-0.06158811 0.09443326 0.03257778 0 0 0 0
0.08574680 -0.04750827 -0.05083872 0 0 0 0
-0.05183766 0.08014639 -0.05980275 0 0 0 0
-0.09472792 0.01464715 -0.03066590 0 0 0 0
0.03509479 -0.01609841 -0.09322872 0 0 0 0
-0.05864526 -0.01536653 -0.08079679 0 0 0 0
0.08653868 0.05665400 -0.04932085 0 0 0 0
0.01703013 -0.09272812 -0.03740390 0 0 0 0
-0.04173091 0.07549006 -0.06498487 0 0 0 0
0.09145011 -0.00575702 -0.03971124 0 0 0 0
-0.07670395 0.01938697 -0.06359603 0 0 0 0
-0.09454288 -0.06068118 -0.03130716 0 0 0 0
-0.08063418 -0.04374186 0.05838668 0 0 0 0
0.01933602 0.09716069 -0.02246910 0 0 0 0
0.05313078 0.08789387 0.04735037 0 0 0 0
0.02666805 -0.06913683 0.07160948 0 0 0 0
-0.06078331 -0.09426118 0.03296652 0 0 0 0
-0.01491143 0.09801607 -0.01958707 0 0 0 0
-0.04881811 0.02412905 -0.08696918 0 0 0 0
-0.02387242 -0.01543542 -0.09695481 0 0 0 0
-0.05919179 0.01366585 -0.08033152 0 0 0 0
-0.06640317 -0.08818284 -0.04616929 0 0 0 0
-0.09887443 -0.02885904 -0.01209824 0 0 0 0
-0.06371516 -0.09143802 -0.03974409 0 0 0 0
-0.01136113 0.01935096 0.09763936 0 0 0 0
0.03109429 0.00238121 -0.09455698 0 0 0 0
-0.00461092 -0.07935614 -0.06013696 0 0 0 0
-0.07463903 -0.03372569 -0.06605203 0 0 0 0
0.09405843 0.05977818 -0.03262358 0 0 0 0
0.01025885 -0.04690671 0.08823495 0 0 0 0
-0.07076839 -0.08539390 -0.05114645 0 0 0 0
-0.05597082 -0.02026111 -0.08271606 0 0 0 0
0.02787243 0.01601094 -0.09562671 0 0 0 0
-0.02175042 0.05061704 0.08581980 0 0 0 0
0.00990078 -0.08078726 -0.05874557 0 0 0 0
-0.00170733 0.05878230 0.08050480 0 0 0 0
-0.06325512 -0.04626473 -0.07687236 0 0 0 0
0.09090166 -0.07917739 0.04055574 0 0 0 0
-0.09648915 -0.03569800 0.02457271 0 0 0 0
0.02396515 0.09215618 0.03772176 0 0 0 0
0.09047122 0.06285673 -0.04237119 0 0 0 0
-0.08422153 0.00575828 0.05324395 0 0 0 0
0.01686415 -0.09966694 -0.00242784 0 0 0 0
0.00611815 0.09559263 0.02850065 0 0 0 0
-0.04765069 -0.05189231 -0.08501303 0 0 0 0
-0.09946582 -0.03901543 0.00384365 0 0 0 0
0.04449369 0.07603492 -0.06433271 0 0 0 0
0.04471903 -0.09024448 -0.04221752 0 0 0 0
0.03306454 0.07399306 0.06690650 0 0 0 0
-0.09935822 -0.07475118 0.00719887 0 0 0 0
0.04957804 -0.06470923 -0.07590917 0 0 0 0
0.07078967 0.08354914 0.05420786 0 0 0 0
0.09908112 -0.01016454 -0.01081974 0 0 0 0
-0.08847395 -0.09737430 -0.02137708 0 0 0 0
-0.06195771 -0.05953840 0.07843783 0 0 0 0
0.03506262 0.04680478 -0.08793875 0 0 0 0
-0.03425105 -0.05942299 0.08008776 0 0 0 0
0.06773377 0.07134978 -0.06949157 0 0 0 0
-0.09616062 -0.00019345 -0.02583868 0 0 0 0
-0.06160914 -0.06733675 -0.07339762 0 0 0 0
0.00155833 0.09884759 -0.01226424 0 0 0 0
0.08408292 0.09828822 -0.01572412 0 0 0 0
0.03428189 -0.09968259 -0.00291623 0 0 0 0
-0.09661178 0.09977217 -0.00570963 0 0 0 0
-0.09968930 0.02293054 -0.00312545 0 0 0 0
0.09135510 0.01162043 -0.03996941 0 0 0 0
-0.09992622 -0.08356725 -0.00076479 0 0 0 0
-0.06552605 -0.08310097 0.05485035 0 0 0 0
-0.09089084 0.03455248 -0.04123094 0 0 0 0
0.08013032 -0.03834383 0.05910901 0 0 0 0
0.03728763 -0.08477511 0.05245035 0 0 0 0
0.00040621 -0.09609876 -0.02604712 0 0 0 0
0.09762503 0.05729992 0.01959612 0 0 0 0
0.06436964 -0.09743841 0.02041375 0 0 0 0
-0.08289092 -0.02902937 -0.05570449 0 0 0 0
-0.05753242 -0.02666078 -0.08174416 0 0 0 0
-0.04182606 -0.05307473 -0.08459222 0 0 0 0
0.09945224 0.03727144 -0.00567812 0 0 0 0
0.07934892 0.00610206 0.06022920 0 0 0 0
0.05963410 -0.04575142 -0.07969684 0 0 0 0
0.07694314 -0.09394000 -0.03332067 0 0 0 0
0.09468079 -0.01900891 -0.03082472 0 0 0 0
-0.04312491 0.08754280 0.04814345 0 0 0 0
0.08964633 -0.02254165 0.04339154 0 0 0 0
0.01755671 0.09650640 0.02449713 0 0 0 0
0.05894583 -0.06596202 -0.07456794 0 0 0 0
-0.01256071 0.03631891 -0.09298848 0 0 0 0
0.05261253 0.06322142 0.07733823 0 0 0 0
0.09987456 -0.09910589 -0.00130027 0 0 0 0
0.06926349 -0.07011113 -0.07085545 0 0 0 0
-0.01868206 0.03975412 -0.09133417 0 0 0 0
0.00520008 0.09610430 -0.02602843 0 0 0 0
0.03063223 -0.01902273 -0.09471039 0 0 0 0
-0.02727117 0.08169379 0.05686765 0 0 0 0
0.07390923 -0.08512761 -0.05158570 0 0 0 0
-0.03231606 0.02128132 0.09430271 0 0 0 0
0.03800536 -0.00063991 -0.09217633 0 0 0 0
0.03759459 0.09785382 0.01859370 0 0 0 0
-0.01479319 -0.02112568 0.09729373 0 0 0 0
-0.02583959 -0.09494095 -0.03022547 0 0 0 0
0.09567328 -0.00855265 -0.02748068 0 0 0 0
0.09283175 -0.05044033 -0.03595685 0 0 0 0
-0.00470668 -0.02295953 -0.09688269 0 0 0 0
-0.09183133 -0.04600280 -0.03917583 0 0 0 0
-0.00652453 -0.06394757 -0.07647761 0 0 0 0
0.03078801 0.07495581 0.06597412 0 0 0 0
-0.09824320 -0.02027336 -0.01821108 0 0 0 0
-0.06813452 -0.08891889 -0.04533160 0 0 0 0
0.04946256 -0.08229990 -0.05625030 0 0 0 0
0.08147825 0.09589316 0.02718395 0 0 0 0
-0.09786367 -0.03455166 -0.01835013 0 0 0 0
-0.09925269 -0.01453168 0.01048993 0 0 0 0
0.00887956 -0.08871178 0.04550271 0 0 0 0
0.05260352 0.08524950 -0.05179196 0 0 0 0
0.00015733 0.04209194 -0.09053250 0 0 0 0
0.07967311 0.08996381 -0.04275551 0 0 0 0
-0.05819588 -0.05353000 0.08088652 0 0 0 0
0.07995281 0.02952523 0.05936348 0 0 0 0
-0.09436908 -0.00404511 -0.03177946 0 0 0 0
-0.07372160 -0.05346145 -0.06687993 0 0 0 0
-0.09973437 0.09264745 -0.00453055 0 0 0 0
-0.02085662 0.04773753 -0.08748956 0 0 0 0
-0.08589358 -0.09865376 -0.01395514 0 0 0 0
-0.09834038 -0.02437179 -0.01720376 0 0 0 0
0.04420215 0.09892983 -0.01175556 0 0 0 0
-0.07573178 0.05721273 -0.06468176 0 0 0 0
0.01544030 -0.03093156 -0.09479217 0 0 0 0
-0.02821396 0.09743591 -0.02099596 0 0 0 0
0.01857983 -0.08958977 0.04351931 0 0 0 0
-0.02514145 0.09850614 -0.01548545 0 0 0 0
-0.02185884 0.02570109 0.09640267 0 0 0 0
0.09040967 0.02894804 -0.04253846 0 0 0 0
-0.05997156 0.04036418 -0.07966769 0 0 0 0
0.01049493 0.04112725 0.09073545 0 0 0 0
0.09843571 0.01577466 -0.01621549 0 0 0 0
-0.09183169 -0.08847791 -0.03917513 0 0 0 0
0.06365707 -0.07672573 0.06398974 0 0 0 0
0.09764620 0.03639112 0.01950336 0 0 0 0
-0.09916265 -0.05877539 -0.00868010 0 0 0 0
0.07339840 0.09917986 0.01276105 0 0 0 0
-0.00496175 0.07999584 -0.05933480 0 0 0 0
-0.06637297 -0.04082517 -0.07466749 0 0 0 0
-0.05368957 -0.01549163 0.08381980 0 0 0 0
-0.03272936 0.05929594 0.08017045 0 0 0 0
-0.09817410 -0.04240239 -0.01643002 0 0 0 0
-0.04529437 0.09891356 -0.01185620 0 0 0 0
-0.01984584 -0.04218547 -0.09016330 0 0 0 0
-0.02928137 -0.07144861 -0.06938274 0 0 0 0
0.08155391 -0.02346939 -0.05738105 0 0 0 0
0.06676854 -0.06589889 0.07390304 0 0 0 0
-0.04882448 0.02790381 -0.08674081 0 0 0 0
0.09853829 -0.06346066 -0.01515214 0 0 0 0
-0.09016751 -0.07502823 -0.04236504 0 0 0 0
0.06138544 -0.09799209 -0.01755581 0 0 0 0
-0.04016428 0.05870974 -0.08038670 0 0 0 0
-0.07134426 0.05314044 0.06947171 0 0 0 0
-0.09059812 -0.06148624 -0.04202635 0 0 0 0
0.08016989 -0.05241861 -0.05976399 0 0 0 0
-0.09377280 0.02855230 -0.03388405 0 0 0 0
0.02960499 0.08186890 -0.05696130 0 0 0 0
0.03496775 -0.09557275 -0.02781942 0 0 0 0
-0.02394655 -0.04615818 -0.08824243 0 0 0 0
0.09270428 -0.07005569 -0.03748424 0 0 0 0
0.08685970 0.07505781 -0.04870551 0 0 0 0
0.08104940 0.00149050 0.05779143 0 0 0 0
-0.09798998 0.01454697 -0.01756890 0 0 0 0
0.09920089 -0.03174759 0.01210528 0 0 0 0
-0.04787866 -0.02930052 0.08760228 0 0 0 0
0.06964283 0.08303699 -0.05552133 0 0 0 0
0.08944341 0.02010239 0.04384994 0 0 0 0
0.06590001 -0.04617933 0.07474416 0 0 0 0
-0.03343422 0.07157640 -0.06924203 0 0 0 0
0.09272642 0.01917031 -0.03624307 0 0 0 0
0.05430833 0.07054025 0.07025035 0 0 0 0
-0.00272447 -0.07943711 -0.06003544 0 0 0 0
-0.09327469 -0.02565242 -0.03556234 0 0 0 0
0.09572799 -0.09561940 0.02790761 0 0 0 0
0.08206706 0.02034350 -0.05673758 0 0 0 0
0.04393364 -0.08284742 0.05521384 0 0 0 0
-0.00201977 0.08741549 0.04843107 0 0 0 0
-0.00877470 0.07189390 -0.06949431 0 0 0 0
0.03121189 0.06853819 -0.07258744 0 0 0 0
0.09949201 -0.05965910 0.00302695 0 0 0 0
-0.04170512 -0.09060167 0.04123342 0 0 0 0
0.03472320 0.08267103 -0.05563810 0 0 0 0
0.08388714 0.01885130 -0.05440334 0 0 0 0
-0.09196900 -0.08401133 0.03814459 0 0 0 0
-0.07706128 -0.01081670 0.06350870 0 0 0 0
-0.01302486 -0.06114682 0.07896567 0 0 0 0
0.07017411 0.02307757 -0.07098214 0 0 0 0
-0.02493060 0.09967883 -0.00279863 0 0 0 0
0.02103389 0.05461454 -0.08344303 0 0 0 0
-0.09326820 0.05012237 -0.03558419 0 0 0 0
-0.00594204 0.07207380 -0.06869434 0 0 0 0
-0.09634291 0.02394923 0.02521346 0 0 0 0
0.09169634 0.07730495 -0.03904216 0 0 0 0
0.09297569 0.05979336 -0.03556572 0 0 0 0
0.00476853 0.00712632 0.09953791 0 0 0 0
0.04180073 0.05574171 0.08248401 0 0 0 0
0.09035235 0.09409679 -0.03279242 0 0 0 0
-0.09902110 -0.09877493 -0.01014732 0 0 0 0
-0.02119184 -0.02178269 -0.09719129 0 0 0 0
-0.04476070 0.07090852 -0.07035692 0 0 0 0
-0.09873677 0.04818340 -0.01294970 0 0 0 0
-0.09037592 0.09690062 -0.02430696 0 0 0 0
0.00388778 0.02428602 0.09667826 0 0 0 0
-0.09755093 -0.02491166 -0.02028454 0 0 0 0
-0.07791819 -0.08856122 0.04584282 0 0 0 0
-0.05242924 0.06417357 0.07641613 0 0 0 0
-0.07964706 -0.09001757 0.04255290 0 0 0 0
0.00270227 -0.07501002 -0.06546123 0 0 0 0
0.09641636 -0.08182055 -0.02497699 0 0 0 0
-0.05848668 -0.03208986 -0.08093179 0 0 0 0
-0.05082050 -0.09308965 -0.03618582 0 0 0 0
0.02579666 0.06786455 -0.07294829 0 0 0 0
0.01815132 -0.00931446 -0.09802152 0 0 0 0
0.04375144 -0.05277397 0.08441579 0 0 0 0
-0.08600368 0.02962310 -0.05034633 0 0 0 0
0.05265464 -0.09945883 0.00406158 0 0 0 0
-0.05000206 0.02247805 0.08622010 0 0 0 0
-0.05118126 -0.08011957 -0.05983505 0 0 0 0
0.08728881 0.09954248 0.00145308 0 0 0 0
-0.09502795 0.05925500 -0.02965503 0 0 0 0
0.06848846 0.04649867 0.07223739 0 0 0 0
-0.09534566 -0.08065166 -0.02858453 0 0 0 0
0.01235990 -0.01886381 -0.09795670 0 0 0 0
-0.09730047 -0.06410240 -0.02183372 0 0 0 0
0.02697215 -0.01448502 -0.09583046 0 0 0 0
-0.03790310 0.06315218 -0.07707123 0 0 0 0
-0.09870453 -0.09947508 0.00355489 0 0 0 0
0.05406705 -0.09744330 0.02039234 0 0 0 0
-0.05300796 0.04904702 -0.08464205 0 0 0 0
-0.07651180 -0.02862219 -0.06380761 0 0 0 0
0.06728683 0.00127136 -0.07344010 0 0 0 0
0.04372112 -0.06212541 -0.07783751 0 0 0 0
0.04525522 -0.01008998 -0.08875097 0 0 0 0
0.08378506 0.09129095 -0.04014372 0 0 0 0
0.01639490 0.09868227 0.01496403 0 0 0 0
0.09563213 0.01246875 -0.02834733 0 0 0 0
-0.08134712 0.04671426 -0.05782204 0 0 0 0
0.06619285 0.09735443 -0.02181635 0 0 0 0
0.02634268 -0.08803702 -0.04678634 0 0 0 0
-0.08986446 -0.08856268 -0.04294594 0 0 0 0
0.09773019 -0.08041929 0.01913537 0 0 0 0
-0.09706496 0.05473104 -0.02329044 0 0 0 0
0.05882485 0.07375369 -0.06684459 0 0 0 0
0.06244292 -0.05896420 0.07809217 0 0 0 0
0.05401001 0.08463503 -0.05296976 0 0 0 0
0.08937284 -0.00236429 0.04400936 0 0 0 0
-0.01501240 0.08045523 0.05864321 0 0 0 0
-0.05062113 -0.09118692 -0.04042640 0 0 0 0
-0.00990220 0.07878105 0.06104327 0 0 0 0
-0.00422089 0.09831949 -0.01553077 0 0 0 0
0.09700000 0.06563207 -0.02369222 0 0 0 0
0.09410693 -0.01094117 -0.03249177 0 0 0 0
0.01224661 0.04913033 -0.08681883 0 0 0 0
0.08997835 -0.04408095 0.04264151 0 0 0 0
0.09154516 0.03272486 -0.03972434 0 0 0 0
0.09505580 -0.09506273 -0.02989458 0 0 0 0
0.09385946 0.09008238 -0.03316424 0 0 0 0
-0.06535046 -0.06057941 -0.07543060 0 0 0 0
-0.01305659 -0.09162029 -0.03924879 0 0 0 0
0.08330998 0.06590565 0.05455073 0 0 0 0
-0.03802582 0.07793014 -0.06224586 0 0 0 0
0.06349678 -0.09423552 0.03302447 0 0 0 0
-0.09274014 -0.04757962 -0.03620579 0 0 0 0
-0.03623220 -0.05625402 -0.08221946 0 0 0 0
-0.00027124 0.07246764 0.06838378 0 0 0 0
-0.01288061 0.07214824 -0.06861237 0 0 0 0
0.09039385 -0.09808560 -0.01697742 0 0 0 0
0.04114260 0.05734893 0.08143782 0 0 0 0
0.06290949 -0.08830395 0.04642401 0 0 0 0
-0.01569450 0.06574178 0.07489739 0 0 0 0
0.03162589 -0.04070133 -0.09131567 0 0 0 0
0.07221479 0.09874707 -0.01288596 0 0 0 0
0.00222920 0.09950159 0.00272825 0 0 0 0
-0.07265355 0.03486404 -0.06854175 0 0 0 0
-0.05400388 0.09684347 -0.02353796 0 0 0 0
-0.00948251 -0.01709193 -0.09842135 0 0 0 0
-0.09135684 0.03554488 -0.03996468 0 0 0 0
0.09269556 -0.01491263 -0.03751362 0 0 0 0
-0.09922449 -0.07034034 0.01136943 0 0 0 0
0.08238413 0.08630095 0.05026294 0 0 0 0
0.06269742 0.01212702 0.07784571 0 0 0 0
0.07305282 0.08845532 -0.04609631 0 0 0 0
-0.08923324 0.03121067 0.04432471 0 0 0 0
0.09926770 -0.07957134 -0.00759107 0 0 0 0
0.09670925 -0.07370926 0.02360840 0 0 0 0
0.00130593 -0.09494189 -0.03022294 0 0 0 0
-0.09371181 0.02469681 -0.03408954 0 0 0 0
0.09729571 0.09688389 -0.02186320 0 0 0 0
0.03512980 -0.06169850 0.07860656 0 0 0 0
0.06354213 -0.09238424 0.03720655 0 0 0 0
0.03395989 -0.09913362 -0.01049505 0 0 0 0
-0.03470662 0.09954762 0.00129266 0 0 0 0
-0.01389355 0.09766182 -0.02078065 0 0 0 0
-0.01765837 -0.06267450 -0.07736665 0 0 0 0
-0.09838549 0.05167763 0.01626433 0 0 0 0
-0.09935607 -0.09179896 0.00726616 0 0 0 0
0.04150100 -0.09287821 0.03609066 0 0 0 0
0.04027979 -0.06829308 -0.07285734 0 0 0 0
0.09073505 0.04715986 0.04093211 0 0 0 0
-0.01733284 -0.05466468 -0.08345166 0 0 0 0
-0.07826976 0.08779353 0.04757706 0 0 0 0
0.09946843 -0.01731483 0.00376209 0 0 0 0
-0.09808311 -0.04655505 -0.01699283 0 0 0 0
0.04608101 -0.07253916 -0.06868519 0 0 0 0
0.02231375 -0.07189322 -0.06949517 0 0 0 0
-0.01930786 -0.00100320 -0.09784026 0 0 0 0
0.03686961 -0.04482095 -0.08899555 0 0 0 0
-0.09859653 -0.09970108 -0.00309868 0 0 0 0
-0.07417774 0.05983896 -0.06637765 0 0 0 0
0.07131796 0.06969641 0.06949718 0 0 0 0
0.05880123 -0.01470347 -0.08066401 0 0 0 0
0.04559758 -0.03009625 -0.08855816 0 0 0 0
-0.01297300 -0.08282054 -0.05579274 0 0 0 0
0.08516183 -0.09364842 -0.03373773 0 0 0 0
0.04457437 0.04425212 0.08933987 0 0 0 0
-0.06893861 0.01581826 -0.07203393 0 0 0 0
0.07017599 -0.04194560 0.07060312 0 0 0 0
0.08958702 -0.06417326 -0.04422945 0 0 0 0
-0.05132542 0.09021749 0.04210130 0 0 0 0
-0.03694027 0.09599234 -0.02736851 0 0 0 0
0.03778285 -0.00321024 -0.09228348 0 0 0 0
-0.01674684 0.08466034 -0.05292127 0 0 0 0
0.01642790 0.09724732 -0.02216248 0 0 0 0
0.09364618 -0.09167013 -0.03374379 0 0 0 0
-0.09217026 0.09969528 -0.00331166 0 0 0 0
0.09943098 -0.07549997 0.00493007 0 0 0 0
-0.09816327 0.00550985 -0.01903959 0 0 0 0
0.05461452 0.09727092 0.02114755 0 0 0 0
-0.06049070 -0.09907592 -0.01085195 0 0 0 0
0.04418882 -0.09965678 -0.00355782 0 0 0 0
0.05268834 -0.08992328 -0.04367477 0 0 0 0
0.00192056 0.09221952 0.03757869 0 0 0 0
-0.09999557 0.01210864 -0.00004597 0 0 0 0
-0.04149748 -0.08763210 0.04794173 0 0 0 0
0.03124527 0.08856926 -0.04542860 0 0 0 0
-0.02974075 0.01416454 0.09534533 0 0 0 0
0.01341257 0.02591543 -0.09627648 0 0 0 0
-0.02881071 0.03724781 -0.09251387 0 0 0 0
-0.04049889 -0.09964852 -0.00185349 0 0 0 0
0.08142430 -0.09259512 0.03673018 0 0 0 0
0.01427442 -0.00694868 -0.09852140 0 0 0 0
0.07042822 -0.00762822 -0.07050630 0 0 0 0
0.03495400 -0.09508713 -0.02982829 0 0 0 0
0.08279865 0.09919169 0.01239204 0 0 0 0
-0.02155303 -0.09967869 -0.00279434 0 0 0 0
0.09439479 -0.07954261 -0.03170960 0 0 0 0
0.02128314 -0.09290935 -0.03679329 0 0 0 0
-0.08936293 -0.02980214 -0.04390728 0 0 0 0
-0.04306870 0.08349355 0.05428755 0 0 0 0
-0.06661184 0.02701540 -0.07401474 0 0 0 0
0.02479564 -0.06160811 0.07866540 0 0 0 0
-0.00529405 0.09995542 -0.00046201 0 0 0 0
-0.02580645 0.07221043 -0.06909740 0 0 0 0
0.09799066 0.01893784 -0.01967266 0 0 0 0
0.05238329 0.06487898 -0.07578249 0 0 0 0
0.09741341 0.06409039 -0.02161759 0 0 0 0
-0.01760550 -0.04748719 -0.08761012 0 0 0 0
0.00680776 -0.01230127 -0.09895308 0 0 0 0
0.09338979 -0.00349961 0.03493501 0 0 0 0
0.05074640 0.02935623 -0.08565839 0 0 0 0
0.02138863 0.08468114 -0.05288141 0 0 0 0
0.03610669 0.05638925 -0.08248040 0 0 0 0
0.07764558 -0.08709096 -0.04834696 0 0 0 0
-0.00654758 -0.06138492 0.07881068 0 0 0 0
-0.06461830 -0.09926654 -0.00760313 0 0 0 0
-0.04453537 -0.09729621 -0.02186010 0 0 0 0
-0.08050466 -0.06545823 -0.05921177 0 0 0 0
0.09705098 -0.05296016 -0.02337693 0 0 0 0
0.06537322 0.04694602 0.07525434 0 0 0 0
-0.04462133 0.09304358 -0.03538125 0 0 0 0
-0.05653309 0.03717881 0.08196887 0 0 0 0
-0.08980896 0.06910334 0.04302419 0 0 0 0
-0.09656097 -0.07301487 0.02425809 0 0 0 0
-0.07979525 0.09201111 -0.03818682 0 0 0 0
0.04990886 -0.06320603 -0.07691415 0 0 0 0
0.07328019 -0.07265226 -0.06736596 0 0 0 0
-0.00179939 0.06990385 -0.07108369 0 0 0 0
-0.04619597 -0.09939121 0.00617002 0 0 0 0
-0.03602458 0.03706894 -0.09262729 0 0 0 0
0.02239192 -0.05890116 -0.08024384 0 0 0 0
0.04460558 0.04000074 0.08932723 0 0 0 0
0.01645638 0.04122096 0.09069751 0 0 0 0
0.06209381 0.09025224 0.04202281 0 0 0 0
-0.09964827 0.06626364 -0.00364600 0 0 0 0
0.02921501 -0.08642105 0.05009077 0 0 0 0
0.02419055 0.07365234 -0.06728931 0 0 0 0
-0.09856836 -0.06921443 0.01546307 0 0 0 0
-0.06380261 0.08119065 -0.05783656 0 0 0 0
0.05573856 0.01495363 -0.08260415 0 0 0 0
0.03023845 0.06805883 0.07265347 0 0 0 0
-0.01587811 -0.06344561 0.07712112 0 0 0 0
-0.02769772 0.06134530 0.07883647 0 0 0 0
-0.08097689 0.08529066 -0.05171306 0 0 0 0
0.00025382 -0.01311780 -0.09867053 0 0 0 0
-0.08398726 0.06733505 -0.05421143 0 0 0 0
0.01409628 -0.00837824 -0.09883784 0 0 0 0
-0.00017440 -0.02346422 -0.09709034 0 0 0 0
-0.09438853 0.09924298 0.01079274 0 0 0 0
-0.05947725 0.06604201 0.07460665 0 0 0 0
-0.06825816 0.05293730 -0.07289578 0 0 0 0
-0.03929941 -0.08657745 -0.04919406 0 0 0 0
0.01418861 0.08328138 0.05459173 0 0 0 0
0.07647764 -0.04320293 -0.06384522 0 0 0 0
0.08296176 -0.01475846 0.05504992 0 0 0 0
-0.04116491 0.06238844 -0.07761017 0 0 0 0
0.06534403 0.06790148 0.07280586 0 0 0 0
0.04596653 -0.01721673 0.08877625 0 0 0 0
0.01841625 -0.02963755 0.09538712 0 0 0 0
-0.08032361 -0.09484112 -0.03049675 0 0 0 0
0.01149042 0.04156364 -0.09083004 0 0 0 0
0.00693668 0.07466339 0.06625731 0 0 0 0
0.05270992 -0.08877289 0.04536465 0 0 0 0
-0.08812837 -0.07367656 0.04682064 0 0 0 0
0.04708871 -0.09562288 0.02836811 0 0 0 0
0.09500254 -0.01773505 -0.03005814 0 0 0 0
-0.00912544 -0.09792077 -0.01799696 0 0 0 0
-0.04429372 -0.06231887 -0.07769314 0 0 0 0
-0.03287929 -0.09935268 -0.00671013 0 0 0 0
-0.09347131 -0.02963310 -0.03421897 0 0 0 0
0.08846182 0.04989159 -0.04608558 0 0 0 0
