ply
format ascii 1.0
comment https://github.com/mikedh/trimesh
element vertex 1119
property float x
property float y
property float z
property uchar red
property uchar green
property uchar blue
property uchar alpha
end_header
-0.01050062 -0.06975685 0.04302958 0 0 0 0
-0.03748144 0.00876098 0.07529059 0 0 0 0
0.05165618 -0.06225885 -0.01004464 0 0 0 0
0.06949279 -0.03141933 -0.02597113 0 0 0 0
0.01759988 0.02907648 -0.07692043 0 0 0 0
0.01938465 0.05668188 -0.05144206 0 0 0 0
0.08438169 0.02151512 0.01357619 0 0 0 0
-0.01379358 -0.06731875 -0.04389115 0 0 0 0
0.03128136 0.01248757 0.07813524 0 0 0 0
-0.03983418 -0.02938418 -0.06001870 0 0 0 0
0.02514252 0.03340337 0.06891291 0 0 0 0
0.06944564 -0.02809144 -0.02978661 0 0 0 0
0.05057074 0.01952008 -0.05786444 0 0 0 0
0.06778039 -0.03146869 -0.02863126 0 0 0 0
0.06819412 0.02717085 -0.03193025 0 0 0 0
0.05583704 -0.05943742 0.00765952 0 0 0 0
0.01421963 -0.06981102 -0.04090306 0 0 0 0
-0.02994993 0.00028898 -0.08421627 0 0 0 0
-0.00240883 0.09862889 0.00045233 0 0 0 0
0.02240348 0.07951739 -0.02032226 0 0 0 0
0.01436222 0.08240921 -0.02378781 0 0 0 0
0.06123388 -0.03879014 -0.02943657 0 0 0 0
0.08099223 0.00892188 0.02967498 0 0 0 0
0.08322256 0.00737171 -0.02788815 0 0 0 0
0.03048355 0.06831449 0.02853888 0 0 0 0
-0.01341492 -0.02831011 -0.07978077 0 0 0 0
-0.07863511 0.01284401 -0.03005112 0 0 0 0
-0.03076790 0.01310557 -0.07857477 0 0 0 0
-0.00797564 -0.06013123 -0.05514986 0 0 0 0
0.00854069 -0.06770296 0.04666571 0 0 0 0
-0.02934675 -0.07557201 -0.01889080 0 0 0 0
-0.03395685 0.01032690 -0.07735579 0 0 0 0
-0.01906625 0.07788055 0.02605521 0 0 0 0
-0.02288931 -0.04604513 0.05929931 0 0 0 0
-0.03248441 0.02836583 -0.06698708 0 0 0 0
-0.00707631 -0.07683727 -0.03631779 0 0 0 0
-0.05763594 -0.02596384 -0.04569728 0 0 0 0
0.01572862 -0.04425109 0.06586944 0 0 0 0
0.02210206 0.07089597 0.03317288 0 0 0 0
0.01275817 -0.01305837 0.08966663 0 0 0 0
-0.04116691 0.02124914 -0.06479041 0 0 0 0
0.00448485 -0.00733819 -0.09641936 0 0 0 0
-0.04342645 0.01354395 -0.06787916 0 0 0 0
0.00119906 -0.07591237 -0.04022841 0 0 0 0
-0.02593113 0.08670039 -0.00085782 0 0 0 0
-0.01667328 -0.01102300 0.08854436 0 0 0 0
-0.03893448 -0.06611133 -0.02232456 0 0 0 0
-0.00482962 0.08442251 0.02724190 0 0 0 0
0.02937852 0.05824739 -0.04190779 0 0 0 0
-0.00197633 0.09768843 0.00558217 0 0 0 0
0.02000904 0.08104358 0.02075609 0 0 0 0
-0.09639027 -0.00090818 0.00813039 0 0 0 0
0.04675064 0.05739558 -0.02459577 0 0 0 0
0.04912672 -0.03850242 -0.04323683 0 0 0 0
-0.08136909 -0.02442749 -0.01511660 0 0 0 0
-0.00808726 -0.08357781 -0.02685421 0 0 0 0
0.01618825 0.08381831 -0.01971430 0 0 0 0
-0.04794642 -0.03592798 -0.04675025 0 0 0 0
0.03167338 0.01373074 -0.07737175 0 0 0 0
-0.04639159 0.05855495 -0.02386597 0 0 0 0
-0.06094049 -0.03261850 0.03580533 0 0 0 0
0.02379547 -0.03697687 -0.06651623 0 0 0 0
0.07626400 -0.01863747 0.02876287 0 0 0 0
0.08661108 -0.01076484 -0.01982071 0 0 0 0
-0.07846363 -0.02025119 -0.02414730 0 0 0 0
0.04920962 0.06490675 0.00951964 0 0 0 0
0.01079607 0.00458179 -0.09450270 0 0 0 0
0.00173283 -0.06876524 -0.04859201 0 0 0 0
0.01881588 0.09099044 -0.00205369 0 0 0 0
-0.00412366 -0.09162370 -0.01625168 0 0 0 0
-0.07339151 0.02408849 -0.02807791 0 0 0 0
-0.01429027 0.08447921 -0.02022778 0 0 0 0
0.03885764 0.04360025 0.04862644 0 0 0 0
-0.05233721 0.04320747 0.03530903 0 0 0 0
-0.05315174 0.06392230 -0.00411218 0 0 0 0
0.06854741 0.04409058 0.01143201 0 0 0 0
-0.01673683 0.08985884 0.00793834 0 0 0 0
0.05577560 -0.02371161 -0.04906712 0 0 0 0
0.02569247 -0.01164566 -0.08260734 0 0 0 0
0.06051393 0.03321106 -0.03548793 0 0 0 0
-0.06571274 -0.03347286 -0.02862655 0 0 0 0
0.03999517 0.06060629 0.02839150 0 0 0 0
0.05689266 -0.04099859 -0.03185769 0 0 0 0
0.06657847 -0.01839349 0.04126865 0 0 0 0
-0.01504589 -0.09137879 -0.00625723 0 0 0 0
-0.02215431 0.03432018 0.07016563 0 0 0 0
0.06382518 0.01072571 -0.04965290 0 0 0 0
0.05477850 0.01039448 -0.05941663 0 0 0 0
0.04211239 -0.02660481 0.06020311 0 0 0 0
0.01888678 -0.08048105 -0.02313659 0 0 0 0
-0.07539253 0.01354182 0.03438742 0 0 0 0
-0.06561599 -0.01170875 0.04705562 0 0 0 0
-0.02151015 0.08728408 0.00711848 0 0 0 0
0.02823078 -0.07386884 -0.02282367 0 0 0 0
-0.02422454 0.07657219 0.02306551 0 0 0 0
0.00304974 0.08228057 -0.03146010 0 0 0 0
0.07061774 0.03537668 -0.01942419 0 0 0 0
-0.04979787 -0.01713204 -0.06001890 0 0 0 0
0.01278408 0.06476618 -0.04764172 0 0 0 0
-0.09031507 -0.00857109 -0.01577917 0 0 0 0
-0.08665717 0.00009238 -0.02590047 0 0 0 0
0.05645972 0.02837152 -0.04478538 0 0 0 0
-0.06056165 -0.04313474 -0.02500940 0 0 0 0
0.07080259 -0.04409179 -0.00680975 0 0 0 0
-0.05171397 -0.01641963 -0.05861946 0 0 0 0
-0.07603097 0.04005145 0.00173504 0 0 0 0
0.02014970 -0.01779836 -0.08271679 0 0 0 0
0.08483219 0.02453872 -0.00891246 0 0 0 0
-0.09028944 -0.00968317 -0.01444956 0 0 0 0
-0.00215751 0.01199288 0.09486825 0 0 0 0
-0.02718487 -0.08049782 -0.01383995 0 0 0 0
0.04091239 -0.01804571 0.06741628 0 0 0 0
-0.05005065 0.06592339 0.00583916 0 0 0 0
0.04435243 0.01816674 -0.06452516 0 0 0 0
0.00210896 0.01850030 0.09122345 0 0 0 0
-0.04715861 -0.06038103 -0.01961733 0 0 0 0
-0.01224831 -0.04911389 -0.06391130 0 0 0 0
0.01664385 -0.05335978 -0.05681849 0 0 0 0
-0.08442130 0.02931223 -0.00206522 0 0 0 0
0.01981181 0.08591291 -0.01261391 0 0 0 0
-0.07422069 -0.03470476 -0.01498825 0 0 0 0
-0.06063052 0.05656308 -0.00420024 0 0 0 0
-0.04970879 0.02358572 -0.05535276 0 0 0 0
-0.06152644 0.01910516 0.04645683 0 0 0 0
-0.01263564 0.09142575 -0.00955602 0 0 0 0
-0.04252955 0.02415390 -0.06181161 0 0 0 0
-0.05991257 -0.03245434 -0.03688730 0 0 0 0
-0.02730550 0.02388127 -0.07404231 0 0 0 0
-0.03973696 0.00837614 -0.07409306 0 0 0 0
-0.05312914 -0.02626350 -0.05005088 0 0 0 0
-0.02627855 -0.01286920 -0.08165701 0 0 0 0
0.03007743 -0.06758160 -0.03020000 0 0 0 0
-0.04203498 0.06956841 -0.01320044 0 0 0 0
-0.05301951 -0.05037456 -0.02621255 0 0 0 0
0.02079098 0.05340167 -0.05382774 0 0 0 0
-0.01635616 -0.02298547 -0.08184679 0 0 0 0
-0.03125248 0.00006565 -0.08329295 0 0 0 0
-0.06204280 0.01101071 0.05170374 0 0 0 0
-0.03161274 -0.07209871 -0.02177261 0 0 0 0
0.07636393 0.03334483 0.01258769 0 0 0 0
-0.00312817 -0.08819502 0.02283592 0 0 0 0
-0.04237917 0.06909842 0.01263594 0 0 0 0
0.01925655 0.04971782 0.05842986 0 0 0 0
0.08327240 -0.02440137 0.01172417 0 0 0 0
-0.05608495 -0.04045071 -0.03340847 0 0 0 0
0.00805933 0.05576269 0.05947202 0 0 0 0
0.03698397 -0.02556729 0.06534983 0 0 0 0
0.03268923 0.06575240 -0.02979796 0 0 0 0
-0.02015242 -0.07241014 -0.03272919 0 0 0 0
-0.00040566 0.05613146 0.06210738 0 0 0 0
-0.06655125 -0.03480606 -0.02673516 0 0 0 0
-0.04708747 0.06876361 -0.00511497 0 0 0 0
0.03981078 0.03268446 -0.05725194 0 0 0 0
0.08765927 -0.00494106 -0.02276733 0 0 0 0
0.08624741 0.01014599 -0.02095450 0 0 0 0
0.07305581 -0.01886824 -0.03291082 0 0 0 0
-0.09217503 -0.01532185 -0.00431176 0 0 0 0
0.02602830 -0.02356240 -0.07541131 0 0 0 0
-0.01923866 -0.04195533 0.06573456 0 0 0 0
0.06967511 -0.03456935 -0.02194600 0 0 0 0
0.04415880 -0.03988636 0.04680689 0 0 0 0
0.04035648 0.03933360 -0.05099221 0 0 0 0
-0.07749780 -0.02812983 -0.01717688 0 0 0 0
-0.07735527 -0.00063344 -0.03878823 0 0 0 0
0.03520906 0.01653741 -0.07303528 0 0 0 0
-0.00118202 0.01747512 0.09213520 0 0 0 0
-0.03448714 0.05520960 -0.04053185 0 0 0 0
0.06823649 0.03896088 0.01916593 0 0 0 0
0.03210887 0.07565443 -0.01581007 0 0 0 0
-0.07190284 -0.00680242 -0.04301072 0 0 0 0
0.05506038 -0.06054251 0.00752009 0 0 0 0
0.03040716 -0.08122525 -0.00778399 0 0 0 0
0.06692819 0.03718729 0.02310250 0 0 0 0
0.05053321 0.04201185 0.03821231 0 0 0 0
-0.02349455 0.08069953 -0.01728508 0 0 0 0
0.03157641 -0.04661844 0.05239987 0 0 0 0
0.01400061 -0.02835387 -0.07942428 0 0 0 0
-0.02907709 -0.07850970 -0.01478016 0 0 0 0
-0.07206472 0.02168211 -0.03196194 0 0 0 0
-0.03779919 -0.05335389 0.03952114 0 0 0 0
-0.00320189 0.06946789 -0.04761519 0 0 0 0
0.02938924 -0.07939141 -0.01296270 0 0 0 0
0.06416257 0.03149038 -0.03272225 0 0 0 0
-0.02688938 -0.07307492 -0.02556405 0 0 0 0
0.06584926 -0.00481678 0.05083441 0 0 0 0
-0.03352353 0.03351361 -0.06205447 0 0 0 0
-0.00206032 0.03092901 -0.08308570 0 0 0 0
-0.04087813 0.05295252 0.03686845 0 0 0 0
0.08708533 0.01444413 0.01595436 0 0 0 0
0.00508036 -0.09595148 -0.00729124 0 0 0 0
0.03099847 -0.03793301 0.06024544 0 0 0 0
0.09605143 0.00467125 -0.00734469 0 0 0 0
-0.01115367 -0.05346267 -0.06010276 0 0 0 0
0.01820635 0.04118457 0.06706886 0 0 0 0
0.00351150 -0.05688448 -0.06073234 0 0 0 0
-0.01760525 -0.08047686 -0.02394921 0 0 0 0
-0.00006067 0.05781087 0.06057255 0 0 0 0
0.00305937 0.07613363 -0.03949986 0 0 0 0
0.01441682 -0.05998880 -0.05138572 0 0 0 0
-0.03566859 -0.00412309 -0.07910138 0 0 0 0
0.06505918 0.01564498 -0.04539872 0 0 0 0
-0.01204556 -0.02903109 -0.08026607 0 0 0 0
0.07854559 -0.00164963 -0.03723065 0 0 0 0
0.01009592 0.04995935 0.06392057 0 0 0 0
-0.06057198 0.04916146 0.01708832 0 0 0 0
0.08989951 0.01004905 -0.01492758 0 0 0 0
0.02407332 0.03164283 -0.07057985 0 0 0 0
0.06850408 -0.03886601 -0.01833218 0 0 0 0
0.00085717 -0.05623966 -0.06198255 0 0 0 0
-0.01478554 -0.06567279 0.04490636 0 0 0 0
-0.07453178 -0.03002230 0.02009920 0 0 0 0
-0.01078168 -0.03738366 0.07446559 0 0 0 0
0.05871469 -0.00590835 0.05758188 0 0 0 0
0.00761410 0.01608092 0.09052386 0 0 0 0
0.06089421 0.00750510 -0.05471725 0 0 0 0
0.00794644 -0.01488016 -0.09130656 0 0 0 0
-0.02479622 0.04837582 -0.05574648 0 0 0 0
0.03242833 -0.03141150 -0.06465045 0 0 0 0
0.09300610 -0.01107655 -0.00775102 0 0 0 0
-0.00698285 0.00469342 -0.09626092 0 0 0 0
0.01613164 -0.03604756 -0.07268406 0 0 0 0
0.01009117 0.08964970 0.01538043 0 0 0 0
0.09534263 -0.00926771 -0.00370566 0 0 0 0
0.04007990 -0.07315443 -0.00897442 0 0 0 0
0.07354330 -0.01636526 0.03460479 0 0 0 0
-0.03344866 -0.00142707 0.08155246 0 0 0 0
0.08102928 0.00697678 -0.03115994 0 0 0 0
0.04289139 -0.01398339 -0.06806398 0 0 0 0
-0.00334826 0.03236913 0.08178475 0 0 0 0
0.02413832 -0.00218793 0.08763571 0 0 0 0
-0.06459848 -0.03470737 -0.02878573 0 0 0 0
0.07538205 -0.02335663 0.02550513 0 0 0 0
0.02571599 -0.08671813 -0.00094861 0 0 0 0
0.01734006 -0.04568701 0.06347426 0 0 0 0
-0.01643613 -0.08227921 -0.02172239 0 0 0 0
-0.03817006 0.01507711 -0.07127275 0 0 0 0
-0.03464172 0.07720210 -0.00958477 0 0 0 0
-0.08866517 -0.02170926 0.00347496 0 0 0 0
-0.02183170 -0.04236758 0.06345260 0 0 0 0
0.03725583 0.03966664 0.05377563 0 0 0 0
-0.04247580 -0.01773036 0.06632461 0 0 0 0
0.01080054 0.01475092 -0.08997823 0 0 0 0
0.04621844 0.03030129 -0.05341566 0 0 0 0
-0.09525757 0.01067199 -0.00215455 0 0 0 0
-0.07711683 -0.01323054 -0.03212016 0 0 0 0
0.03418034 0.05230740 -0.04402871 0 0 0 0
0.06416446 -0.05339676 0.00140460 0 0 0 0
0.03346049 0.02179948 -0.07087459 0 0 0 0
0.02250056 0.01687568 -0.08185042 0 0 0 0
-0.01493680 -0.00921257 0.09045870 0 0 0 0
-0.04049495 -0.06028172 -0.02830628 0 0 0 0
-0.00876478 0.07462642 -0.03847361 0 0 0 0
-0.07446074 0.02539243 -0.02502556 0 0 0 0
0.01279187 0.06263091 -0.04957652 0 0 0 0
0.04873482 0.05266691 -0.02861558 0 0 0 0
-0.04220808 -0.05497671 0.03301436 0 0 0 0
0.03815929 -0.07267292 0.01262311 0 0 0 0
0.09150098 0.00781476 -0.01451602 0 0 0 0
0.04356920 -0.05476344 -0.03180083 0 0 0 0
-0.04020775 0.05245424 0.03797353 0 0 0 0
-0.03598215 0.05663305 -0.03756669 0 0 0 0
-0.01867164 0.07497670 -0.03048502 0 0 0 0
-0.03005754 0.07615560 -0.01720037 0 0 0 0
-0.08193952 0.03185400 -0.00254856 0 0 0 0
-0.06979682 0.04055168 -0.01454349 0 0 0 0
-0.03894294 0.06584554 -0.02227786 0 0 0 0
-0.06238129 0.01964222 -0.04548729 0 0 0 0
0.02285116 0.01743387 -0.08132675 0 0 0 0
-0.02682920 -0.08409998 -0.00616465 0 0 0 0
-0.08213594 0.02314281 -0.01563489 0 0 0 0
-0.03836602 -0.00118619 0.07758798 0 0 0 0
-0.01581251 0.07020210 -0.03911276 0 0 0 0
-0.07516868 -0.02139783 -0.02788947 0 0 0 0
0.04060084 0.04834608 -0.04215386 0 0 0 0
-0.08205543 0.01485927 -0.02355800 0 0 0 0
-0.01022814 0.00675305 -0.09393989 0 0 0 0
0.00193824 0.08998285 -0.02005853 0 0 0 0
-0.04805316 0.06502107 -0.01138347 0 0 0 0
0.06922679 -0.03272618 -0.02491605 0 0 0 0
0.07026762 0.01186082 -0.04169983 0 0 0 0
0.06998380 0.03804212 -0.01754004 0 0 0 0
-0.02380748 -0.03843634 -0.06540301 0 0 0 0
-0.01542589 -0.08215520 0.02304627 0 0 0 0
0.07453986 0.03957482 -0.00761203 0 0 0 0
-0.04834361 -0.05820345 -0.02155839 0 0 0 0
0.01177264 -0.09155054 -0.01009268 0 0 0 0
-0.04358988 -0.00685248 -0.07138351 0 0 0 0
-0.06745908 -0.02847683 -0.03138065 0 0 0 0
0.06375055 -0.04576073 -0.01657455 0 0 0 0
0.03394454 0.06871670 -0.02403604 0 0 0 0
-0.07779271 -0.00503955 0.03663273 0 0 0 0
-0.01168199 -0.02590362 -0.08239038 0 0 0 0
0.06902794 0.02755192 -0.03074346 0 0 0 0
0.04910259 -0.03281224 -0.04858023 0 0 0 0
-0.04250525 -0.06408292 -0.02059667 0 0 0 0
-0.09029471 0.00787340 -0.01579088 0 0 0 0
-0.01501460 0.06426121 -0.04638719 0 0 0 0
-0.07507201 -0.02490240 0.02446849 0 0 0 0
-0.03652186 0.03696096 -0.05683943 0 0 0 0
-0.06253213 0.04996558 0.01225052 0 0 0 0
-0.00532844 -0.00943446 -0.09486936 0 0 0 0
0.03190894 -0.05607270 -0.04190711 0 0 0 0
-0.09497996 -0.01095483 0.00189205 0 0 0 0
-0.05548667 -0.05907471 -0.00898503 0 0 0 0
0.05377226 0.01220061 0.05914022 0 0 0 0
-0.04768785 -0.06093030 0.01855254 0 0 0 0
-0.03994871 -0.03376063 -0.05660903 0 0 0 0
-0.03374822 -0.01171846 0.07667809 0 0 0 0
0.02347012 0.07403088 0.02733675 0 0 0 0
-0.05423200 0.04870853 -0.02631160 0 0 0 0
0.08593015 -0.00525267 0.02472596 0 0 0 0
-0.06775811 0.01660212 -0.04123228 0 0 0 0
0.05155510 0.04689512 -0.03148371 0 0 0 0
-0.09727211 0.00574446 -0.00313377 0 0 0 0
0.04550248 0.06177897 -0.01988159 0 0 0 0
-0.06896631 -0.04679808 0.00607520 0 0 0 0
-0.01646477 -0.09252624 -0.00129859 0 0 0 0
0.05755349 0.00241933 0.06017126 0 0 0 0
0.09342180 0.00335319 -0.01345562 0 0 0 0
-0.05473607 0.02972984 -0.04527615 0 0 0 0
0.07856929 0.03618582 -0.00364844 0 0 0 0
0.03000676 -0.07557209 0.01855578 0 0 0 0
-0.02693636 -0.01451786 -0.08035645 0 0 0 0
-0.02585199 -0.03418493 -0.06735714 0 0 0 0
-0.01404961 0.02681810 0.08062327 0 0 0 0
0.02248280 -0.08313408 -0.01473288 0 0 0 0
-0.01892711 -0.01425430 -0.08551103 0 0 0 0
0.05802630 0.04758892 0.02258307 0 0 0 0
0.00059583 -0.02174717 -0.08977307 0 0 0 0
-0.06806324 -0.03447441 0.02460884 0 0 0 0
-0.05427704 0.01319965 -0.05815740 0 0 0 0
0.03390074 0.07888393 -0.00731798 0 0 0 0
-0.06852511 -0.04848190 -0.00238153 0 0 0 0
-0.08798400 -0.00531766 -0.02175409 0 0 0 0
0.00637537 0.03313270 0.07987431 0 0 0 0
-0.00836748 -0.08433472 -0.02537864 0 0 0 0
-0.06087210 -0.00424105 -0.05643133 0 0 0 0
-0.00544841 -0.08502886 -0.02627516 0 0 0 0
-0.00669068 0.02270849 0.08698006 0 0 0 0
-0.00762062 -0.06747659 -0.04762613 0 0 0 0
-0.09167573 0.00494428 0.01592707 0 0 0 0
-0.08105648 0.01769342 -0.02248523 0 0 0 0
-0.05049140 -0.03803480 -0.04239072 0 0 0 0
0.02276348 0.07910395 -0.02130086 0 0 0 0
0.00724059 -0.03157839 -0.08052582 0 0 0 0
-0.03794383 0.06774001 0.02118129 0 0 0 0
-0.01735320 0.05599295 -0.05370786 0 0 0 0
-0.03674676 0.03533437 -0.05809576 0 0 0 0
-0.03696824 0.01693981 -0.07118922 0 0 0 0
-0.08381675 0.01067488 -0.02456615 0 0 0 0
0.01533159 0.00528432 -0.09207393 0 0 0 0
-0.02876326 -0.03026422 -0.06831067 0 0 0 0
0.08224781 -0.02419551 0.01400727 0 0 0 0
0.02380940 -0.03958507 -0.06475394 0 0 0 0
-0.00571608 -0.01608743 -0.09152919 0 0 0 0
-0.05167675 0.02357848 0.05375328 0 0 0 0
-0.08282476 0.03106841 -0.00218965 0 0 0 0
-0.02860180 -0.04291244 0.05792050 0 0 0 0
-0.02688576 0.08210371 -0.01090377 0 0 0 0
0.02864036 -0.01057534 0.08120422 0 0 0 0
-0.03316144 0.01860541 0.07318053 0 0 0 0
-0.03522097 -0.03493342 -0.05962380 0 0 0 0
-0.02949638 0.00690539 0.08249418 0 0 0 0
-0.01671812 0.07737030 -0.02882455 0 0 0 0
0.04843225 -0.05312282 0.02808712 0 0 0 0
0.00449135 -0.00882834 0.09553759 0 0 0 0
0.02914347 0.00480898 -0.08337618 0 0 0 0
0.03200665 -0.08089907 -0.00567582 0 0 0 0
0.05877734 -0.02646528 -0.04387423 0 0 0 0
-0.04766342 0.06790275 -0.00695289 0 0 0 0
-0.08800988 -0.02276413 0.00316588 0 0 0 0
-0.01227313 0.05005788 0.06261504 0 0 0 0
-0.02427655 0.06560712 0.03772014 0 0 0 0
-0.06894048 0.00605134 0.04654706 0 0 0 0
-0.00926190 -0.09490513 -0.00495269 0 0 0 0
-0.05293534 0.02986218 -0.04735336 0 0 0 0
0.03595349 0.05958337 0.03423505 0 0 0 0
-0.05787074 -0.05174322 0.01785112 0 0 0 0
0.01051712 -0.04397610 -0.06914602 0 0 0 0
-0.05148052 0.02873883 -0.04945897 0 0 0 0
0.05833946 -0.03198101 -0.03957557 0 0 0 0
-0.06215966 0.04064212 0.02534120 0 0 0 0
0.01059833 -0.06767140 0.04540204 0 0 0 0
-0.01931882 -0.03353711 -0.07257478 0 0 0 0
-0.01682617 0.08834600 0.01098069 0 0 0 0
0.00259151 0.08003505 0.03491468 0 0 0 0
0.00400515 -0.03836385 -0.07685439 0 0 0 0
0.05628162 0.01513307 -0.05491210 0 0 0 0
0.05112956 -0.06275382 0.00979237 0 0 0 0
-0.04563738 0.07208807 -0.00002207 0 0 0 0
0.07806146 -0.03072673 -0.01313343 0 0 0 0
0.08293013 -0.02251763 0.01469039 0 0 0 0
-0.05745248 -0.01200609 0.05578835 0 0 0 0
0.00481753 0.09479569 -0.00982670 0 0 0 0
-0.04923918 -0.02287962 -0.05652839 0 0 0 0
0.02541712 0.07998259 -0.01644760 0 0 0 0
0.06881048 0.02925864 -0.02921481 0 0 0 0
-0.02275946 0.05317287 -0.05260422 0 0 0 0
-0.00869517 0.00940351 0.09381229 0 0 0 0
0.04347489 -0.05400101 0.03290273 0 0 0 0
0.00091915 0.04269957 0.07416419 0 0 0 0
0.00107778 -0.09154712 -0.01785661 0 0 0 0
0.00841076 -0.09387567 0.00849472 0 0 0 0
-0.03862772 -0.04645177 -0.04629416 0 0 0 0
0.06145666 0.03747523 -0.02992767 0 0 0 0
0.04573533 -0.06404428 -0.01606472 0 0 0 0
-0.01661168 -0.02130416 -0.08269086 0 0 0 0
0.07264515 -0.03341950 -0.01907717 0 0 0 0
-0.05880672 -0.05291150 0.01426587 0 0 0 0
0.01568724 0.04715764 -0.06361806 0 0 0 0
0.06950376 -0.02862119 0.02891389 0 0 0 0
0.08359205 -0.02744205 -0.00687940 0 0 0 0
0.00759575 -0.08929382 -0.01776752 0 0 0 0
-0.01750851 -0.08596440 -0.01447629 0 0 0 0
0.04622181 -0.07037587 -0.00313913 0 0 0 0
0.01847421 0.08858265 -0.00893715 0 0 0 0
0.06798222 -0.01647997 0.04099002 0 0 0 0
0.00251873 0.02283071 0.08836363 0 0 0 0
-0.06468020 0.04375760 -0.01822764 0 0 0 0
0.02209946 0.01763423 -0.08155364 0 0 0 0
-0.02449941 0.04073081 0.06288634 0 0 0 0
0.04166409 0.00957699 0.07168616 0 0 0 0
-0.04625540 0.01649842 0.06361134 0 0 0 0
0.05740490 0.02888891 -0.04323872 0 0 0 0
-0.07858987 0.01169610 -0.03122301 0 0 0 0
-0.04611274 -0.02582883 -0.05732466 0 0 0 0
-0.04536559 0.05053524 -0.03451645 0 0 0 0
0.05523068 0.02603081 -0.04787296 0 0 0 0
0.00222593 0.09211717 0.01694746 0 0 0 0
-0.00331233 0.04045784 0.07529631 0 0 0 0
0.04448384 0.05064233 -0.03566119 0 0 0 0
-0.00031680 0.03392454 0.08129863 0 0 0 0
-0.05857179 -0.05294808 -0.01404495 0 0 0 0
-0.01983933 -0.04955947 0.05817229 0 0 0 0
-0.01696996 0.05376974 0.05614104 0 0 0 0
-0.04945987 0.03719696 -0.04406186 0 0 0 0
0.07536288 -0.03671338 -0.00979902 0 0 0 0
-0.07462148 -0.03481092 -0.01419950 0 0 0 0
-0.01040875 -0.02268263 -0.08532943 0 0 0 0
0.03773203 0.05163411 -0.04144340 0 0 0 0
-0.02430335 -0.04862394 0.05603414 0 0 0 0
0.03955378 -0.03369261 0.05679999 0 0 0 0
-0.01156787 -0.00240247 -0.09502772 0 0 0 0
0.04118845 0.07378121 0.00603318 0 0 0 0
0.01770432 0.03577353 0.07184118 0 0 0 0
-0.07891203 -0.02205181 -0.02211201 0 0 0 0
0.00013109 0.07555477 -0.04118855 0 0 0 0
-0.01079071 0.04717044 -0.06617179 0 0 0 0
-0.02740798 -0.07654990 -0.02011758 0 0 0 0
-0.06665867 -0.01436518 -0.04448002 0 0 0 0
0.03529882 0.02141452 -0.06960896 0 0 0 0
-0.00728328 -0.03317806 -0.07933872 0 0 0 0
-0.04039531 -0.07210319 -0.01041783 0 0 0 0
-0.06736717 -0.03106381 -0.02950753 0 0 0 0
0.05779282 0.01032791 -0.05642863 0 0 0 0
0.04708351 0.05096723 -0.03195586 0 0 0 0
0.03047923 -0.00518312 0.08251300 0 0 0 0
-0.04738419 0.03296286 -0.05002476 0 0 0 0
0.07528470 0.03905005 0.00660949 0 0 0 0
-0.05895998 -0.02228669 -0.04723559 0 0 0 0
-0.01937593 -0.01955016 0.08238588 0 0 0 0
0.04014474 0.04657105 -0.04422965 0 0 0 0
-0.07430981 -0.04105501 -0.00397356 0 0 0 0
-0.04746077 -0.06501986 -0.01242342 0 0 0 0
0.04843808 -0.05779027 -0.02202438 0 0 0 0
0.04105273 -0.02339986 -0.06383099 0 0 0 0
-0.08314009 0.01128834 0.02517577 0 0 0 0
-0.07897770 -0.02864803 0.01431943 0 0 0 0
0.00685278 -0.00235586 -0.09716143 0 0 0 0
0.05981847 -0.03041467 -0.03889157 0 0 0 0
0.06377493 -0.02897125 -0.03552074 0 0 0 0
0.01755894 0.07078418 -0.03701902 0 0 0 0
-0.06135216 0.04258813 -0.02420495 0 0 0 0
-0.03773850 0.02345407 -0.06613392 0 0 0 0
0.00007583 0.06366061 -0.05473110 0 0 0 0
0.01271267 -0.04930767 0.06301052 0 0 0 0
0.03017288 0.01178476 0.07942695 0 0 0 0
-0.06427382 -0.00889612 -0.05029310 0 0 0 0
0.03408835 -0.06450292 -0.02968514 0 0 0 0
0.07442939 0.03466338 -0.01431675 0 0 0 0
-0.03373590 -0.04428649 0.05272532 0 0 0 0
0.02234353 -0.06517193 -0.04031704 0 0 0 0
-0.01694732 -0.01480038 -0.08664722 0 0 0 0
0.06924993 0.01718820 -0.03956741 0 0 0 0
0.01276586 0.07379425 0.03700950 0 0 0 0
0.01084724 -0.09484452 -0.00287050 0 0 0 0
0.00482133 0.07447349 -0.04119018 0 0 0 0
-0.07504064 0.00759207 -0.03839972 0 0 0 0
-0.04043724 -0.06358720 -0.02367538 0 0 0 0
0.08025617 0.02329954 0.01872767 0 0 0 0
-0.04478919 -0.01224629 -0.06733638 0 0 0 0
0.06690527 0.04854417 -0.00661923 0 0 0 0
-0.01549508 -0.00950422 0.08999391 0 0 0 0
-0.07555212 0.03810776 0.00742192 0 0 0 0
0.07853080 0.02206480 0.02249421 0 0 0 0
-0.01425997 0.09352016 0.00134344 0 0 0 0
0.03895796 0.07659744 -0.00298248 0 0 0 0
-0.07493118 -0.00763745 -0.03841985 0 0 0 0
-0.00475691 -0.05391223 0.06287096 0 0 0 0
-0.03437690 -0.07018833 -0.02209838 0 0 0 0
0.00081325 -0.06881191 -0.04873253 0 0 0 0
0.02680213 0.01571901 -0.07957029 0 0 0 0
-0.02459565 0.08575090 -0.00584763 0 0 0 0
0.01594085 0.00995590 0.08952189 0 0 0 0
-0.07815869 -0.01020416 -0.03304805 0 0 0 0
0.08016063 0.00442605 0.03394642 0 0 0 0
-0.09764306 -0.00027697 -0.00687756 0 0 0 0
0.07622980 -0.00095199 -0.04049619 0 0 0 0
-0.04538245 -0.05726177 0.02634753 0 0 0 0
0.05346138 -0.00211651 -0.06425462 0 0 0 0
-0.02003184 0.07799275 0.02509124 0 0 0 0
-0.06790889 -0.02831168 -0.03127698 0 0 0 0
0.04103402 0.01436820 -0.06938434 0 0 0 0
0.01280080 -0.00018081 -0.09475185 0 0 0 0
-0.03122481 -0.03466122 0.06298317 0 0 0 0
-0.05553745 -0.01433573 -0.05628190 0 0 0 0
0.00786209 -0.05586194 -0.05963285 0 0 0 0
-0.04344922 0.00686511 -0.07148109 0 0 0 0
0.07035346 0.00899967 -0.04338030 0 0 0 0
0.02704011 -0.06188948 -0.03953950 0 0 0 0
-0.02063282 0.05605946 0.05170625 0 0 0 0
-0.04718379 -0.06722478 -0.00886779 0 0 0 0
-0.05024545 -0.02515377 -0.05381485 0 0 0 0
-0.05540206 -0.03400026 0.04078218 0 0 0 0
0.02268453 -0.04885680 0.05702279 0 0 0 0
-0.01996114 -0.08979047 -0.00296501 0 0 0 0
0.03164037 -0.02135052 0.07264080 0 0 0 0
0.00264740 0.00612836 0.09724843 0 0 0 0
0.03437401 0.04442244 -0.05158081 0 0 0 0
0.02566950 -0.07807509 -0.01922018 0 0 0 0
-0.05255608 0.00868320 0.06228235 0 0 0 0
-0.01253478 -0.09179347 -0.00877120 0 0 0 0
-0.00540519 0.00371650 0.09718536 0 0 0 0
-0.05843929 0.03832050 -0.03311674 0 0 0 0
0.04679455 -0.05919328 -0.02249777 0 0 0 0
-0.07066829 0.03108818 -0.02471641 0 0 0 0
-0.06497167 -0.00290508 -0.05252972 0 0 0 0
0.05567902 0.05523233 -0.01543444 0 0 0 0
0.03818955 -0.06477662 -0.02480991 0 0 0 0
0.07017808 0.03305246 0.02308298 0 0 0 0
0.03741112 -0.06685524 -0.02262074 0 0 0 0
-0.06253313 0.00588790 -0.05388840 0 0 0 0
0.08446286 -0.02497238 0.00827262 0 0 0 0
0.06778426 0.02459159 -0.03459965 0 0 0 0
0.08277623 0.02896007 -0.00630836 0 0 0 0
0.08285806 -0.01054888 0.02608322 0 0 0 0
-0.04721326 0.03928042 -0.04444457 0 0 0 0
0.06735281 0.04282311 -0.01511265 0 0 0 0
-0.07507980 0.03284806 -0.01602256 0 0 0 0
0.01189219 0.05777960 -0.05523891 0 0 0 0
0.04447249 0.00218548 -0.07260509 0 0 0 0
0.05673004 -0.03560439 -0.03801797 0 0 0 0
0.03977947 0.06087652 -0.02872032 0 0 0 0
-0.04285664 -0.04118647 -0.04736200 0 0 0 0
-0.00213435 -0.02513572 -0.08703195 0 0 0 0
0.01705173 -0.09260313 -0.00019329 0 0 0 0
-0.03620347 0.06207988 -0.03042394 0 0 0 0
0.03196664 0.07212427 0.02162457 0 0 0 0
-0.00823673 0.02697575 -0.08337849 0 0 0 0
0.02507984 0.06649341 -0.03588822 0 0 0 0
-0.05427656 0.03423379 0.04158276 0 0 0 0
0.05066186 -0.06670400 0.00075430 0 0 0 0
0.01693956 0.06816605 0.04053594 0 0 0 0
-0.00143785 -0.05620717 -0.06192242 0 0 0 0
0.07365622 0.00021867 0.04303527 0 0 0 0
-0.02707152 0.02491379 -0.07382770 0 0 0 0
-0.09413999 0.00294525 -0.01281504 0 0 0 0
0.01519764 0.02011145 0.08448210 0 0 0 0
0.05288150 -0.02361834 -0.05231921 0 0 0 0
-0.04259001 -0.02159495 -0.06334125 0 0 0 0
-0.05063806 -0.03764986 0.04223761 0 0 0 0
0.05818548 0.03295936 -0.03856157 0 0 0 0
0.05272447 0.04909646 0.02749839 0 0 0 0
0.01597140 -0.08446313 -0.01874438 0 0 0 0
0.01021067 -0.05364999 -0.06046977 0 0 0 0
-0.05029697 -0.05753271 -0.01974722 0 0 0 0
0.06493954 0.04976217 -0.00818448 0 0 0 0
-0.00704595 0.04499464 -0.07006910 0 0 0 0
-0.07844877 0.03103193 -0.01236653 0 0 0 0
0.08159201 0.03245438 -0.00292932 0 0 0 0
-0.01662294 0.02617005 -0.07971413 0 0 0 0
-0.07557808 0.02689109 -0.02194417 0 0 0 0
-0.03938033 0.02919044 0.06048426 0 0 0 0
0.00145710 0.05016385 -0.06754714 0 0 0 0
-0.06231771 -0.02928067 -0.03717197 0 0 0 0
0.00710473 0.07669147 -0.03660305 0 0 0 0
0.00382154 0.02284574 0.08797134 0 0 0 0
-0.06854884 -0.00694341 -0.04655175 0 0 0 0
0.07191494 0.04199672 -0.00865675 0 0 0 0
-0.03907930 0.05915946 -0.03109951 0 0 0 0
0.04340647 -0.03385942 -0.05303425 0 0 0 0
-0.01759366 -0.02678284 -0.07845522 0 0 0 0
0.04514302 -0.05877493 0.02446815 0 0 0 0
-0.07041433 0.03616559 -0.01897072 0 0 0 0
-0.04648960 0.03082480 0.05294992 0 0 0 0
0.08983426 0.00580690 -0.01842478 0 0 0 0
-0.02553389 0.08210941 -0.01231164 0 0 0 0
0.03505850 -0.07931105 -0.00323686 0 0 0 0
0.04649029 0.06518213 -0.01365558 0 0 0 0
-0.00549085 -0.07136631 0.04399571 0 0 0 0
-0.01711021 -0.04338445 -0.06561160 0 0 0 0
0.07728621 -0.03711044 -0.00485646 0 0 0 0
-0.00862311 0.03989740 -0.07344385 0 0 0 0
-0.01338706 -0.06140874 -0.05065405 0 0 0 0
0.00840580 -0.08361512 -0.02654362 0 0 0 0
-0.04731820 -0.06951322 -0.00324009 0 0 0 0
-0.06311120 -0.05179427 0.00817324 0 0 0 0
0.00805164 0.05550445 -0.05978784 0 0 0 0
-0.08067865 0.01712061 -0.02409821 0 0 0 0
-0.05488704 -0.00598979 -0.06149445 0 0 0 0
0.07773804 -0.03752279 -0.00228685 0 0 0 0
-0.04245663 -0.01661326 -0.06691358 0 0 0 0
0.01037656 -0.07678626 -0.03452102 0 0 0 0
0.01689475 0.08448362 -0.01804540 0 0 0 0
0.02067425 -0.01657167 0.08345972 0 0 0 0
0.04615051 0.03540456 0.04935372 0 0 0 0
-0.01634300 -0.05223667 -0.05832832 0 0 0 0
-0.01234866 -0.01450922 -0.08930009 0 0 0 0
0.09001563 -0.01875000 -0.00457923 0 0 0 0
-0.03240294 0.07666627 -0.01348349 0 0 0 0
-0.05030628 0.06408425 0.00875466 0 0 0 0
-0.02518671 0.06661373 0.03585242 0 0 0 0
-0.07615450 -0.02334435 -0.02469563 0 0 0 0
-0.01012326 0.00203708 0.09570945 0 0 0 0
-0.05994261 -0.05804100 -0.00055697 0 0 0 0
-0.00821282 -0.02057549 -0.08786048 0 0 0 0
-0.07365458 0.02283867 0.02848779 0 0 0 0
0.06392287 0.04045395 -0.02394398 0 0 0 0
-0.08407570 -0.01125436 0.02344180 0 0 0 0
0.02930130 -0.07288904 -0.02350111 0 0 0 0
-0.07452190 0.02956145 0.02079089 0 0 0 0
0.00370800 -0.04831821 0.06874914 0 0 0 0
-0.01022699 0.04321779 0.07018940 0 0 0 0
-0.01766126 -0.05296616 0.05653358 0 0 0 0
-0.08246951 -0.00278334 -0.03118617 0 0 0 0
0.00647908 0.06393176 -0.05190368 0 0 0 0
0.07382067 0.02903686 -0.02239169 0 0 0 0
-0.06365861 0.00403408 -0.05334506 0 0 0 0
-0.03674914 0.04252052 -0.05131433 0 0 0 0
0.03348546 -0.07460950 0.01582131 0 0 0 0
-0.09386436 -0.00640263 0.01003848 0 0 0 0
-0.02439770 0.01083392 -0.08389954 0 0 0 0
0.01610795 0.06556667 0.04405436 0 0 0 0
-0.05146443 -0.05766556 0.01826271 0 0 0 0
0.06526541 0.02818761 0.03486150 0 0 0 0
0.01882224 -0.07614871 -0.02918364 0 0 0 0
0.03401965 -0.02990523 0.06455451 0 0 0 0
-0.05606060 -0.03968120 0.03471389 0 0 0 0
-0.08450975 0.02954863 -0.00071721 0 0 0 0
0.07483235 0.00968651 0.03748962 0 0 0 0
0.03553106 -0.03728558 -0.05705711 0 0 0 0
-0.00752692 0.08402865 0.02629453 0 0 0 0
-0.03308192 0.04206608 -0.05494219 0 0 0 0
-0.02741058 0.08301507 0.00820637 0 0 0 0
-0.02897305 0.07401340 -0.02258378 0 0 0 0
0.00217806 -0.08036728 -0.03448213 0 0 0 0
-0.00207436 0.09380119 -0.01370846 0 0 0 0
-0.02633481 0.04668284 -0.05605571 0 0 0 0
-0.02851206 0.06240214 -0.03813037 0 0 0 0
-0.00212892 0.05213976 0.06566352 0 0 0 0
-0.08272021 -0.02709051 -0.00990611 0 0 0 0
0.01396849 0.05837452 -0.05335278 0 0 0 0
-0.03675859 -0.07089630 -0.01751667 0 0 0 0
0.01822831 0.08856578 -0.00908762 0 0 0 0
0.06247278 0.05157926 -0.00992083 0 0 0 0
-0.05671446 0.05873791 -0.00748742 0 0 0 0
0.01050559 0.07896077 -0.03129376 0 0 0 0
-0.01668003 -0.00588911 0.09092973 0 0 0 0
0.01166291 0.07625647 -0.03445779 0 0 0 0
0.00317561 -0.09050077 0.01904699 0 0 0 0
-0.01630831 0.07905377 -0.02702201 0 0 0 0
-0.03813150 -0.06345882 -0.02664206 0 0 0 0
0.07632226 -0.02368784 -0.02391151 0 0 0 0
-0.01812984 0.00550490 -0.09024065 0 0 0 0
-0.03785194 0.01947147 0.06927177 0 0 0 0
-0.00540226 0.04582486 -0.06989281 0 0 0 0
0.00958515 0.02764895 -0.08233781 0 0 0 0
-0.03968445 0.07371582 -0.00833551 0 0 0 0
0.05156515 -0.06419628 0.00643813 0 0 0 0
-0.02518302 -0.08115700 -0.01449110 0 0 0 0
-0.02336593 0.06230546 -0.04234641 0 0 0 0
-0.03719881 0.02268170 0.06736939 0 0 0 0
0.08215105 -0.01661367 0.02223281 0 0 0 0
-0.03717258 -0.00094953 0.07861452 0 0 0 0
-0.02309743 0.06261651 0.04231223 0 0 0 0
-0.03566642 0.05343028 -0.04164068 0 0 0 0
0.07923235 -0.00031287 -0.03668350 0 0 0 0
-0.01704289 -0.01199583 -0.08811124 0 0 0 0
-0.03952348 -0.03727917 -0.05355687 0 0 0 0
-0.02670777 -0.00137476 -0.08614258 0 0 0 0
0.06597202 0.05168498 -0.00211849 0 0 0 0
-0.00316424 -0.09073097 0.01871145 0 0 0 0
-0.05098802 -0.05279978 -0.02519074 0 0 0 0
-0.06104739 0.00800146 -0.05422990 0 0 0 0
0.03851383 -0.02065035 0.06784916 0 0 0 0
-0.09171243 0.01610193 -0.00452270 0 0 0 0
0.05059327 0.05561190 -0.02262651 0 0 0 0
-0.00392067 -0.03463339 -0.07962350 0 0 0 0
-0.05903975 -0.03191159 -0.03874670 0 0 0 0
0.08433687 0.00980043 -0.02434405 0 0 0 0
-0.04534649 0.05032470 0.03506749 0 0 0 0
-0.05223911 0.03301320 -0.04501350 0 0 0 0
-0.01348575 -0.09192960 -0.00746231 0 0 0 0
0.03822269 0.06460248 -0.02546741 0 0 0 0
-0.00066812 -0.02512312 0.08738597 0 0 0 0
0.00466272 -0.09771505 0.00100645 0 0 0 0
-0.00648881 0.02941164 -0.08251329 0 0 0 0
-0.01404065 0.03834135 0.07190053 0 0 0 0
-0.04081068 -0.00428531 -0.07463855 0 0 0 0
-0.07171762 -0.02975288 -0.02479700 0 0 0 0
0.00649344 0.08798103 0.02091712 0 0 0 0
0.06341628 -0.04661292 -0.01626166 0 0 0 0
0.08492083 0.00682593 -0.02586750 0 0 0 0
-0.09167887 -0.01754553 -0.00163268 0 0 0 0
0.04839336 -0.05758066 -0.02248136 0 0 0 0
-0.01616562 -0.09105807 0.00593098 0 0 0 0
-0.02232205 -0.03189791 0.07175739 0 0 0 0
0.06913698 -0.03828369 -0.01827912 0 0 0 0
0.01120379 -0.08748643 0.01852218 0 0 0 0
0.03812929 -0.01479046 -0.07147529 0 0 0 0
-0.00300848 -0.01412996 -0.09338443 0 0 0 0
0.00962393 -0.06094896 0.05361421 0 0 0 0
-0.04289302 0.01302192 0.06898455 0 0 0 0
0.06326653 -0.00887160 -0.05130532 0 0 0 0
-0.01173450 -0.01489447 -0.08939097 0 0 0 0
0.07604145 -0.02887112 -0.01888456 0 0 0 0
0.08715934 -0.01929614 -0.01068748 0 0 0 0
-0.08781736 0.00588066 -0.02137694 0 0 0 0
-0.03957149 0.04473183 0.04677484 0 0 0 0
0.01167148 -0.06898366 -0.04333608 0 0 0 0
-0.00647067 0.08857243 -0.01976548 0 0 0 0
-0.02660906 0.04738975 -0.05536938 0 0 0 0
0.06123737 0.04937033 -0.01588400 0 0 0 0
0.06351890 -0.02490069 -0.03969996 0 0 0 0
-0.03520916 -0.07296022 0.01636733 0 0 0 0
-0.03198614 -0.08274189 -0.00087203 0 0 0 0
0.03352555 -0.07461143 -0.01528784 0 0 0 0
0.03033210 -0.07723140 -0.01499641 0 0 0 0
0.05466577 0.02389742 -0.05006928 0 0 0 0
-0.00589149 0.08057185 -0.03248199 0 0 0 0
-0.05224525 0.04129553 0.03707419 0 0 0 0
-0.04910769 -0.02516779 -0.05500717 0 0 0 0
0.05601804 0.03754171 -0.03636888 0 0 0 0
0.03278161 -0.04362287 -0.05377340 0 0 0 0
0.01347827 0.08779128 -0.01573086 0 0 0 0
0.03185133 0.01501395 -0.07643405 0 0 0 0
0.04514957 -0.04827928 -0.03748879 0 0 0 0
-0.00998876 -0.06166093 -0.05240537 0 0 0 0
0.01166545 -0.03656536 -0.07457206 0 0 0 0
-0.05201460 0.02393340 -0.05287771 0 0 0 0
0.07573567 -0.02144624 -0.02747739 0 0 0 0
0.02590578 -0.08681533 -0.00047624 0 0 0 0
0.06612837 0.00277211 -0.05113248 0 0 0 0
-0.05173658 0.05031487 -0.02766534 0 0 0 0
-0.05690572 0.04781000 0.02367131 0 0 0 0
0.03162009 -0.01923484 -0.07388295 0 0 0 0
-0.06229921 0.05259667 -0.00851361 0 0 0 0
0.01202276 0.00596878 -0.09341799 0 0 0 0
-0.02053961 0.02842916 -0.07548724 0 0 0 0
0.05585833 -0.03351407 0.04051698 0 0 0 0
0.07585723 -0.00948099 -0.03625247 0 0 0 0
0.04438088 0.07210383 0.00309177 0 0 0 0
-0.09501944 -0.00563724 -0.00826126 0 0 0 0
0.05986989 -0.01334848 -0.05220903 0 0 0 0
0.02321921 0.07043403 -0.03239943 0 0 0 0
0.01420619 -0.00437685 0.09308951 0 0 0 0
-0.06535376 -0.02535870 -0.03699266 0 0 0 0
-0.08507163 -0.00160704 -0.02870056 0 0 0 0
-0.00586632 0.08703537 -0.02311840 0 0 0 0
-0.00385226 0.05747388 0.05969844 0 0 0 0
0.01234865 -0.03536052 -0.07541785 0 0 0 0
0.09423245 -0.01172955 -0.00367784 0 0 0 0
-0.00337581 -0.08539017 0.02665141 0 0 0 0
-0.06547168 0.05026429 0.00641754 0 0 0 0
0.02449840 -0.04057145 -0.06305945 0 0 0 0
0.03157739 0.05593149 -0.04268131 0 0 0 0
0.03689844 0.06731850 -0.02305799 0 0 0 0
0.01697093 0.01945959 0.08398782 0 0 0 0
0.04116996 -0.07181870 0.00930910 0 0 0 0
-0.06118802 0.05612607 0.00338616 0 0 0 0
0.05389961 0.01260315 0.05881870 0 0 0 0
-0.00975327 -0.00885681 0.09354907 0 0 0 0
0.01111298 -0.06997300 -0.04251761 0 0 0 0
-0.06499340 -0.00973928 -0.04912361 0 0 0 0
-0.02344506 0.08438053 0.01094060 0 0 0 0
-0.05262283 -0.06054954 -0.01200007 0 0 0 0
0.00987557 0.04973444 -0.06427249 0 0 0 0
0.07623067 -0.00637243 -0.03779047 0 0 0 0
-0.03597953 -0.06332813 -0.02911417 0 0 0 0
-0.02734491 -0.00934136 0.08287877 0 0 0 0
-0.01319965 -0.03077634 -0.07819898 0 0 0 0
0.04726182 -0.06847599 -0.00541299 0 0 0 0
-0.06248041 0.02977254 -0.03648654 0 0 0 0
-0.00557209 -0.07727452 0.03709097 0 0 0 0
0.07009581 0.04208674 -0.01162921 0 0 0 0
-0.04554428 -0.04188693 -0.04387311 0 0 0 0
-0.03936438 -0.02617962 -0.06314737 0 0 0 0
0.04069400 0.01535260 0.06937619 0 0 0 0
0.01081399 0.08937336 0.01518384 0 0 0 0
-0.09053364 0.00117138 -0.02003158 0 0 0 0
-0.03918939 0.07262476 0.01105201 0 0 0 0
-0.09082188 0.00779383 -0.01517532 0 0 0 0
0.03371336 0.06426595 -0.03037410 0 0 0 0
0.04285017 -0.05988954 -0.02600277 0 0 0 0
0.00958365 -0.00475891 0.09513407 0 0 0 0
0.00461933 0.01961106 0.08965032 0 0 0 0
-0.05522645 -0.01902032 0.05347566 0 0 0 0
-0.01376075 -0.00114765 0.09432782 0 0 0 0
0.04205985 -0.04980707 -0.03874962 0 0 0 0
0.00040866 -0.06013015 0.05799220 0 0 0 0
-0.06600957 0.04450249 -0.01501034 0 0 0 0
-0.01666631 0.06256194 -0.04745534 0 0 0 0
0.04860974 -0.06219206 0.01535795 0 0 0 0
-0.02013147 -0.03928461 0.06738125 0 0 0 0
-0.02994616 0.07603291 -0.01787570 0 0 0 0
-0.04585814 -0.06858413 -0.00881479 0 0 0 0
-0.05416531 -0.06332679 0.00160157 0 0 0 0
0.05115990 0.00880252 -0.06353050 0 0 0 0
0.03111484 -0.00472864 -0.08206196 0 0 0 0
-0.04502463 0.00454905 -0.07095925 0 0 0 0
-0.06368592 -0.04703764 -0.01532886 0 0 0 0
-0.00881263 -0.03535330 -0.07709247 0 0 0 0
-0.02755439 -0.07956541 -0.01464352 0 0 0 0
-0.07534375 0.02896138 0.02011981 0 0 0 0
0.04340766 -0.07274459 0.00280465 0 0 0 0
0.05740679 -0.00097049 -0.06093930 0 0 0 0
-0.02870066 0.07477899 -0.02123675 0 0 0 0
0.04200161 0.00371484 -0.07419051 0 0 0 0
0.03715687 0.04588536 -0.04787772 0 0 0 0
0.00208336 0.01389840 0.09404649 0 0 0 0
-0.02625218 0.06534217 -0.03632940 0 0 0 0
0.02509609 -0.00396132 -0.08644252 0 0 0 0
-0.03355439 -0.02315823 0.07002691 0 0 0 0
0.02125091 0.06077139 -0.04601700 0 0 0 0
0.02679633 -0.08281374 0.00932303 0 0 0 0
-0.03363665 -0.00075172 -0.08133195 0 0 0 0
0.03837590 -0.03127984 -0.05991591 0 0 0 0
-0.06325043 0.02877443 -0.03642819 0 0 0 0
-0.04541546 -0.03474289 -0.05055700 0 0 0 0
-0.04385835 0.03253300 -0.05365481 0 0 0 0
0.01429207 0.09026819 -0.00989265 0 0 0 0
-0.06003676 0.02207842 0.04579048 0 0 0 0
-0.03708110 0.03246310 0.05978753 0 0 0 0
0.09457384 0.01154004 -0.00277674 0 0 0 0
-0.02041340 -0.01405741 0.08488898 0 0 0 0
-0.08200496 0.00756088 -0.02975643 0 0 0 0
-0.03279297 0.06486303 -0.03062833 0 0 0 0
0.01463198 0.06047367 -0.05079702 0 0 0 0
0.03593343 0.04535012 0.04944205 0 0 0 0
-0.01490107 0.03745691 -0.07226766 0 0 0 0
0.04589739 0.00034596 0.07157622 0 0 0 0
0.02320464 -0.04691968 0.05827501 0 0 0 0
-0.01296416 0.07279520 -0.03785825 0 0 0 0
0.00425076 0.08932193 -0.02019747 0 0 0 0
0.06732919 -0.03156576 -0.02845950 0 0 0 0
0.00598245 -0.05892270 -0.05731601 0 0 0 0
-0.02410754 -0.03167562 -0.07061414 0 0 0 0
0.02846325 0.06680823 0.03269623 0 0 0 0
-0.08466130 0.00724804 0.02580028 0 0 0 0
0.02719095 0.00295915 0.08546979 0 0 0 0
-0.03240962 0.03377016 -0.06293502 0 0 0 0
-0.01998049 0.03883401 -0.06778514 0 0 0 0
-0.00946591 0.07604513 0.03637626 0 0 0 0
-0.02622770 -0.04782093 0.05527375 0 0 0 0
0.07403442 -0.03218330 0.01881686 0 0 0 0
-0.00532108 -0.05912673 -0.05776966 0 0 0 0
0.03647427 -0.02617666 -0.06543957 0 0 0 0
-0.00284899 0.09800749 0.00311224 0 0 0 0
0.02623930 0.08274684 -0.01073374 0 0 0 0
0.04742915 0.06771401 -0.00732289 0 0 0 0
0.06301013 -0.03290427 0.03337815 0 0 0 0
-0.03816551 -0.05245190 -0.04008536 0 0 0 0
0.06621078 -0.05007794 -0.00531332 0 0 0 0
-0.03451017 -0.02457683 -0.06810824 0 0 0 0
0.09542244 0.00475007 0.00873297 0 0 0 0
0.05761538 0.05990943 -0.00329440 0 0 0 0
0.07535622 -0.00519753 0.03942998 0 0 0 0
-0.08813050 0.02235943 0.00498640 0 0 0 0
0.04210934 -0.01158117 -0.07020413 0 0 0 0
-0.03685897 0.03602444 -0.05718851 0 0 0 0
-0.07396699 -0.01145813 0.03758347 0 0 0 0
0.05652276 -0.00107801 0.06171956 0 0 0 0
-0.03967858 0.07585027 0.00341441 0 0 0 0
-0.07788027 0.01777762 -0.02766706 0 0 0 0
-0.07101231 -0.02751813 -0.02778124 0 0 0 0
0.02460244 0.07576026 0.02374231 0 0 0 0
-0.01483546 0.09148589 -0.00672791 0 0 0 0
-0.07997505 -0.03227569 -0.00691661 0 0 0 0
-0.06900221 -0.02272629 0.03538529 0 0 0 0
0.05763760 -0.02627649 -0.04505774 0 0 0 0
0.00749436 0.08113705 -0.03052635 0 0 0 0
0.07205922 0.00245085 0.04455749 0 0 0 0
0.04328026 0.05552427 0.03120372 0 0 0 0
0.04094279 0.01151601 -0.07102785 0 0 0 0
0.02723493 -0.06787834 -0.03208938 0 0 0 0
0.01389243 0.02181745 -0.08394133 0 0 0 0
0.01897336 -0.00841095 -0.08859967 0 0 0 0
-0.04459984 -0.02476100 0.05919768 0 0 0 0
-0.03116554 0.06880561 -0.02755572 0 0 0 0
0.00802498 0.00607871 -0.09543411 0 0 0 0
-0.01301620 0.09283169 -0.00529016 0 0 0 0
0.00117970 -0.07335000 0.04352546 0 0 0 0
0.04644773 0.00988244 -0.06716731 0 0 0 0
0.02572994 0.04188809 0.06094227 0 0 0 0
0.00051840 -0.04255857 -0.07463835 0 0 0 0
-0.00742459 -0.06251685 -0.05289818 0 0 0 0
0.05759243 -0.04674862 0.02442968 0 0 0 0
0.05360336 0.00387128 0.06351961 0 0 0 0
0.01470081 0.06027536 -0.05104121 0 0 0 0
0.07559780 -0.00356544 -0.04046684 0 0 0 0
-0.01976712 0.01164091 0.08647605 0 0 0 0
0.01316463 0.00609150 -0.09281928 0 0 0 0
-0.04979821 0.05251244 -0.02745848 0 0 0 0
0.08200446 -0.01038327 0.02712585 0 0 0 0
-0.09102858 -0.01065361 0.01231263 0 0 0 0
-0.02413131 0.06043730 -0.04391042 0 0 0 0
-0.06525946 0.01992496 -0.04175085 0 0 0 0
-0.03350963 0.06611276 -0.02862431 0 0 0 0
0.05727588 0.04708608 -0.02428965 0 0 0 0
0.01351047 0.07358108 -0.03661611 0 0 0 0
0.02555451 0.07271969 -0.02766659 0 0 0 0
0.07282060 0.00037430 -0.04452546 0 0 0 0
0.06131974 -0.02795108 -0.03938991 0 0 0 0
0.00214079 -0.05293326 -0.06499125 0 0 0 0
-0.01081352 0.02739111 -0.08186419 0 0 0 0
0.00769730 -0.05498083 -0.06059540 0 0 0 0
0.05489163 -0.01044705 -0.05926601 0 0 0 0
-0.01553616 0.08288758 0.02194382 0 0 0 0
0.06432492 -0.02466801 -0.03925195 0 0 0 0
0.05164082 0.04979756 0.02803638 0 0 0 0
0.07989661 0.00197150 -0.03496156 0 0 0 0
0.04843160 -0.04066876 -0.04191857 0 0 0 0
-0.04836664 -0.01397805 -0.06357650 0 0 0 0
-0.03571716 -0.07434119 0.01344860 0 0 0 0
0.07684075 -0.02667036 -0.02056197 0 0 0 0
-0.03446135 -0.07220606 -0.01866689 0 0 0 0
0.03061510 0.05525125 -0.04414270 0 0 0 0
0.03353846 -0.00212771 -0.08102994 0 0 0 0
0.04497402 0.00606370 -0.07044297 0 0 0 0
-0.02787432 -0.00339794 -0.08484955 0 0 0 0
0.04105815 0.01686718 -0.06797469 0 0 0 0
-0.02171497 0.08762168 -0.00666524 0 0 0 0
-0.03388054 -0.07631477 -0.01207110 0 0 0 0
0.03877467 -0.07279648 0.01113319 0 0 0 0
0.06994758 -0.02878400 -0.02788159 0 0 0 0
-0.05309188 -0.01102570 0.06043377 0 0 0 0
-0.08620605 -0.00250480 -0.02600798 0 0 0 0
0.05732960 -0.03385460 0.03860801 0 0 0 0
-0.01752806 0.08108799 -0.02317046 0 0 0 0
0.00332272 0.01544658 -0.09251849 0 0 0 0
-0.06497189 0.04662042 0.01354147 0 0 0 0
0.05960188 0.05339770 -0.01262694 0 0 0 0
-0.01605778 0.02050716 0.08381788 0 0 0 0
-0.04723415 -0.05628908 -0.02547738 0 0 0 0
0.00855142 0.03713569 -0.07579629 0 0 0 0
0.09373710 0.00895157 0.00851663 0 0 0 0
-0.07502136 -0.00135824 -0.04150899 0 0 0 0
0.06029453 0.02349438 -0.04482280 0 0 0 0
-0.00294669 0.06499439 -0.05239776 0 0 0 0
-0.03395538 0.07631090 -0.01197619 0 0 0 0
-0.06352390 0.03840550 0.02618471 0 0 0 0
0.02805014 -0.02907963 0.07000832 0 0 0 0
-0.07585387 -0.03599006 -0.00970135 0 0 0 0
-0.08358336 -0.00483485 -0.02891709 0 0 0 0
-0.00004572 0.00226074 -0.09929492 0 0 0 0
0.07631715 -0.01282158 -0.03335666 0 0 0 0
0.00368628 0.00301371 0.09810914 0 0 0 0
0.05760201 -0.02169326 -0.04900244 0 0 0 0
0.01201400 0.05235996 -0.06087779 0 0 0 0
-0.02144400 -0.08761400 -0.00619488 0 0 0 0
-0.00785615 -0.04208401 -0.07223935 0 0 0 0
0.00620090 -0.08637243 -0.02391398 0 0 0 0
-0.02952417 -0.00305584 0.08396666 0 0 0 0
0.02268374 0.05456030 -0.05121859 0 0 0 0
-0.00140213 -0.01989760 -0.09088226 0 0 0 0
-0.05257117 0.00447073 -0.06449528 0 0 0 0
-0.06927271 0.03388599 -0.02364719 0 0 0 0
0.06031964 0.04422238 0.02379669 0 0 0 0
-0.03121809 0.07780674 -0.01317499 0 0 0 0
0.04030069 -0.07056867 -0.01349560 0 0 0 0
0.03977546 -0.06666060 -0.02003263 0 0 0 0
-0.01599600 0.05100393 0.05950212 0 0 0 0
0.02802159 -0.07234672 -0.02548669 0 0 0 0
0.07004755 -0.02185411 -0.03425613 0 0 0 0
-0.00065927 -0.09570827 0.01011500 0 0 0 0
-0.07920261 -0.02005259 0.02317679 0 0 0 0
0.02943263 -0.05534578 0.04475602 0 0 0 0
-0.00552371 -0.07875057 -0.03502731 0 0 0 0
0.05935700 0.03493332 -0.03522050 0 0 0 0
0.02031133 0.08408033 -0.01545657 0 0 0 0
-0.04488735 0.04124994 0.04471166 0 0 0 0
-0.04403159 -0.04101875 0.04582334 0 0 0 0
0.02471848 0.08256142 0.01302260 0 0 0 0
-0.07922918 0.03459900 -0.00449933 0 0 0 0
0.05028196 -0.05396419 -0.02470371 0 0 0 0
-0.01088992 0.02568760 -0.08301052 0 0 0 0
-0.03058331 -0.06550551 -0.03214928 0 0 0 0
-0.04572476 -0.06871112 -0.00817481 0 0 0 0
0.00531626 -0.05128232 0.06511157 0 0 0 0
0.02132118 -0.02268862 -0.07923888 0 0 0 0
0.06486567 -0.03490361 0.02856238 0 0 0 0
-0.08321399 0.02944008 -0.00410193 0 0 0 0
0.03371662 0.05956710 -0.03603265 0 0 0 0
0.03439816 -0.08044379 -0.00201855 0 0 0 0
-0.03892132 0.03411585 0.05699079 0 0 0 0
-0.02236013 -0.02585888 -0.07620575 0 0 0 0
-0.04237260 0.06509141 0.01953017 0 0 0 0
0.02805035 -0.00704774 0.08350925 0 0 0 0
0.02270896 -0.02316257 -0.07791988 0 0 0 0
-0.08545934 0.01225774 -0.02073466 0 0 0 0
0.00107727 -0.01972922 0.09075031 0 0 0 0
0.05007541 -0.02691959 0.05286512 0 0 0 0
-0.04975569 0.05554052 -0.02305473 0 0 0 0
0.00219757 -0.01650512 0.09244754 0 0 0 0
-0.00140718 -0.09678117 -0.00709411 0 0 0 0
0.03149015 0.08216884 0.00425281 0 0 0 0
0.08399596 -0.00690195 -0.02695257 0 0 0 0
0.01413126 -0.03785377 0.07233553 0 0 0 0
-0.06509462 -0.03660462 -0.02617057 0 0 0 0
0.03714147 0.03191998 0.06017606 0 0 0 0
0.09172982 0.00693270 -0.01439049 0 0 0 0
-0.03804158 -0.03623370 -0.05599181 0 0 0 0
-0.05989124 0.05651972 -0.00542593 0 0 0 0
-0.00974469 -0.02930414 -0.08098020 0 0 0 0
-0.04380069 0.03664932 -0.05036285 0 0 0 0
0.01199046 -0.05130483 -0.06194824 0 0 0 0
0.06591456 0.03615402 -0.02558444 0 0 0 0
-0.03562615 0.06169759 0.03211538 0 0 0 0
0.09653522 -0.00354966 -0.00696773 0 0 0 0
-0.01674898 -0.01383896 -0.08737021 0 0 0 0
0.01988408 0.08976415 0.00334242 0 0 0 0
-0.02858457 0.06642249 -0.03269830 0 0 0 0
0.01303316 -0.04946034 -0.06281179 0 0 0 0
0.00038200 -0.09927595 -0.00119874 0 0 0 0
0.05501967 0.03277586 0.04226590 0 0 0 0
-0.01310636 -0.02194403 0.08453653 0 0 0 0
0.04661051 0.04292768 -0.04164026 0 0 0 0
0.01664686 0.08896971 0.00960492 0 0 0 0
-0.01276058 0.03047085 -0.07896135 0 0 0 0
0.05120732 0.05663701 -0.01983606 0 0 0 0
-0.06597244 -0.03412712 -0.02802782 0 0 0 0
0.08301269 -0.00812207 -0.02796443 0 0 0 0
-0.06376785 0.03256555 -0.03207786 0 0 0 0
-0.04158286 0.04543722 -0.04427597 0 0 0 0
0.01242551 -0.09475208 -0.00169481 0 0 0 0
0.01307479 0.06511222 0.04688634 0 0 0 0
-0.05186820 0.06365915 -0.00685510 0 0 0 0
0.03839355 0.07231954 0.01263003 0 0 0 0
-0.00999776 -0.08519837 -0.02270660 0 0 0 0
-0.02538284 -0.03099285 -0.07028160 0 0 0 0
-0.01624171 0.04766090 -0.06250183 0 0 0 0
-0.01165652 -0.06149688 0.05203834 0 0 0 0
0.05817407 -0.02675080 0.04407629 0 0 0 0
-0.09253643 0.01286073 -0.00630774 0 0 0 0
0.08451022 0.00857313 0.02469788 0 0 0 0
-0.00496533 0.06878777 0.04747803 0 0 0 0
-0.04531702 -0.02285863 -0.06023349 0 0 0 0
0.03094906 -0.04433155 -0.05454620 0 0 0 0
-0.05564903 0.00283434 0.06201235 0 0 0 0
-0.02374018 0.07162140 -0.03035945 0 0 0 0
0.06507482 -0.04616624 -0.01398329 0 0 0 0
0.02621427 0.05774896 -0.04549474 0 0 0 0
0.09862164 0.00374536 -0.00083149 0 0 0 0
0.05853422 -0.02398825 -0.04635932 0 0 0 0
0.05683616 -0.00851786 -0.05829832 0 0 0 0
-0.07221613 -0.04496322 -0.00035146 0 0 0 0
0.01701626 0.01051206 -0.08876611 0 0 0 0
-0.03204582 0.00190167 0.08250067 0 0 0 0
-0.04467852 -0.01981129 0.06282614 0 0 0 0
-0.05214166 -0.02694988 0.05073186 0 0 0 0
-0.08712454 0.01840906 0.01126948 0 0 0 0
-0.04954783 0.02733548 0.05284940 0 0 0 0
-0.05052801 0.06266955 0.01117963 0 0 0 0
-0.05421275 -0.03081298 -0.04526686 0 0 0 0
0.05115729 -0.01341838 0.06085036 0 0 0 0
-0.00795156 0.06070222 0.05478155 0 0 0 0
-0.00681293 0.08669817 -0.02257744 0 0 0 0
0.00754244 -0.07632138 -0.03697559 0 0 0 0
0.03611726 0.06702845 0.02410857 0 0 0 0
-0.00488496 0.00032816 -0.09844730 0 0 0 0
0.09277500 -0.00920326 -0.01050371 0 0 0 0
0.06226392 -0.00542679 -0.05411522 0 0 0 0
-0.08112639 -0.00533974 -0.03159748 0 0 0 0
-0.09197181 0.01271747 -0.00784337 0 0 0 0
0.06342322 -0.01415747 -0.04819287 0 0 0 0
0.02978750 -0.05145981 -0.04877826 0 0 0 0
0.07126473 -0.00987220 -0.04171197 0 0 0 0
-0.07136458 -0.01982693 -0.03444422 0 0 0 0
-0.05135252 -0.06120273 -0.01294232 0 0 0 0
-0.07773248 0.00337396 0.03736829 0 0 0 0
-0.07792990 0.02168787 -0.02359770 0 0 0 0
0.01917451 0.08166203 -0.02043883 0 0 0 0
0.02263974 -0.08816738 -0.00318501 0 0 0 0
0.05513126 -0.04525834 0.02920668 0 0 0 0
-0.02993157 0.04154945 -0.05799661 0 0 0 0
-0.08825411 -0.02173883 -0.00437461 0 0 0 0
-0.00634415 -0.02554457 -0.08534165 0 0 0 0
0.06351395 -0.02814521 0.03707182 0 0 0 0
0.08488166 -0.00023909 -0.02890609 0 0 0 0
-0.04901159 -0.03715571 -0.04497257 0 0 0 0
0.03266446 0.04085744 -0.05658970 0 0 0 0
0.01933547 -0.05524531 -0.05312251 0 0 0 0
0.08306970 0.03131111 -0.00089029 0 0 0 0
-0.07057179 -0.03274377 -0.02288536 0 0 0 0
0.01749742 0.09081713 -0.00421019 0 0 0 0
-0.00862367 -0.04249684 -0.07147995 0 0 0 0
-0.06146036 0.03502830 0.03294603 0 0 0 0
0.04789858 0.06504150 -0.01163222 0 0 0 0
0.03232765 0.06999034 -0.02443721 0 0 0 0
-0.07998484 -0.01392709 0.02731402 0 0 0 0
-0.04262373 0.02891614 -0.05786023 0 0 0 0
-0.05828609 -0.01462357 -0.05305702 0 0 0 0
0.06754534 -0.01180912 -0.04481577 0 0 0 0
-0.07752835 -0.03306207 0.01068755 0 0 0 0
-0.06199728 -0.00213687 -0.05605035 0 0 0 0
-0.02311822 -0.05346368 -0.05206459 0 0 0 0
-0.02292942 0.07378948 0.02821837 0 0 0 0
0.02078698 -0.06525722 -0.04122220 0 0 0 0
-0.00003591 0.09186105 -0.01702910 0 0 0 0
