ply
format ascii 1.0
comment https://github.com/mikedh/trimesh
element vertex 1120
property float x
property float y
property float z
property uchar red
property uchar green
property uchar blue
property uchar alpha
end_header
0.08038057 0.01665563 -0.00812120 0 0 0 0
0.04780180 -0.03232107 0.03582311 0 0 0 0
-0.01085594 -0.00456759 -0.09342349 0 0 0 0
-0.01218906 -0.08138525 -0.01533972 0 0 0 0
0.01230892 -0.06675507 -0.03705880 0 0 0 0
-0.06545031 -0.01580514 -0.03402877 0 0 0 0
0.00782433 -0.05364246 0.05708931 0 0 0 0
0.00343483 0.05869577 0.05643602 0 0 0 0
-0.08368290 -0.01563649 0.00088442 0 0 0 0
-0.05106219 0.01912118 -0.04761559 0 0 0 0
0.06588235 0.03026528 0.01002182 0 0 0 0
0.09850165 -0.00042283 0.00354076 0 0 0 0
0.00639248 0.02956464 0.07984847 0 0 0 0
-0.06253687 0.00180762 -0.05401977 0 0 0 0
0.06831194 0.01694152 -0.02850093 0 0 0 0
-0.00740399 -0.06368993 0.04662705 0 0 0 0
-0.05134460 -0.01008552 0.05712539 0 0 0 0
-0.00796885 -0.05470784 0.05589859 0 0 0 0
-0.01044195 0.07257038 0.03185583 0 0 0 0
-0.05129125 -0.03651872 0.02465882 0 0 0 0
0.03543339 0.03051607 -0.05233587 0 0 0 0
0.08693378 -0.00409214 -0.01952863 0 0 0 0
-0.04371194 -0.04749255 -0.01923509 0 0 0 0
-0.05319186 -0.03596821 -0.02309945 0 0 0 0
0.00375149 -0.08489637 -0.02380765 0 0 0 0
-0.03068904 0.06011530 -0.01989282 0 0 0 0
0.07769982 0.00811517 -0.02772453 0 0 0 0
-0.00598085 0.01879995 -0.08800302 0 0 0 0
-0.02921287 -0.06962994 -0.00351263 0 0 0 0
-0.01973719 0.07875082 -0.00458966 0 0 0 0
0.02244954 0.01588324 0.07793033 0 0 0 0
-0.02969059 -0.06551082 -0.01261149 0 0 0 0
-0.05773548 0.01791655 -0.04124159 0 0 0 0
-0.02783793 -0.00825104 -0.07993683 0 0 0 0
0.02282460 0.03278772 -0.06318139 0 0 0 0
0.06854851 0.00477483 -0.04422974 0 0 0 0
-0.06422447 -0.00770258 -0.04602144 0 0 0 0
0.08233633 0.01046728 -0.01660656 0 0 0 0
-0.02724325 0.06566112 -0.01644095 0 0 0 0
0.03062903 0.06258487 -0.01572721 0 0 0 0
0.03399205 0.04609007 -0.03565107 0 0 0 0
-0.06652090 0.03188276 -0.00484571 0 0 0 0
-0.02532873 -0.06614180 -0.01891303 0 0 0 0
-0.04092019 -0.05657677 -0.00699360 0 0 0 0
-0.04268748 0.05478913 -0.00704339 0 0 0 0
-0.03584796 -0.05973145 -0.01140450 0 0 0 0
0.01427892 -0.07922934 0.01550395 0 0 0 0
-0.06413195 0.00267288 -0.05143843 0 0 0 0
0.02739862 -0.07215627 -0.00135116 0 0 0 0
-0.01677241 0.05191413 -0.04929113 0 0 0 0
-0.06093355 0.00781004 -0.04940432 0 0 0 0
0.04335160 -0.02446540 -0.05037648 0 0 0 0
0.04919466 0.05037167 -0.00077665 0 0 0 0
-0.07856399 0.01622805 0.01283745 0 0 0 0
-0.01153088 0.01450589 -0.08692376 0 0 0 0
-0.00454603 -0.01689051 0.08987258 0 0 0 0
0.01003212 0.07899179 -0.02281939 0 0 0 0
0.04822630 0.04570809 -0.01441058 0 0 0 0
0.07916251 -0.02014574 0.00095930 0 0 0 0
0.01421257 0.06672686 -0.03445685 0 0 0 0
0.00525086 0.03606489 0.07552185 0 0 0 0
-0.02815284 0.03982056 -0.05008943 0 0 0 0
0.00962798 -0.03585232 -0.07202880 0 0 0 0
0.03641198 0.01064509 0.07088625 0 0 0 0
-0.01381602 0.01053064 -0.08809850 0 0 0 0
-0.06626200 -0.00745024 -0.04373071 0 0 0 0
0.03337931 -0.01668285 -0.06801274 0 0 0 0
0.02283820 0.06584640 0.02334678 0 0 0 0
-0.01834154 0.04221626 -0.05832631 0 0 0 0
0.02256513 -0.06549265 -0.02440744 0 0 0 0
-0.00400052 0.08502088 -0.02329118 0 0 0 0
0.00583004 0.07921764 0.02880258 0 0 0 0
0.04481874 -0.05175466 -0.00925383 0 0 0 0
-0.01888219 -0.06170808 0.03526384 0 0 0 0
-0.00064174 -0.07367776 0.04265104 0 0 0 0
-0.03765821 -0.04892687 -0.02665975 0 0 0 0
-0.01287451 -0.03276592 -0.07189040 0 0 0 0
-0.04193671 -0.03399733 -0.04087971 0 0 0 0
-0.06615038 -0.03004737 0.00991772 0 0 0 0
-0.00765977 0.04721732 -0.06390701 0 0 0 0
-0.08766670 0.00651818 -0.01395285 0 0 0 0
0.00192466 -0.03935267 -0.07566149 0 0 0 0
0.09633963 0.00073491 -0.00802741 0 0 0 0
-0.01372216 -0.08390179 -0.00668279 0 0 0 0
0.01892545 -0.07439750 0.01588884 0 0 0 0
0.06405652 -0.02974539 -0.01465268 0 0 0 0
-0.03238065 -0.06721695 -0.00185271 0 0 0 0
-0.03810615 0.04217457 -0.03530208 0 0 0 0
0.07074040 0.02873817 -0.00158278 0 0 0 0
-0.00505125 -0.05827881 -0.05508410 0 0 0 0
-0.00828538 -0.02980531 -0.07841574 0 0 0 0
-0.04963648 0.02365940 0.04399223 0 0 0 0
0.05133400 0.03471845 0.02729530 0 0 0 0
-0.05987108 0.01105882 -0.04711049 0 0 0 0
-0.01745513 -0.05972647 0.03934261 0 0 0 0
0.07193878 0.01206305 -0.03052719 0 0 0 0
0.06722191 0.03086587 0.00599202 0 0 0 0
0.03000175 -0.01285707 -0.07458947 0 0 0 0
-0.03426795 0.04168612 -0.04115590 0 0 0 0
-0.01467492 0.00925985 -0.08838479 0 0 0 0
-0.03261044 0.02014122 -0.06553060 0 0 0 0
-0.00241231 -0.04117317 -0.07399008 0 0 0 0
0.08065228 0.00196084 0.03245469 0 0 0 0
-0.07493671 -0.00796519 -0.03193862 0 0 0 0
-0.08292983 0.01568575 -0.00425600 0 0 0 0
0.09429692 -0.00383350 0.00590344 0 0 0 0
-0.03683233 0.03174748 -0.04957616 0 0 0 0
-0.01759186 0.03671897 -0.06409164 0 0 0 0
-0.05200357 0.00464682 -0.06209226 0 0 0 0
0.05908172 -0.02841141 -0.02533558 0 0 0 0
0.07636931 0.01526650 -0.01852612 0 0 0 0
0.00617984 -0.01330950 -0.09132938 0 0 0 0
-0.04427110 0.02624382 -0.04754588 0 0 0 0
0.00418314 -0.04104963 -0.07224274 0 0 0 0
-0.02856373 0.03809492 0.05193425 0 0 0 0
-0.01640148 0.04912909 -0.05282391 0 0 0 0
-0.04641910 -0.05212619 -0.00441580 0 0 0 0
-0.01518074 0.04621296 -0.05711567 0 0 0 0
0.04920881 -0.03980695 -0.02283278 0 0 0 0
-0.02165128 -0.05076288 0.04504726 0 0 0 0
-0.03693817 0.05593099 0.01683139 0 0 0 0
0.00914345 -0.05856652 -0.05048877 0 0 0 0
0.04320129 0.01029786 0.06493063 0 0 0 0
0.02478722 -0.07240578 -0.00773749 0 0 0 0
0.03812324 0.03221900 -0.04743775 0 0 0 0
0.04154280 0.01312494 0.06378056 0 0 0 0
0.04894758 -0.04724962 -0.01017448 0 0 0 0
-0.03448060 0.01746958 -0.06643679 0 0 0 0
0.04458989 -0.02512050 0.04828258 0 0 0 0
-0.01392904 -0.08061500 0.01335257 0 0 0 0
0.07177340 0.02328456 -0.01235740 0 0 0 0
-0.01443897 0.04714487 0.05697411 0 0 0 0
-0.04989676 -0.01307890 0.05560436 0 0 0 0
0.00838570 0.05495331 -0.05527714 0 0 0 0
-0.06527945 0.01161080 0.03969124 0 0 0 0
-0.02188186 0.05717142 0.03710299 0 0 0 0
-0.00752743 0.05849659 0.05260433 0 0 0 0
-0.09162057 0.00500177 0.00903583 0 0 0 0
0.00796247 0.06035250 -0.04985402 0 0 0 0
-0.01769218 -0.04309392 -0.05811559 0 0 0 0
-0.06956278 -0.02979570 0.00062144 0 0 0 0
0.03420341 -0.04648871 0.03514197 0 0 0 0
0.05345332 0.04598776 -0.00223575 0 0 0 0
-0.09423069 -0.00014248 0.01370748 0 0 0 0
-0.01559008 -0.03504440 -0.06748455 0 0 0 0
-0.03985078 -0.02959857 0.04859494 0 0 0 0
0.00659421 -0.07560233 -0.03272758 0 0 0 0
0.06054059 0.01966993 -0.03539217 0 0 0 0
-0.04705061 -0.01688989 -0.05444364 0 0 0 0
0.08945490 -0.00683716 -0.00994235 0 0 0 0
-0.02021980 0.05241928 -0.04486668 0 0 0 0
0.04882113 -0.02614470 -0.04226213 0 0 0 0
-0.02587742 -0.00394153 0.08452655 0 0 0 0
-0.02011996 0.03021265 0.06804696 0 0 0 0
-0.05635127 -0.02096007 0.03918736 0 0 0 0
0.06387496 -0.03227273 -0.01029566 0 0 0 0
0.06309430 -0.02363843 -0.02645561 0 0 0 0
-0.07481970 0.02265147 0.00727276 0 0 0 0
0.00318030 0.04277060 -0.07180703 0 0 0 0
-0.02853184 -0.02760146 -0.06240968 0 0 0 0
-0.01830438 -0.02517788 -0.07408535 0 0 0 0
0.01254898 -0.03085189 -0.07416045 0 0 0 0
0.01413878 -0.04942485 -0.05502570 0 0 0 0
-0.02922275 0.05787402 0.02572869 0 0 0 0
0.01223337 0.06227254 0.04254431 0 0 0 0
0.06181008 -0.01491025 -0.03987075 0 0 0 0
-0.07857674 -0.01016085 0.02326728 0 0 0 0
0.04503676 0.02710100 -0.04542785 0 0 0 0
-0.06544260 -0.00367493 -0.04880869 0 0 0 0
-0.06707437 0.02327177 -0.02096772 0 0 0 0
0.04976231 -0.04811052 -0.00607371 0 0 0 0
0.01491118 0.02038383 -0.08048869 0 0 0 0
-0.05548595 -0.03527363 0.02023405 0 0 0 0
0.04705774 0.03900759 0.02727599 0 0 0 0
0.08136585 -0.00734843 0.02330225 0 0 0 0
-0.01594328 0.02429814 0.07638928 0 0 0 0
0.01325213 -0.07272937 0.02740173 0 0 0 0
-0.07463616 -0.02062428 -0.01246703 0 0 0 0
0.05775840 -0.02871943 0.02665719 0 0 0 0
-0.02479691 0.03857272 -0.05524286 0 0 0 0
-0.01683264 0.05290399 0.04825117 0 0 0 0
0.05145673 -0.01543477 -0.05134749 0 0 0 0
-0.04683226 -0.04688523 -0.01480697 0 0 0 0
0.00353175 -0.04459920 -0.06973781 0 0 0 0
0.00088884 0.08918775 -0.02146031 0 0 0 0
0.01608951 0.06986471 0.02744266 0 0 0 0
-0.08637032 0.01309564 -0.00010151 0 0 0 0
-0.00439741 0.09443615 -0.00354073 0 0 0 0
0.01146157 -0.03855537 -0.06810772 0 0 0 0
-0.05442559 -0.04063278 0.01228428 0 0 0 0
0.04087723 0.04281704 -0.03065674 0 0 0 0
0.03517036 -0.00959325 -0.07264824 0 0 0 0
0.03610769 -0.03801311 -0.04320804 0 0 0 0
0.06534684 -0.02707607 0.01773889 0 0 0 0
-0.01894310 0.04199389 -0.05796595 0 0 0 0
0.05108844 0.01789222 0.04915576 0 0 0 0
-0.00048543 -0.04701075 -0.07038089 0 0 0 0
0.00844327 -0.02923236 0.07846092 0 0 0 0
0.00700157 -0.03234122 -0.07733353 0 0 0 0
0.07680381 0.02094284 -0.00684007 0 0 0 0
-0.01753365 0.03893381 -0.06210129 0 0 0 0
0.07714902 -0.01036939 0.02509619 0 0 0 0
-0.04806758 0.03874754 0.02615121 0 0 0 0
0.00960223 -0.08978435 0.00043245 0 0 0 0
0.03153539 -0.05929158 0.02013297 0 0 0 0
0.01218703 -0.00819491 0.09054516 0 0 0 0
0.04557386 -0.02381436 0.04866808 0 0 0 0
0.01001195 0.04379874 -0.06455322 0 0 0 0
-0.01451664 0.01035123 -0.08773622 0 0 0 0
0.00542698 -0.09112047 -0.00931733 0 0 0 0
0.07523198 0.00285988 -0.03840291 0 0 0 0
0.00093697 -0.07841898 -0.03648875 0 0 0 0
0.02952009 0.00627240 0.07998139 0 0 0 0
0.01330880 0.07052347 -0.03074477 0 0 0 0
0.02831667 0.05005500 0.03791859 0 0 0 0
0.03506520 0.05945396 -0.01378665 0 0 0 0
-0.01165507 -0.06714306 -0.03720454 0 0 0 0
-0.02815506 0.03084376 0.05951815 0 0 0 0
0.03292050 -0.03582595 -0.04922408 0 0 0 0
0.00918348 -0.08655320 0.01087538 0 0 0 0
-0.02730507 -0.06319742 0.02061974 0 0 0 0
0.00221714 -0.08130883 -0.03113782 0 0 0 0
-0.03073312 0.05745048 -0.02420062 0 0 0 0
-0.01392569 -0.01403803 0.08570976 0 0 0 0
0.01735475 0.04700084 -0.05400812 0 0 0 0
0.05236723 0.03688204 -0.02244894 0 0 0 0
0.02295089 0.04646454 -0.04869943 0 0 0 0
0.05993650 0.01774256 -0.03897367 0 0 0 0
-0.00364022 -0.06686226 -0.04725838 0 0 0 0
0.04213486 0.04803322 -0.02129313 0 0 0 0
0.01275946 -0.07768856 -0.02047854 0 0 0 0
-0.00840584 -0.07942614 0.02462580 0 0 0 0
-0.03664141 0.05685151 -0.01547353 0 0 0 0
0.06809280 -0.02227151 -0.02093453 0 0 0 0
0.01791200 0.06646381 -0.03004730 0 0 0 0
0.00118036 -0.08386834 0.02868612 0 0 0 0
0.01993818 0.07217984 0.01819625 0 0 0 0
-0.03414065 0.01115744 -0.07218628 0 0 0 0
0.03574121 -0.00966468 -0.07209311 0 0 0 0
-0.02744532 -0.01188219 -0.07724251 0 0 0 0
-0.04293067 -0.05382064 0.00876796 0 0 0 0
0.06545694 0.03208261 -0.00688934 0 0 0 0
0.06276030 -0.01927844 -0.03304622 0 0 0 0
-0.02181858 -0.06493516 0.02624330 0 0 0 0
-0.06137263 0.03494751 -0.00987363 0 0 0 0
-0.02541217 0.02249475 0.07020007 0 0 0 0
-0.04229660 -0.02447127 -0.05143888 0 0 0 0
-0.05499884 -0.03031070 -0.02842338 0 0 0 0
-0.05513279 -0.00510846 -0.05832481 0 0 0 0
-0.01521419 0.07804372 0.01602394 0 0 0 0
0.00101796 -0.09659521 -0.00724522 0 0 0 0
-0.08955537 -0.00590456 -0.01197881 0 0 0 0
0.03813457 -0.00375208 -0.07513484 0 0 0 0
-0.00112513 -0.00707271 -0.09714510 0 0 0 0
-0.01412842 -0.02550898 0.07687697 0 0 0 0
-0.07889664 0.01980694 -0.00393530 0 0 0 0
-0.02990026 -0.06145920 -0.01898035 0 0 0 0
-0.05120926 0.01273521 -0.05443946 0 0 0 0
0.01815166 0.08034816 -0.00455384 0 0 0 0
0.03826997 0.06075693 -0.00295386 0 0 0 0
-0.01931030 0.06946016 -0.02363814 0 0 0 0
-0.00220542 0.03304014 -0.08052306 0 0 0 0
-0.00995824 -0.00852543 0.09175582 0 0 0 0
-0.01424437 -0.04996794 0.05438732 0 0 0 0
0.04292554 -0.03762522 0.03531111 0 0 0 0
-0.03632716 -0.04283495 -0.03673748 0 0 0 0
-0.06245829 -0.03049542 -0.01635984 0 0 0 0
0.05338990 0.01648254 0.04808866 0 0 0 0
-0.00578587 -0.00372848 -0.09646703 0 0 0 0
-0.01384318 -0.04006005 -0.06446781 0 0 0 0
0.01280625 -0.06150188 0.04278097 0 0 0 0
0.06353072 -0.03585414 -0.00237334 0 0 0 0
0.04867391 -0.03172533 -0.03521261 0 0 0 0
-0.01074539 -0.03366819 -0.07295078 0 0 0 0
-0.05011428 -0.04565067 -0.01106545 0 0 0 0
0.04103375 -0.04127600 -0.03257105 0 0 0 0
0.04062196 0.02172019 0.05622783 0 0 0 0
0.00562352 -0.06397428 0.04841731 0 0 0 0
-0.00687587 -0.05642085 -0.05532448 0 0 0 0
0.01755922 0.08135699 -0.00328986 0 0 0 0
0.04059393 -0.03500129 -0.04131448 0 0 0 0
-0.03490179 0.05949795 0.01365229 0 0 0 0
-0.02260454 0.01065930 -0.08190049 0 0 0 0
-0.02512748 0.00742994 -0.08232881 0 0 0 0
0.04452060 -0.01423327 0.05975921 0 0 0 0
-0.00639506 -0.00828213 -0.09384551 0 0 0 0
-0.03011973 0.02779070 -0.06077026 0 0 0 0
0.08131744 0.00039320 0.03380852 0 0 0 0
0.04676852 0.04736749 -0.01441644 0 0 0 0
-0.04050841 0.05359880 -0.01446379 0 0 0 0
-0.01248938 -0.04995215 -0.05628177 0 0 0 0
-0.00255584 -0.06829809 -0.04686497 0 0 0 0
-0.06104530 -0.02950334 -0.02031314 0 0 0 0
0.02590470 -0.00497848 -0.08355520 0 0 0 0
-0.04837119 0.03676074 -0.02907707 0 0 0 0
0.09490078 0.00068080 -0.01074928 0 0 0 0
0.06760408 0.01832168 0.02748536 0 0 0 0
-0.05011028 0.01081463 -0.05797946 0 0 0 0
-0.04241891 -0.02627090 -0.04928748 0 0 0 0
-0.01462447 -0.06293081 0.03889546 0 0 0 0
-0.02325221 0.05394499 0.03932394 0 0 0 0
0.00985474 -0.01512640 -0.08765750 0 0 0 0
0.04702277 0.04953140 -0.00962325 0 0 0 0
0.02690076 0.01135441 -0.07804815 0 0 0 0
0.04605665 0.02230851 0.04989227 0 0 0 0
0.01838613 0.00657548 -0.08789848 0 0 0 0
0.01469657 0.00454185 -0.09120795 0 0 0 0
-0.05254600 -0.03715147 -0.02215309 0 0 0 0
-0.07122625 0.01000206 -0.03408614 0 0 0 0
0.01256769 0.08218529 0.01291858 0 0 0 0
0.03035764 0.02162302 -0.06641044 0 0 0 0
-0.04955040 -0.00593854 -0.06331084 0 0 0 0
0.00802246 0.04173929 -0.06832828 0 0 0 0
0.03674366 0.03993941 -0.04033985 0 0 0 0
0.05920308 -0.02149099 0.03513963 0 0 0 0
-0.00100202 -0.05307425 0.06436265 0 0 0 0
-0.01774275 0.07180069 0.02205840 0 0 0 0
0.07695402 0.01362344 0.02050726 0 0 0 0
0.07733484 -0.01657629 -0.01445310 0 0 0 0
-0.03367370 0.00065708 -0.08099651 0 0 0 0
0.01243827 -0.07642864 0.02307329 0 0 0 0
-0.00797019 0.03068868 -0.07774486 0 0 0 0
-0.02067663 0.07256926 -0.01587958 0 0 0 0
-0.04061449 0.03362417 0.04286411 0 0 0 0
0.01267654 -0.01780539 -0.08388811 0 0 0 0
-0.03067018 0.06554352 -0.01013413 0 0 0 0
0.03936502 0.04696047 -0.02725487 0 0 0 0
0.06434526 -0.03289944 0.00774314 0 0 0 0
-0.05506423 0.01491655 -0.04810628 0 0 0 0
-0.02251167 0.05145062 0.04319479 0 0 0 0
0.03828280 0.05841277 -0.00936485 0 0 0 0
0.05533017 -0.02088111 0.04050368 0 0 0 0
0.03156585 -0.02281350 0.06406438 0 0 0 0
0.02275769 0.04244234 0.05341525 0 0 0 0
-0.03555169 0.04046742 -0.04108309 0 0 0 0
-0.00805057 -0.08596326 -0.01461727 0 0 0 0
-0.07257083 -0.00755231 -0.03559437 0 0 0 0
0.00542096 -0.04493986 -0.06781049 0 0 0 0
-0.02876622 0.00514109 -0.08131465 0 0 0 0
0.02637169 -0.05276663 -0.03695603 0 0 0 0
-0.03725614 0.01129620 -0.06940616 0 0 0 0
-0.00171525 0.08218408 0.03047608 0 0 0 0
0.00176245 -0.03111544 0.08233466 0 0 0 0
-0.04469493 0.05392836 -0.00417903 0 0 0 0
-0.00224656 -0.01690857 -0.09150151 0 0 0 0
0.00588583 0.03598534 -0.07533149 0 0 0 0
-0.04348478 -0.05074654 0.01400211 0 0 0 0
-0.00528285 0.06374880 -0.04910209 0 0 0 0
-0.05020414 -0.03769466 -0.02484336 0 0 0 0
0.01315495 -0.06145084 -0.04258411 0 0 0 0
-0.00285799 0.05441540 -0.06143863 0 0 0 0
-0.00611100 0.09190792 0.00613505 0 0 0 0
-0.02097118 0.05717172 -0.03804532 0 0 0 0
-0.00473863 0.09462626 -0.00192790 0 0 0 0
-0.02316303 -0.04019952 -0.05505000 0 0 0 0
-0.02602296 -0.02300369 0.06929599 0 0 0 0
0.05508571 -0.01060261 0.05293471 0 0 0 0
-0.01688476 -0.07146957 0.02384222 0 0 0 0
0.02223105 0.07695342 0.00179195 0 0 0 0
0.02369723 0.05752759 -0.03409063 0 0 0 0
0.00544110 0.03535693 -0.07613773 0 0 0 0
0.05410128 -0.03881384 -0.01642325 0 0 0 0
0.02319822 0.05159823 0.04219665 0 0 0 0
0.07805191 -0.00685801 -0.02936194 0 0 0 0
0.00337121 0.06437913 0.05062795 0 0 0 0
0.02714282 0.06894025 -0.01048412 0 0 0 0
-0.02377872 -0.07364406 -0.00782320 0 0 0 0
-0.03415129 0.01833888 -0.06577192 0 0 0 0
0.03130588 0.06542797 0.00880420 0 0 0 0
0.02154985 0.04365378 -0.05311837 0 0 0 0
-0.03053576 -0.03177979 0.05625401 0 0 0 0
0.04416788 0.04293102 -0.02594932 0 0 0 0
-0.05051513 -0.04302378 -0.01513328 0 0 0 0
0.05543097 -0.04240444 -0.00616529 0 0 0 0
-0.01917177 -0.07702173 -0.01018353 0 0 0 0
0.00543984 0.01663888 -0.08956553 0 0 0 0
0.02878387 -0.04578212 0.04247242 0 0 0 0
0.01768634 -0.02285398 0.07614794 0 0 0 0
0.03929309 0.04051764 -0.03602633 0 0 0 0
-0.07702754 -0.01888339 -0.01079869 0 0 0 0
-0.01320589 0.07107957 0.02994599 0 0 0 0
-0.00828784 0.08068316 0.02291713 0 0 0 0
0.04680293 -0.04596779 -0.01653705 0 0 0 0
-0.04774147 0.01515877 0.05567858 0 0 0 0
-0.00030929 0.03575918 0.07973959 0 0 0 0
-0.02188558 -0.07741510 0.00101026 0 0 0 0
-0.08128045 0.00425596 0.02806942 0 0 0 0
-0.06342821 0.03360201 -0.00813585 0 0 0 0
0.02347402 0.04904598 0.04492062 0 0 0 0
0.00132986 0.05470496 0.06243516 0 0 0 0
0.01150563 -0.07958040 -0.01961567 0 0 0 0
-0.04781729 -0.04710387 -0.01312588 0 0 0 0
-0.03701022 -0.03614450 -0.04428947 0 0 0 0
0.02483578 0.05234946 -0.03965645 0 0 0 0
0.05595513 0.00648572 -0.05628254 0 0 0 0
0.03885483 -0.00686934 -0.07201628 0 0 0 0
0.00364746 -0.09579788 0.00003719 0 0 0 0
-0.01102632 0.05412222 0.05346593 0 0 0 0
-0.03445394 -0.03201035 0.05216683 0 0 0 0
0.02987393 -0.06806967 -0.00590052 0 0 0 0
-0.06591459 0.01150231 -0.03897693 0 0 0 0
-0.02724115 0.00382252 -0.08345105 0 0 0 0
0.00277227 -0.07440224 -0.03967129 0 0 0 0
0.05337276 0.02053813 -0.04344302 0 0 0 0
0.04201822 0.01777625 -0.05903078 0 0 0 0
-0.05396703 -0.03830968 -0.01743983 0 0 0 0
-0.03707967 0.01100922 -0.06977416 0 0 0 0
-0.00130253 -0.04332913 0.07284455 0 0 0 0
-0.00749981 0.09025131 0.00669130 0 0 0 0
0.04415221 -0.04897902 0.01628706 0 0 0 0
-0.02792440 0.02177222 0.06867286 0 0 0 0
-0.08152756 0.01726781 -0.00381599 0 0 0 0
0.08370672 0.00481977 -0.02363702 0 0 0 0
0.05462946 -0.02675099 -0.03389092 0 0 0 0
-0.00794711 0.09160787 -0.00070032 0 0 0 0
-0.07144506 -0.00380283 -0.04194639 0 0 0 0
0.09631845 0.00166838 0.00620171 0 0 0 0
-0.00086032 -0.08553575 0.02677982 0 0 0 0
0.04210388 0.00553125 -0.07025265 0 0 0 0
0.02625254 -0.06850655 0.01290589 0 0 0 0
0.04398372 0.04924791 0.01607851 0 0 0 0
0.05509682 0.00731390 0.05616034 0 0 0 0
-0.00613005 -0.07637946 -0.03244212 0 0 0 0
0.09512115 0.00274757 -0.00608381 0 0 0 0
0.00788415 -0.00714701 -0.09364082 0 0 0 0
0.08475675 -0.00573992 -0.02039858 0 0 0 0
0.02930782 0.06816450 -0.00767280 0 0 0 0
-0.05658071 -0.03335711 -0.02171387 0 0 0 0
-0.00353690 0.04124851 -0.07262941 0 0 0 0
0.02803164 -0.06394584 -0.01798664 0 0 0 0
-0.06471913 -0.01459975 0.03678516 0 0 0 0
0.00102386 -0.02623622 -0.08630865 0 0 0 0
-0.00927438 -0.05881203 0.05022581 0 0 0 0
-0.01709474 0.07812125 -0.01206861 0 0 0 0
0.02244289 0.00344142 -0.08702973 0 0 0 0
0.05288418 0.02693704 0.03618406 0 0 0 0
-0.02014636 0.05056107 -0.04734390 0 0 0 0
-0.05279471 0.02287993 0.04114582 0 0 0 0
-0.02544923 0.06292994 0.02380497 0 0 0 0
-0.04632895 -0.02011419 -0.05180238 0 0 0 0
-0.00097155 -0.05169628 0.06574877 0 0 0 0
0.00445127 -0.08506493 -0.02201017 0 0 0 0
-0.03074335 -0.06815448 0.00371996 0 0 0 0
0.01550568 0.06006636 0.04126858 0 0 0 0
-0.04731276 0.03496252 -0.03261871 0 0 0 0
0.03333827 0.05882615 -0.01764503 0 0 0 0
0.00944182 -0.08690722 -0.00980289 0 0 0 0
-0.05027542 0.02823066 -0.03783021 0 0 0 0
-0.04752700 0.03394341 0.03416889 0 0 0 0
0.08127076 -0.00788486 -0.02260288 0 0 0 0
-0.05661622 -0.01985066 -0.04058185 0 0 0 0
-0.08499612 -0.00913864 -0.01404443 0 0 0 0
-0.04722826 0.03569350 -0.03172486 0 0 0 0
0.01657965 0.02814313 0.07277099 0 0 0 0
-0.04754030 0.01434871 -0.05659601 0 0 0 0
0.00928646 0.07099252 0.03563632 0 0 0 0
0.04737209 0.03456683 0.03346608 0 0 0 0
-0.03559935 0.03929003 -0.04222021 0 0 0 0
-0.00811600 -0.00021615 -0.09706129 0 0 0 0
-0.03508976 0.06454203 -0.00121696 0 0 0 0
-0.00491509 0.03030843 0.08044079 0 0 0 0
-0.05087923 0.04578829 0.00894198 0 0 0 0
-0.09126830 0.00463181 -0.01081846 0 0 0 0
-0.08695281 0.00236860 0.02239149 0 0 0 0
0.09914280 0.00003766 -0.00248775 0 0 0 0
-0.00364937 0.07831146 -0.03314619 0 0 0 0
-0.03089435 0.05003154 0.03486223 0 0 0 0
0.08809385 -0.00717259 -0.01245235 0 0 0 0
-0.03799978 0.01400989 0.06639648 0 0 0 0
-0.03947905 -0.05065651 0.02117017 0 0 0 0
0.01320062 -0.02032232 -0.08172040 0 0 0 0
0.03691785 0.04423608 -0.03416914 0 0 0 0
0.01518424 -0.01576876 -0.08350666 0 0 0 0
-0.05664013 -0.04004186 -0.00898808 0 0 0 0
0.03453384 0.02423516 0.05974432 0 0 0 0
-0.04457630 -0.01613171 -0.05783509 0 0 0 0
0.03052866 -0.04605318 -0.04004846 0 0 0 0
-0.02147700 -0.01936087 -0.07604132 0 0 0 0
-0.05307173 -0.04194169 -0.01243879 0 0 0 0
0.01191519 0.07243332 -0.02975216 0 0 0 0
0.03948221 -0.04258117 -0.03291170 0 0 0 0
-0.06325544 0.03415926 -0.00719490 0 0 0 0
0.01981090 -0.06202337 -0.03322846 0 0 0 0
0.00371205 0.07087360 -0.04268768 0 0 0 0
-0.00015008 -0.02374687 0.08830340 0 0 0 0
-0.01402930 -0.03228254 -0.07131009 0 0 0 0
-0.03742595 0.04404508 -0.03373070 0 0 0 0
0.07135548 0.01631906 -0.02503739 0 0 0 0
0.07195266 0.00188844 -0.04352115 0 0 0 0
0.03052728 -0.05416917 -0.02927107 0 0 0 0
0.00967367 -0.08623341 0.01052147 0 0 0 0
0.04131610 0.01292294 -0.06445848 0 0 0 0
-0.06926050 -0.00538378 0.04237874 0 0 0 0
0.02982929 -0.06642145 -0.01004346 0 0 0 0
0.06910564 0.02874753 0.00647933 0 0 0 0
-0.03739465 -0.00873144 -0.07164533 0 0 0 0
-0.01115411 -0.02934806 -0.07636000 0 0 0 0
0.03965398 0.05025790 -0.02176128 0 0 0 0
0.00507522 0.05362319 -0.06004233 0 0 0 0
-0.05244051 -0.04586040 0.00554935 0 0 0 0
-0.05476581 -0.02967353 0.02971515 0 0 0 0
0.09370060 -0.00596195 -0.00169374 0 0 0 0
-0.03207704 0.04928533 0.03433096 0 0 0 0
-0.03871310 -0.02648545 0.05341671 0 0 0 0
-0.00114635 -0.01671633 -0.09200348 0 0 0 0
0.05832871 0.03145025 -0.02200421 0 0 0 0
0.03869685 -0.05698559 -0.01121621 0 0 0 0
-0.03943548 -0.01042383 -0.06824396 0 0 0 0
0.00291971 0.03217735 -0.08042081 0 0 0 0
0.08064882 0.00653423 0.02559928 0 0 0 0
0.00725300 -0.06440662 0.04595015 0 0 0 0
-0.03199134 -0.06070428 0.01719184 0 0 0 0
-0.00401992 0.08566086 -0.02173967 0 0 0 0
-0.01624787 -0.06319707 0.03663432 0 0 0 0
0.03302383 0.06017520 -0.01575438 0 0 0 0
-0.05211224 0.03731792 -0.02264156 0 0 0 0
-0.02907918 0.02053691 -0.06845418 0 0 0 0
-0.02615028 -0.06859940 -0.01340774 0 0 0 0
-0.02065399 0.03880689 -0.05933864 0 0 0 0
-0.01659457 -0.02080151 -0.07869358 0 0 0 0
0.02925027 -0.04450413 -0.04367660 0 0 0 0
-0.06074975 -0.00940578 -0.04792294 0 0 0 0
0.03115698 0.02413488 -0.06318624 0 0 0 0
-0.07477306 0.01481252 0.02199521 0 0 0 0
0.02428857 0.05023088 -0.04269490 0 0 0 0
-0.00721987 -0.06458019 0.04578210 0 0 0 0
-0.02713388 0.06866991 -0.01099447 0 0 0 0
0.03261001 -0.02006990 0.06573688 0 0 0 0
-0.07630955 0.01129350 -0.02515491 0 0 0 0
-0.00932736 -0.06352396 -0.04483544 0 0 0 0
0.04379461 -0.04353524 0.02537906 0 0 0 0
0.03676968 -0.05444048 -0.01922578 0 0 0 0
-0.02533226 -0.00808219 0.08190145 0 0 0 0
0.01220315 -0.02199150 -0.08125351 0 0 0 0
-0.06801746 -0.01104471 -0.03686572 0 0 0 0
-0.02226014 -0.03243578 -0.06373624 0 0 0 0
0.00092750 0.00871734 -0.09657710 0 0 0 0
-0.00862278 0.08506780 -0.01485613 0 0 0 0
-0.04797434 -0.04538530 -0.01546089 0 0 0 0
-0.05140338 0.01711595 0.04970777 0 0 0 0
-0.01651207 -0.06625356 -0.03211347 0 0 0 0
0.05501987 0.02599705 -0.03435857 0 0 0 0
0.03970304 0.02863819 -0.04982647 0 0 0 0
-0.00181543 -0.07819045 -0.03565477 0 0 0 0
0.02711755 -0.05729480 0.02975565 0 0 0 0
0.01251096 0.02403164 0.07937574 0 0 0 0
0.06987420 0.00159579 -0.04617536 0 0 0 0
0.04874781 0.02617718 0.04204285 0 0 0 0
-0.03694408 -0.04473031 -0.03351375 0 0 0 0
0.07152268 -0.02773687 0.00128690 0 0 0 0
0.03011480 -0.01508275 -0.07250230 0 0 0 0
0.00719246 -0.03554813 -0.07467829 0 0 0 0
-0.02390024 -0.07542001 0.00087851 0 0 0 0
-0.04750627 -0.00109075 0.06964288 0 0 0 0
-0.06196477 -0.02057234 0.03256873 0 0 0 0
-0.03542181 -0.04188868 -0.03948327 0 0 0 0
0.06648748 -0.01629504 0.03220057 0 0 0 0
-0.02034722 0.07814160 -0.00458721 0 0 0 0
-0.06858540 0.01059103 -0.03671911 0 0 0 0
0.07911690 0.01345322 -0.01690365 0 0 0 0
-0.02497989 -0.04176148 0.05183527 0 0 0 0
0.04831462 0.02746837 -0.04134740 0 0 0 0
0.07449213 -0.01122642 -0.02785787 0 0 0 0
0.00469661 -0.06491442 -0.04825626 0 0 0 0
-0.01471598 0.07116234 -0.02798990 0 0 0 0
0.00755073 -0.06385017 -0.04661632 0 0 0 0
-0.00792097 -0.04697690 -0.06354986 0 0 0 0
-0.04624796 -0.04089560 -0.02591018 0 0 0 0
0.05315564 0.01056991 -0.05484444 0 0 0 0
0.02531333 0.03601259 -0.05753058 0 0 0 0
-0.01236890 0.01792889 -0.08396208 0 0 0 0
0.07048321 -0.01312405 -0.03077706 0 0 0 0
0.00789414 -0.02804379 -0.08004182 0 0 0 0
-0.04967868 0.01186194 0.05701663 0 0 0 0
0.00195245 -0.02370264 -0.08749747 0 0 0 0
-0.05930538 0.02129759 -0.03493093 0 0 0 0
0.00293745 -0.07279827 0.04107273 0 0 0 0
-0.02227897 -0.03341186 -0.06309901 0 0 0 0
-0.00167765 0.06322791 -0.05343110 0 0 0 0
-0.01214435 -0.01671944 0.08513572 0 0 0 0
-0.00959589 0.03953543 0.06921148 0 0 0 0
0.03855494 0.06044823 0.00301138 0 0 0 0
0.03967921 -0.05874567 -0.00478126 0 0 0 0
-0.01981162 0.01473962 -0.08100566 0 0 0 0
0.04254826 -0.04408937 0.02641748 0 0 0 0
-0.00805831 0.08991800 -0.00614294 0 0 0 0
0.06305342 -0.01224395 0.04159726 0 0 0 0
0.00507940 0.04237515 -0.07041930 0 0 0 0
0.01259476 0.07661913 0.02255278 0 0 0 0
0.00416692 -0.08530967 -0.02207528 0 0 0 0
0.04957615 0.02815274 -0.03857658 0 0 0 0
-0.03541986 -0.01261089 0.07010008 0 0 0 0
0.07422299 -0.01009009 -0.03012781 0 0 0 0
0.07138710 0.01958833 -0.01981778 0 0 0 0
0.03200027 -0.03019725 -0.05655491 0 0 0 0
0.04392621 -0.02671447 -0.04741393 0 0 0 0
0.03589997 -0.01673153 -0.06584792 0 0 0 0
-0.02164529 0.07585344 0.00721550 0 0 0 0
-0.06182722 -0.01413751 -0.04114396 0 0 0 0
-0.00776829 -0.03499583 0.07435242 0 0 0 0
0.01674872 -0.08244092 0.00175717 0 0 0 0
0.02507385 0.02340870 -0.06943391 0 0 0 0
-0.01986342 -0.02777592 -0.07016271 0 0 0 0
-0.04238417 -0.04048686 0.03206779 0 0 0 0
-0.03740282 0.04941672 -0.02644277 0 0 0 0
0.07216755 0.02099267 0.01622682 0 0 0 0
0.03932952 -0.02011888 -0.05935016 0 0 0 0
0.03646349 0.03887310 -0.04164635 0 0 0 0
0.02953213 0.05083650 -0.03525493 0 0 0 0
0.06196349 -0.03415415 -0.01042095 0 0 0 0
0.06683956 -0.02173783 0.02350760 0 0 0 0
-0.04192718 -0.05329157 -0.01256906 0 0 0 0
-0.01125701 -0.06267313 -0.04345111 0 0 0 0
0.00687892 -0.06432174 0.04649934 0 0 0 0
-0.07784915 0.02089718 0.00462419 0 0 0 0
-0.00715741 0.07155142 0.03751514 0 0 0 0
0.02349204 -0.06326188 -0.02655065 0 0 0 0
-0.02862412 0.01479005 -0.07414818 0 0 0 0
-0.02021416 -0.07721062 -0.00781712 0 0 0 0
-0.01036169 0.05214608 -0.05594682 0 0 0 0
0.01085629 0.04282037 -0.06467692 0 0 0 0
-0.03260116 -0.05931433 0.01850007 0 0 0 0
-0.00916801 0.01999494 0.08494492 0 0 0 0
0.04048351 -0.01877168 -0.05952848 0 0 0 0
0.01177637 0.06451273 -0.04042410 0 0 0 0
0.00325159 0.06112672 -0.05411374 0 0 0 0
0.01500127 -0.06336413 -0.03775980 0 0 0 0
0.07242262 -0.01181485 0.03001798 0 0 0 0
0.04345930 0.03111976 -0.04261840 0 0 0 0
0.05797530 -0.00075390 -0.06001392 0 0 0 0
-0.02057057 0.00328884 -0.08853583 0 0 0 0
0.07674197 0.02105920 0.00658734 0 0 0 0
-0.00581736 0.08232349 0.02416247 0 0 0 0
0.02014226 -0.06957119 -0.02168596 0 0 0 0
0.00760729 -0.03947749 -0.07076056 0 0 0 0
0.07261471 0.00715965 0.03624014 0 0 0 0
-0.00396011 -0.09365263 -0.00671025 0 0 0 0
0.01409565 -0.02427782 -0.07795927 0 0 0 0
-0.02380272 0.06233297 -0.02756684 0 0 0 0
0.01354077 -0.04304393 0.06189399 0 0 0 0
0.00029123 -0.01454267 -0.09375490 0 0 0 0
0.07284044 0.02522354 -0.00560594 0 0 0 0
0.01253139 -0.08457239 -0.00861889 0 0 0 0
-0.03529491 0.06232636 -0.00722066 0 0 0 0
0.00092930 -0.08240145 0.03137816 0 0 0 0
-0.05204668 0.04503485 0.00808208 0 0 0 0
-0.02695269 -0.04012584 0.05143182 0 0 0 0
-0.07921443 -0.01780686 0.00820719 0 0 0 0
-0.00226792 0.09422433 -0.00941631 0 0 0 0
0.06153768 0.01739263 -0.03724364 0 0 0 0
-0.01810059 -0.07926469 -0.00799774 0 0 0 0
0.00940316 0.08653910 -0.01079842 0 0 0 0
0.02065591 0.05880470 -0.03651042 0 0 0 0
0.05055704 0.03678608 -0.02558217 0 0 0 0
0.02492205 0.07223821 -0.00781759 0 0 0 0
-0.04385038 0.04468986 -0.02395646 0 0 0 0
0.04273174 -0.03448102 -0.03961841 0 0 0 0
-0.05916454 -0.00701434 -0.05209820 0 0 0 0
0.06209370 -0.00564835 -0.05034839 0 0 0 0
0.01079526 -0.03037414 -0.07575478 0 0 0 0
-0.02567957 -0.05766664 -0.03136848 0 0 0 0
0.07228544 0.01229486 -0.02978491 0 0 0 0
0.03747595 0.03634670 -0.04354180 0 0 0 0
0.03195515 -0.04675719 -0.03731463 0 0 0 0
-0.08730488 0.00613953 0.01563656 0 0 0 0
-0.04164572 0.01928285 0.05761899 0 0 0 0
-0.07506346 -0.02400956 0.00254154 0 0 0 0
0.02380009 -0.07517144 0.00322422 0 0 0 0
-0.00502724 -0.06406599 0.04902107 0 0 0 0
-0.00745009 -0.01834745 -0.08709004 0 0 0 0
-0.01893642 -0.05735782 -0.04041751 0 0 0 0
0.06656886 0.00656696 -0.04431063 0 0 0 0
0.02181140 0.05679909 0.03763282 0 0 0 0
0.00074276 -0.05479325 -0.06296092 0 0 0 0
-0.09181246 0.00573734 -0.00686426 0 0 0 0
0.04783743 -0.05201579 -0.00044558 0 0 0 0
0.01629660 0.04631200 -0.05609475 0 0 0 0
0.02347600 0.06876476 0.01801211 0 0 0 0
-0.04609575 -0.00438009 0.06790601 0 0 0 0
-0.02465112 0.04402357 -0.04930440 0 0 0 0
-0.05211459 -0.02475144 -0.04009781 0 0 0 0
-0.05582678 -0.03028693 -0.02731150 0 0 0 0
0.00714197 0.06024835 -0.05082414 0 0 0 0
-0.03463987 0.06284764 0.00723880 0 0 0 0
-0.04232394 0.01584938 -0.06052694 0 0 0 0
0.08505049 0.00769631 -0.01669993 0 0 0 0
-0.06295289 0.03478428 -0.00686887 0 0 0 0
0.06846464 -0.02408360 0.01749796 0 0 0 0
-0.08865608 0.00777733 -0.00984390 0 0 0 0
0.03546146 0.04455430 -0.03564209 0 0 0 0
-0.02835682 -0.05044677 -0.03719753 0 0 0 0
0.05908743 0.03677915 -0.01098362 0 0 0 0
0.03142417 0.00987765 -0.07575923 0 0 0 0
-0.01811967 0.04192867 -0.05879648 0 0 0 0
-0.03057768 -0.00338958 -0.08141156 0 0 0 0
0.04933865 0.01564166 -0.05335268 0 0 0 0
0.03733175 0.05344312 -0.01994128 0 0 0 0
0.04324427 -0.04636181 -0.02232011 0 0 0 0
0.01298761 -0.07524009 -0.02438859 0 0 0 0
-0.04871779 0.04978281 -0.00455147 0 0 0 0
-0.08851419 -0.01023487 -0.00379724 0 0 0 0
-0.06130191 -0.02974035 -0.01950176 0 0 0 0
0.04438405 0.04257363 0.02593734 0 0 0 0
0.09626647 0.00313363 0.00034147 0 0 0 0
-0.03617778 -0.06347747 -0.00137479 0 0 0 0
0.00299982 -0.01178022 0.09404178 0 0 0 0
-0.00126018 0.02557288 -0.08637028 0 0 0 0
0.01394814 0.03825469 -0.06603712 0 0 0 0
-0.00100104 -0.06882717 -0.04826636 0 0 0 0
0.09375170 -0.00210508 -0.01100760 0 0 0 0
-0.03765304 0.02593828 -0.05499470 0 0 0 0
-0.00719222 -0.05908201 0.05235808 0 0 0 0
0.02924623 0.05700255 0.02700079 0 0 0 0
-0.05820598 0.04065765 -0.00344948 0 0 0 0
-0.07265391 -0.02295202 -0.01135603 0 0 0 0
-0.02111190 -0.03139782 0.06590436 0 0 0 0
-0.00134550 -0.00851090 -0.09649907 0 0 0 0
-0.02084850 0.05307065 -0.04346519 0 0 0 0
-0.03158513 -0.01611971 -0.07018832 0 0 0 0
-0.01380918 -0.03877675 0.06582937 0 0 0 0
-0.04721186 -0.04978383 -0.00822035 0 0 0 0
-0.06934968 -0.01432047 -0.03069010 0 0 0 0
-0.02743781 0.04974794 0.03933764 0 0 0 0
-0.00358483 -0.04644288 -0.06809841 0 0 0 0
0.03374735 0.05425520 -0.02469990 0 0 0 0
0.04746072 -0.04992751 -0.00725970 0 0 0 0
0.00532340 0.05108399 0.06206849 0 0 0 0
0.01046783 -0.06315871 0.04359657 0 0 0 0
0.05049323 -0.00978126 0.05826270 0 0 0 0
0.04346842 0.03327715 0.03986435 0 0 0 0
0.00820224 -0.02875221 -0.07902537 0 0 0 0
-0.04900187 -0.01308185 -0.05668230 0 0 0 0
-0.00102108 -0.06465507 -0.05260428 0 0 0 0
0.03903307 -0.00169398 0.07599718 0 0 0 0
0.01650049 0.02338532 0.07667640 0 0 0 0
-0.04145760 -0.04276454 -0.02992689 0 0 0 0
-0.00197162 -0.07673832 -0.03731770 0 0 0 0
0.07077264 0.02160870 -0.01730066 0 0 0 0
0.00880346 0.06934790 -0.03803447 0 0 0 0
0.03607728 -0.04011644 -0.04054649 0 0 0 0
0.00744499 -0.08773141 0.01203912 0 0 0 0
0.05171015 0.01945650 0.04654003 0 0 0 0
0.06162880 0.01933746 0.03481393 0 0 0 0
-0.00803632 -0.06459305 -0.04487755 0 0 0 0
-0.01583854 -0.04660459 -0.05601463 0 0 0 0
0.06073719 -0.02120297 -0.03317272 0 0 0 0
0.04576349 -0.04458331 -0.02064491 0 0 0 0
0.00873057 0.04947917 0.06029472 0 0 0 0
0.01581430 -0.07533701 0.01964642 0 0 0 0
-0.07641774 -0.02061833 -0.00812154 0 0 0 0
0.04539081 0.01243519 -0.06085883 0 0 0 0
0.06485806 0.03274260 -0.00728325 0 0 0 0
0.03026920 0.01617083 0.07138446 0 0 0 0
-0.05921216 -0.01245577 0.04594021 0 0 0 0
-0.04367308 -0.05045696 -0.01442626 0 0 0 0
-0.03825959 0.05764558 0.01052544 0 0 0 0
0.01600635 -0.08357585 -0.00088339 0 0 0 0
0.00875967 0.04865464 -0.06129078 0 0 0 0
-0.08570252 0.01320216 0.00367391 0 0 0 0
0.02656148 -0.00661149 -0.08186636 0 0 0 0
0.02448963 -0.04820737 0.04470883 0 0 0 0
0.03972112 0.00496541 -0.07297392 0 0 0 0
-0.02085003 0.04029854 -0.05737286 0 0 0 0
-0.01354850 0.06104368 0.04244108 0 0 0 0
-0.00124339 -0.00061713 -0.09944834 0 0 0 0
0.00888965 -0.08931604 -0.00525912 0 0 0 0
-0.02910891 0.06968904 0.00439188 0 0 0 0
0.00578577 0.01171523 -0.09235348 0 0 0 0
-0.03458809 -0.04177744 0.04031910 0 0 0 0
-0.03012320 -0.05043034 -0.03499927 0 0 0 0
0.06956317 0.02958975 -0.00294099 0 0 0 0
-0.04363608 0.02942193 -0.04439772 0 0 0 0
-0.04485204 0.05290475 -0.00680929 0 0 0 0
-0.05164655 -0.03345419 -0.02871208 0 0 0 0
0.05245798 -0.03546174 0.02449418 0 0 0 0
-0.01209024 0.03714631 -0.06878221 0 0 0 0
0.01228288 0.05752541 0.04816543 0 0 0 0
0.02520158 0.03439143 -0.05921672 0 0 0 0
0.03919447 0.02452008 0.05487718 0 0 0 0
0.00158668 0.05149360 -0.06522731 0 0 0 0
-0.05926755 0.01549817 0.04223342 0 0 0 0
0.06660248 0.02940241 -0.01064512 0 0 0 0
0.04224368 0.03809676 -0.03529391 0 0 0 0
-0.05303764 -0.00012294 0.06496710 0 0 0 0
0.04903683 0.02511476 0.04296828 0 0 0 0
-0.04058288 0.02497276 0.05306528 0 0 0 0
0.02448888 0.02029645 0.07272048 0 0 0 0
-0.04644524 0.01899979 -0.05291966 0 0 0 0
-0.00375493 -0.07921748 -0.03165483 0 0 0 0
-0.05841424 0.02093007 -0.03650368 0 0 0 0
0.04936444 -0.01668406 -0.05224415 0 0 0 0
-0.04716468 0.04022583 -0.02550426 0 0 0 0
0.02763089 -0.06659878 0.01400554 0 0 0 0
-0.07655890 -0.00171828 -0.03787301 0 0 0 0
-0.01144287 0.02988307 -0.07561947 0 0 0 0
0.07351775 -0.00250388 -0.04076732 0 0 0 0
-0.01800924 -0.04479638 -0.05587421 0 0 0 0
0.05947599 0.03170695 -0.01943856 0 0 0 0
0.00125872 -0.09795871 0.00157017 0 0 0 0
0.04917458 0.00837701 -0.06114674 0 0 0 0
0.01102768 -0.05509470 0.05250753 0 0 0 0
0.01234155 -0.06853412 -0.03455389 0 0 0 0
-0.03158167 -0.03345696 0.05357409 0 0 0 0
0.02647566 -0.01633677 0.07431342 0 0 0 0
0.05259432 0.04631373 -0.00354023 0 0 0 0
0.03719132 -0.03194575 0.04896860 0 0 0 0
0.05586366 -0.03559280 -0.01882092 0 0 0 0
-0.04679520 0.02922386 0.04073370 0 0 0 0
0.02866119 -0.04646096 -0.04192152 0 0 0 0
0.07462213 -0.01691598 -0.01878952 0 0 0 0
0.04151259 0.02195567 -0.05493909 0 0 0 0
0.03048247 0.04373760 0.04288634 0 0 0 0
-0.02277624 -0.05429462 0.03947513 0 0 0 0
-0.07267947 0.00833897 -0.03435545 0 0 0 0
-0.01806948 0.04094634 -0.05974939 0 0 0 0
0.00050129 0.01536701 -0.09319441 0 0 0 0
-0.03922994 0.02107841 -0.05825440 0 0 0 0
-0.00710473 0.02340489 -0.08386731 0 0 0 0
0.02110803 0.07248551 -0.01503348 0 0 0 0
0.02080644 0.07709960 -0.00599247 0 0 0 0
-0.03534626 0.02644433 -0.05669928 0 0 0 0
-0.00651182 0.01011030 -0.09280615 0 0 0 0
0.06522311 -0.02946872 -0.01302647 0 0 0 0
0.06831764 -0.02406307 0.01780218 0 0 0 0
0.01466822 -0.04950032 -0.05420437 0 0 0 0
0.00847345 -0.01509296 -0.08864082 0 0 0 0
0.02975488 0.06298313 0.01710380 0 0 0 0
0.04369119 0.02914939 0.04453703 0 0 0 0
-0.02670148 -0.03085701 -0.06109437 0 0 0 0
-0.05436391 -0.01360263 -0.05009710 0 0 0 0
0.00762983 0.04960115 0.06125796 0 0 0 0
-0.00013379 -0.09891743 0.00268818 0 0 0 0
0.03815857 0.04163684 -0.03604750 0 0 0 0
0.00406371 -0.02041347 0.08793335 0 0 0 0
-0.01701889 -0.08184646 0.00393847 0 0 0 0
0.02977505 -0.01456342 -0.07301570 0 0 0 0
-0.06652064 0.01412477 -0.03487225 0 0 0 0
0.00287602 0.08703098 -0.02177021 0 0 0 0
0.01093648 0.05338865 -0.05404008 0 0 0 0
0.02263843 0.02684907 -0.06854309 0 0 0 0
0.04727176 -0.02751255 0.04221118 0 0 0 0
-0.00416484 0.02109331 -0.08772700 0 0 0 0
-0.03121855 -0.04061548 0.04574145 0 0 0 0
0.00169304 -0.01753155 -0.09121595 0 0 0 0
0.04067694 0.05826769 -0.00345071 0 0 0 0
0.03223015 0.01885232 0.06730900 0 0 0 0
-0.05641248 0.03865137 -0.01289134 0 0 0 0
-0.03429357 -0.03012473 0.05418459 0 0 0 0
-0.06519075 -0.01023945 -0.04152622 0 0 0 0
0.07472487 0.02234234 -0.00804534 0 0 0 0
-0.06045813 0.00511447 -0.05277686 0 0 0 0
-0.01330615 0.05803109 0.04633590 0 0 0 0
-0.01471358 0.00666376 -0.08997110 0 0 0 0
0.02717169 0.04617446 0.04393207 0 0 0 0
-0.01466219 -0.01261560 -0.08606117 0 0 0 0
-0.00412863 0.09007059 -0.01392664 0 0 0 0
-0.02699784 -0.00531632 0.08278983 0 0 0 0
-0.00299748 0.09567226 -0.00403802 0 0 0 0
-0.08093823 -0.00511718 -0.02739211 0 0 0 0
-0.02004212 0.07400785 0.01437878 0 0 0 0
0.02827978 -0.05478290 -0.03153001 0 0 0 0
0.02429075 0.03076032 -0.06375664 0 0 0 0
0.04271973 0.03277449 -0.04167065 0 0 0 0
-0.06717375 -0.01585083 0.03183746 0 0 0 0
-0.06622280 -0.00194359 -0.05000990 0 0 0 0
-0.05630055 -0.01018995 -0.05176822 0 0 0 0
-0.07656620 0.00641174 0.03190743 0 0 0 0
-0.02340708 0.06922318 0.01732758 0 0 0 0
-0.00133578 0.04740370 -0.06921184 0 0 0 0
0.02962715 -0.00574021 0.08032465 0 0 0 0
-0.03649356 -0.06151210 0.00616259 0 0 0 0
0.04815802 0.04965709 -0.00663225 0 0 0 0
0.02366624 0.04771734 -0.04627208 0 0 0 0
0.01771110 -0.01971033 0.07866617 0 0 0 0
-0.08177595 -0.00600854 0.02469704 0 0 0 0
-0.08771004 0.01045311 -0.00557576 0 0 0 0
0.04550353 -0.03672162 -0.03268801 0 0 0 0
-0.00719728 -0.08521764 -0.01724545 0 0 0 0
0.04106747 0.04711921 -0.02419556 0 0 0 0
0.05494405 -0.02941505 -0.02973751 0 0 0 0
0.09407976 -0.00213205 -0.01013876 0 0 0 0
-0.06335098 0.03378338 -0.00856301 0 0 0 0
0.01402281 0.01194210 -0.08697371 0 0 0 0
0.05519407 -0.04257802 -0.00632028 0 0 0 0
0.01242912 -0.01655052 -0.08487828 0 0 0 0
0.03443278 -0.05531865 -0.02162354 0 0 0 0
-0.04569260 -0.03247283 -0.03830121 0 0 0 0
0.02127627 -0.07396519 -0.01251347 0 0 0 0
0.08703120 -0.00351249 -0.02060672 0 0 0 0
-0.02897247 0.04576751 0.04226422 0 0 0 0
0.05950023 0.00973312 -0.04867904 0 0 0 0
0.00843621 0.07007106 -0.03782855 0 0 0 0
0.02570940 -0.07366924 0.00048583 0 0 0 0
-0.02654187 0.05520658 -0.03341872 0 0 0 0
-0.04084293 -0.03616511 -0.03990147 0 0 0 0
0.03625738 -0.05849057 0.01292904 0 0 0 0
-0.00674683 0.07915515 -0.02760425 0 0 0 0
0.00075719 -0.01875285 0.09110124 0 0 0 0
-0.00718133 0.01396829 0.09005557 0 0 0 0
0.03870764 0.05429872 0.01654642 0 0 0 0
0.02370792 0.04799622 0.04589688 0 0 0 0
0.03522070 0.05751019 -0.01660988 0 0 0 0
0.05742176 -0.03124410 -0.02378276 0 0 0 0
-0.00711662 -0.09114213 -0.00512924 0 0 0 0
-0.01327708 -0.01494290 -0.08540629 0 0 0 0
0.06656809 -0.00591405 -0.04530916 0 0 0 0
0.00298627 0.08677424 0.02173277 0 0 0 0
0.05908483 -0.02910353 -0.02444298 0 0 0 0
-0.00243121 0.02739481 -0.08428998 0 0 0 0
-0.03591311 -0.06220272 -0.00571942 0 0 0 0
-0.00032496 -0.01233228 -0.09484828 0 0 0 0
-0.03133521 0.00996855 -0.07575776 0 0 0 0
0.03235304 -0.04138885 -0.04369266 0 0 0 0
0.08840828 -0.00432689 -0.01671907 0 0 0 0
-0.05436953 -0.02946176 -0.03074602 0 0 0 0
-0.01616158 -0.01518768 -0.08323124 0 0 0 0
0.03967991 0.05735135 -0.00875142 0 0 0 0
0.04072517 0.04571376 -0.02706841 0 0 0 0
-0.03358284 -0.03151906 0.05351184 0 0 0 0
0.00888805 0.02994468 0.07752667 0 0 0 0
0.01430475 -0.07888363 -0.01597410 0 0 0 0
0.05493892 -0.01364615 -0.04957063 0 0 0 0
-0.02457139 0.06970819 0.01390186 0 0 0 0
-0.06020927 -0.02323987 -0.03099568 0 0 0 0
-0.07667155 0.01318738 -0.02185807 0 0 0 0
0.00023192 0.03542568 -0.08020015 0 0 0 0
-0.04434191 -0.04835999 -0.01666284 0 0 0 0
-0.04778656 -0.02062433 -0.04975338 0 0 0 0
0.02292450 0.07484423 -0.00677306 0 0 0 0
-0.00481110 -0.08505142 -0.02185149 0 0 0 0
0.00540923 0.04052509 0.07179277 0 0 0 0
0.01720385 0.08042018 -0.00668262 0 0 0 0
0.00511106 0.03330729 -0.07813255 0 0 0 0
0.01190044 0.08776756 -0.00146056 0 0 0 0
-0.00424253 0.08926538 -0.01518993 0 0 0 0
0.07172693 0.02540966 0.00796770 0 0 0 0
0.01206185 0.05597593 -0.05001736 0 0 0 0
-0.01221394 0.04436768 0.06189702 0 0 0 0
-0.04974430 -0.03796072 -0.02498729 0 0 0 0
-0.00685713 0.06894343 -0.04105099 0 0 0 0
-0.03293614 0.05438324 -0.02564448 0 0 0 0
-0.09232339 0.00562318 -0.00623320 0 0 0 0
-0.09399313 0.00300667 0.00825183 0 0 0 0
0.00404618 -0.02465198 0.08524136 0 0 0 0
0.05640347 -0.00114587 -0.06114911 0 0 0 0
0.07265332 -0.02391832 -0.00959133 0 0 0 0
0.04515861 -0.04795751 -0.01590590 0 0 0 0
0.01414565 -0.02202358 0.07967721 0 0 0 0
-0.02377213 -0.05467132 0.03783269 0 0 0 0
0.03094191 -0.06048004 -0.01887766 0 0 0 0
-0.06993325 0.02309521 -0.01623696 0 0 0 0
0.07565156 0.02023645 -0.01084059 0 0 0 0
-0.07969879 -0.00003685 -0.03613016 0 0 0 0
-0.08637743 0.00435258 -0.02001502 0 0 0 0
0.00117599 0.08572298 0.02602543 0 0 0 0
0.01199245 0.05840400 -0.04737707 0 0 0 0
0.04485887 -0.04864524 -0.01545513 0 0 0 0
-0.07660889 0.01957959 0.00993699 0 0 0 0
0.01125998 -0.07440776 -0.02792813 0 0 0 0
-0.06940550 0.02884134 -0.00532175 0 0 0 0
-0.01212013 -0.01289125 -0.08763647 0 0 0 0
-0.03545938 -0.01146680 -0.07077910 0 0 0 0
0.00035926 0.06921023 -0.04842264 0 0 0 0
-0.02510539 -0.06064976 0.02774128 0 0 0 0
0.00779893 0.09030397 -0.00551067 0 0 0 0
-0.02243271 0.05114500 -0.04381598 0 0 0 0
0.01568768 0.04412181 -0.05877780 0 0 0 0
0.01188918 0.00028680 0.09520343 0 0 0 0
-0.04112814 0.05620820 -0.00808555 0 0 0 0
0.00041920 -0.08942242 0.02139327 0 0 0 0
0.01401619 0.08330812 0.00757779 0 0 0 0
0.02518537 0.00062105 -0.08708387 0 0 0 0
0.00154224 -0.09768885 -0.00274965 0 0 0 0
-0.00797795 -0.00411189 -0.09514052 0 0 0 0
0.00405859 -0.08063921 -0.02963414 0 0 0 0
-0.00825645 0.07932424 -0.02528318 0 0 0 0
0.04064203 -0.00357095 -0.07341097 0 0 0 0
0.00389821 -0.05717949 -0.05744722 0 0 0 0
-0.00315168 -0.02196473 -0.08756347 0 0 0 0
-0.02742432 0.02194033 0.06899957 0 0 0 0
-0.00202606 0.07870734 -0.03471819 0 0 0 0
0.01340682 0.02573275 0.07727892 0 0 0 0
0.03196022 -0.05715262 0.02270436 0 0 0 0
0.02947907 -0.07015830 -0.00125455 0 0 0 0
-0.08460685 0.00437924 -0.02288155 0 0 0 0
0.00809947 0.08733444 0.01150425 0 0 0 0
0.03399707 0.02431621 -0.06039777 0 0 0 0
0.02369632 0.06751999 0.01954892 0 0 0 0
0.01246637 -0.04677084 -0.05937823 0 0 0 0
0.06529090 0.02743274 -0.01662311 0 0 0 0
0.08213420 0.00767847 -0.02152286 0 0 0 0
0.00882781 0.00042091 0.09650925 0 0 0 0
0.08082775 0.00072189 0.03405004 0 0 0 0
0.00502964 -0.01163064 0.09291871 0 0 0 0
0.00103457 -0.09260412 -0.01506146 0 0 0 0
-0.00079190 -0.05475388 0.06286881 0 0 0 0
0.01862123 -0.06529960 -0.03063113 0 0 0 0
0.01210047 0.02327688 -0.08021022 0 0 0 0
0.04256217 -0.00489681 -0.07031859 0 0 0 0
0.05424546 0.03065871 -0.02898387 0 0 0 0
-0.01408178 -0.03241038 -0.07115423 0 0 0 0
-0.08102414 0.01424110 -0.01245527 0 0 0 0
-0.05056818 -0.03704806 -0.02523402 0 0 0 0
-0.00537788 0.08961408 0.01242222 0 0 0 0
0.00676417 -0.00793800 -0.09379502 0 0 0 0
0.05073778 -0.04813327 -0.00342695 0 0 0 0
0.03789859 -0.03627941 0.04293668 0 0 0 0
0.01171966 0.05861561 0.04753486 0 0 0 0
0.02952011 -0.05784516 0.02532591 0 0 0 0
0.00782978 -0.08126734 -0.02318648 0 0 0 0
0.01598609 -0.06650461 -0.03246627 0 0 0 0
0.08189063 -0.01165698 0.01542222 0 0 0 0
0.01070825 0.05393964 -0.05370144 0 0 0 0
0.02336905 -0.00620154 -0.08457279 0 0 0 0
-0.02445486 -0.05800112 -0.03251081 0 0 0 0
0.01157622 -0.03941120 0.06740253 0 0 0 0
-0.05859293 -0.03193786 -0.02063029 0 0 0 0
0.00549814 -0.06765051 0.04416840 0 0 0 0
0.03183423 0.00954647 0.07546941 0 0 0 0
0.06289051 0.00314539 0.05259263 0 0 0 0
-0.00987028 -0.07252797 0.03277702 0 0 0 0
0.00519493 0.00852094 -0.09430303 0 0 0 0
-0.02288240 -0.05916040 -0.03304100 0 0 0 0
0.05035393 -0.01894656 0.04877306 0 0 0 0
0.09225748 0.00362059 -0.01085875 0 0 0 0
0.01520195 -0.04783478 -0.05561551 0 0 0 0
0.04708932 -0.01353649 0.05791696 0 0 0 0
-0.06115762 0.02685365 -0.02448389 0 0 0 0
-0.00031455 -0.09304136 0.01548742 0 0 0 0
0.02570387 -0.02610771 -0.06655659 0 0 0 0
-0.02867301 -0.01148618 -0.07661767 0 0 0 0
-0.08158799 -0.00295951 0.02955290 0 0 0 0
-0.03840878 -0.02682031 -0.05309166 0 0 0 0
-0.03970460 0.01301201 -0.06577436 0 0 0 0
-0.03923488 0.06035169 -0.00187970 0 0 0 0
0.06402656 -0.03282415 -0.00857514 0 0 0 0
-0.03107442 -0.03203932 -0.05531105 0 0 0 0
0.01553001 -0.02909485 -0.07276817 0 0 0 0
0.07602891 -0.00388209 -0.03588768 0 0 0 0
0.05618010 0.02619860 -0.03247572 0 0 0 0
-0.02068894 0.05728605 0.03839325 0 0 0 0
-0.00234217 0.04981872 -0.06625466 0 0 0 0
-0.00989390 -0.04817748 -0.06062102 0 0 0 0
0.04540066 -0.03472868 -0.03558580 0 0 0 0
-0.00111622 -0.00032044 -0.09960468 0 0 0 0
-0.02036622 0.07908141 0.00002175 0 0 0 0
-0.02960130 0.02672060 -0.06243690 0 0 0 0
0.06723399 0.00381545 0.04668029 0 0 0 0
0.02438984 -0.04720334 -0.04641458 0 0 0 0
-0.02998369 0.01911517 -0.06890123 0 0 0 0
0.03928086 0.02117614 -0.05841934 0 0 0 0
0.00929801 0.08397297 -0.01562292 0 0 0 0
-0.02083974 -0.00460509 0.08731623 0 0 0 0
-0.03577739 -0.05476126 0.02056548 0 0 0 0
-0.01147838 -0.07347669 -0.02891350 0 0 0 0
-0.06628033 0.02009056 -0.02695591 0 0 0 0
-0.05897325 -0.00382260 -0.05588515 0 0 0 0
-0.09637982 0.00071227 0.00806014 0 0 0 0
-0.04099126 -0.02587132 -0.05137783 0 0 0 0
-0.04699973 -0.02744683 -0.04284340 0 0 0 0
0.00989555 -0.05800043 -0.05029362 0 0 0 0
-0.01118271 -0.01872176 -0.08423547 0 0 0 0
0.01907321 0.07747519 0.00918941 0 0 0 0
-0.06192841 0.01136420 -0.04413511 0 0 0 0
-0.03613288 -0.01456781 -0.06751674 0 0 0 0
0.05950930 0.02125306 -0.03468405 0 0 0 0
-0.04636211 -0.04434273 -0.02005637 0 0 0 0
0.04180133 -0.03876759 0.03528938 0 0 0 0
-0.03004586 0.05941526 -0.02210073 0 0 0 0
0.07519074 0.02444458 -0.00124070 0 0 0 0
-0.02281196 0.04872090 0.04610183 0 0 0 0
0.01599258 -0.07342906 -0.02265717 0 0 0 0
0.07655352 0.00886870 -0.02826759 0 0 0 0
-0.05673727 0.03769033 -0.01350931 0 0 0 0
0.02936983 -0.05644513 -0.02809405 0 0 0 0
0.08027594 -0.00750209 -0.02501034 0 0 0 0
-0.00644261 -0.01012223 0.09297959 0 0 0 0
0.07426711 0.02535934 -0.00178208 0 0 0 0
-0.07078098 0.00081142 -0.04587586 0 0 0 0
0.01569712 0.02121982 0.07907350 0 0 0 0
-0.06045287 0.03792088 -0.00484781 0 0 0 0
0.04461767 0.01027311 0.06356106 0 0 0 0
0.02344369 0.04623967 0.04831491 0 0 0 0
-0.04818380 0.03749479 -0.02791312 0 0 0 0
-0.02838917 0.04963320 0.03833656 0 0 0 0
-0.00897226 -0.03116887 -0.07664353 0 0 0 0
0.01636091 0.07023551 0.02647930 0 0 0 0
0.00398060 -0.09530910 -0.00260621 0 0 0 0
0.02587874 0.02934024 0.06323807 0 0 0 0
0.04355886 0.03996509 -0.03089224 0 0 0 0
0.03492186 0.06252104 0.00733148 0 0 0 0
0.00172636 -0.07523402 -0.03956272 0 0 0 0
-0.04960988 -0.04745181 -0.00869580 0 0 0 0
-0.00381368 -0.08217902 -0.02780189 0 0 0 0
0.02860279 0.02556408 -0.06422450 0 0 0 0
-0.08002381 0.00751080 -0.02526740 0 0 0 0
-0.00433834 -0.02748169 0.08318879 0 0 0 0
0.06302123 0.00001745 -0.05515506 0 0 0 0
0.01342156 0.04799140 -0.05743315 0 0 0 0
-0.04290650 0.02971505 -0.04513026 0 0 0 0
0.01860218 0.03913622 0.06075858 0 0 0 0
-0.02471265 0.04291095 -0.05057940 0 0 0 0
-0.04375572 0.04500507 -0.02365152 0 0 0 0
0.02654715 -0.02881841 0.06309380 0 0 0 0
0.06173782 0.03208104 0.01485881 0 0 0 0
0.05094719 0.04005600 -0.01956597 0 0 0 0
-0.07478557 0.01651914 0.01941631 0 0 0 0
0.04837700 0.02487050 0.04405011 0 0 0 0
0.01499919 -0.02240853 -0.07868484 0 0 0 0
-0.02276517 -0.02273524 -0.07222278 0 0 0 0
0.01035487 -0.06038101 -0.04731404 0 0 0 0
0.03104750 0.05249257 -0.03111972 0 0 0 0
-0.02274878 0.04697931 0.04826140 0 0 0 0
-0.03537592 0.02919337 0.05403599 0 0 0 0
0.02345530 0.06398205 -0.02548138 0 0 0 0
-0.00327770 0.06125491 0.05407209 0 0 0 0
0.05795091 0.00450586 0.05611502 0 0 0 0
-0.01156949 -0.06590579 -0.03890200 0 0 0 0
0.04820804 0.00369755 0.06649892 0 0 0 0
-0.01823095 0.03584648 -0.06459818 0 0 0 0
