ply
format ascii 1.0
comment https://github.com/mikedh/trimesh
element vertex 1118
property float x
property float y
property float z
property uchar red
property uchar green
property uchar blue
property uchar alpha
end_header
0.01766116 -0.09666916 -0.00941311 0 0 0 0
0.06170251 -0.09326479 -0.01563421 0 0 0 0
-0.03717886 -0.05822904 0.06027573 0 0 0 0
-0.04843930 0.03770353 0.06977022 0 0 0 0
0.05756909 -0.01035936 -0.06108458 0 0 0 0
-0.02144660 -0.03955309 -0.07707303 0 0 0 0
-0.04688137 -0.08326666 -0.03124798 0 0 0 0
0.00691171 -0.08013582 0.03580762 0 0 0 0
-0.06121541 0.06976527 -0.04833239 0 0 0 0
-0.07289433 0.04046726 -0.04478024 0 0 0 0
0.02383415 0.03534194 0.08034517 0 0 0 0
-0.09062670 0.05693676 0.02043339 0 0 0 0
-0.05700152 -0.06903485 -0.04890124 0 0 0 0
-0.02656770 -0.09331726 -0.01553833 0 0 0 0
-0.05169559 0.09208705 -0.01778440 0 0 0 0
0.01131073 0.07776041 0.03865002 0 0 0 0
0.00671418 -0.03031101 -0.08401652 0 0 0 0
-0.01581865 0.05098153 -0.06716426 0 0 0 0
0.05804356 0.00200776 -0.06063058 0 0 0 0
-0.05680810 -0.07518523 0.04173144 0 0 0 0
-0.00595056 -0.03062836 -0.08373231 0 0 0 0
-0.09408019 -0.02820144 0.01431600 0 0 0 0
-0.04709050 -0.03023607 -0.07075529 0 0 0 0
0.09007680 0.08282181 0.02125831 0 0 0 0
-0.09892996 0.09087817 0.00350386 0 0 0 0
0.01113541 0.09145148 -0.01882910 0 0 0 0
0.06005574 0.01165321 -0.05878965 0 0 0 0
-0.07653861 -0.02069267 0.04011200 0 0 0 0
0.00343784 -0.09216554 -0.01764299 0 0 0 0
0.00281422 -0.07555023 0.04129469 0 0 0 0
0.05680761 -0.09853952 0.00505374 0 0 0 0
0.05442140 0.00873878 -0.06398959 0 0 0 0
-0.05327972 -0.08159959 -0.03360973 0 0 0 0
-0.03388783 -0.09517553 0.01204092 0 0 0 0
-0.05443574 0.09849464 -0.00456953 0 0 0 0
-0.04289832 -0.00808356 -0.07426044 0 0 0 0
0.02918037 -0.08141802 0.03424749 0 0 0 0
0.07129004 -0.00119100 0.04639239 0 0 0 0
-0.03366577 -0.06476150 -0.05368479 0 0 0 0
-0.07094334 0.03528107 -0.04709638 0 0 0 0
-0.08756564 0.05378594 -0.02530399 0 0 0 0
-0.06508285 0.09748832 -0.00762423 0 0 0 0
-0.01703390 0.07402995 -0.04330974 0 0 0 0
0.01973054 0.09615996 0.00999621 0 0 0 0
-0.00254082 -0.06460418 -0.05386091 0 0 0 0
0.02194694 0.02430379 -0.08812829 0 0 0 0
0.02696376 0.09102694 -0.01972364 0 0 0 0
-0.01140082 -0.05831558 -0.06039565 0 0 0 0
0.08137868 0.02109851 0.03430649 0 0 0 0
-0.01630729 -0.04358741 -0.07398830 0 0 0 0
-0.02785817 0.04843062 -0.06947879 0 0 0 0
0.08792469 0.09649824 -0.00943776 0 0 0 0
-0.04907665 -0.00220198 0.06925562 0 0 0 0
-0.05586229 0.04527766 -0.06265979 0 0 0 0
0.03897386 -0.07078820 -0.04693855 0 0 0 0
0.00313256 0.07877822 -0.03745392 0 0 0 0
-0.06260511 0.04898518 -0.05584469 0 0 0 0
-0.04396070 -0.03155304 -0.07364379 0 0 0 0
-0.02338468 -0.07671998 -0.03987119 0 0 0 0
0.02431634 -0.05231424 0.06609675 0 0 0 0
-0.08535971 0.09539373 -0.01174380 0 0 0 0
0.06548444 0.08875195 0.02324574 0 0 0 0
-0.03152773 -0.08014826 0.03579275 0 0 0 0
-0.00903167 -0.05466953 -0.06376059 0 0 0 0
0.04246138 -0.09289023 0.01678761 0 0 0 0
-0.09514734 -0.05735243 -0.01274382 0 0 0 0
-0.06896686 0.08405708 -0.03045631 0 0 0 0
0.01018004 -0.09509566 -0.01228850 0 0 0 0
-0.02768069 -0.00040229 -0.08578113 0 0 0 0
-0.00501368 -0.05383664 -0.06452927 0 0 0 0
-0.01020017 0.02292245 -0.08907764 0 0 0 0
-0.06518422 -0.08587345 0.02756382 0 0 0 0
-0.00591963 -0.06836585 0.04989143 0 0 0 0
-0.01300531 -0.08969110 -0.02216474 0 0 0 0
-0.02058446 0.07693693 -0.03959281 0 0 0 0
0.07393689 0.05239354 -0.04341391 0 0 0 0
-0.08171161 -0.09915681 0.00197795 0 0 0 0
-0.09894299 0.01040772 0.00341621 0 0 0 0
0.05008797 0.00081354 -0.06804632 0 0 0 0
0.06436701 -0.03617712 -0.05399614 0 0 0 0
-0.02482935 -0.06321430 -0.05541673 0 0 0 0
0.03900252 0.08103125 0.03473617 0 0 0 0
-0.05841919 0.00892316 -0.06030003 0 0 0 0
-0.07308204 0.05067040 -0.04437083 0 0 0 0
0.00293270 0.07397123 -0.04337548 0 0 0 0
0.00617037 0.02992968 -0.08421794 0 0 0 0
0.02434967 0.07522071 -0.04179505 0 0 0 0
0.03762554 -0.04363950 -0.07394022 0 0 0 0
0.07221713 0.04302312 -0.04533901 0 0 0 0
0.01937981 0.04380191 0.07351451 0 0 0 0
0.05254670 0.01539777 -0.06592121 0 0 0 0
0.08021347 0.04574220 -0.03538837 0 0 0 0
-0.06916026 0.06196101 -0.04896716 0 0 0 0
-0.06329210 -0.04304599 0.05529294 0 0 0 0
-0.00721788 -0.03461592 0.08093137 0 0 0 0
0.06191242 -0.05252269 0.05665074 0 0 0 0
0.02172007 -0.07862552 -0.03742604 0 0 0 0
-0.04858720 0.05263724 -0.06563620 0 0 0 0
-0.09776575 -0.05161902 -0.00678209 0 0 0 0
0.05975089 -0.02042987 -0.05883928 0 0 0 0
-0.04721659 0.02466532 0.07075745 0 0 0 0
-0.07807414 -0.02849207 -0.03842742 0 0 0 0
-0.01561402 -0.05841495 -0.06024092 0 0 0 0
-0.02636150 -0.08776646 0.02472408 0 0 0 0
-0.07840581 -0.09645387 -0.00954635 0 0 0 0
-0.03411949 0.09927939 0.00115344 0 0 0 0
0.01949375 -0.03256430 -0.08238671 0 0 0 0
0.06480525 0.06678097 0.05178789 0 0 0 0
0.00750974 -0.00754185 0.09727068 0 0 0 0
0.09876312 -0.03214850 -0.00389494 0 0 0 0
0.06955797 0.06091058 -0.04854988 0 0 0 0
0.04869086 -0.02257460 -0.06925387 0 0 0 0
0.01878235 -0.03861751 -0.07796042 0 0 0 0
-0.06210232 0.09829004 -0.00519062 0 0 0 0
0.09812051 -0.06378973 -0.00546758 0 0 0 0
0.00476787 -0.03278662 0.08240836 0 0 0 0
-0.06270924 0.05216555 0.05586655 0 0 0 0
-0.01709384 0.09514323 -0.01275388 0 0 0 0
-0.04441211 -0.00510409 -0.07295205 0 0 0 0
-0.07030414 0.08424018 0.03001392 0 0 0 0
0.02458227 0.07491426 0.04205569 0 0 0 0
0.00369567 -0.07436784 -0.04288945 0 0 0 0
-0.09175419 -0.04286327 -0.01839467 0 0 0 0
-0.09314631 -0.08530088 -0.01604324 0 0 0 0
0.02410613 0.00578341 -0.08826568 0 0 0 0
0.08111500 0.06451853 0.03463595 0 0 0 0
0.08986025 0.00792326 -0.02185564 0 0 0 0
-0.02504566 -0.05300026 -0.06530116 0 0 0 0
-0.03108023 -0.06696298 -0.05127250 0 0 0 0
-0.02465137 0.09322294 -0.01571069 0 0 0 0
0.02827809 -0.05368949 -0.06466508 0 0 0 0
0.00687117 0.05836453 -0.06029382 0 0 0 0
-0.00035343 0.02946083 -0.08454382 0 0 0 0
-0.03883625 -0.09234087 -0.01736719 0 0 0 0
0.03554886 -0.02557968 0.08017810 0 0 0 0
-0.02954624 -0.09878070 0.00450786 0 0 0 0
0.03303915 -0.08181931 -0.03332779 0 0 0 0
-0.06444546 0.09712185 -0.00858587 0 0 0 0
-0.08937746 0.01302089 0.02230741 0 0 0 0
-0.07058650 0.09766576 -0.00708560 0 0 0 0
0.05026612 -0.09533596 -0.01228221 0 0 0 0
-0.00899220 -0.02965936 0.08462833 0 0 0 0
-0.00157593 0.01825405 0.09190227 0 0 0 0
-0.09218312 0.08342781 -0.01762648 0 0 0 0
0.04137243 -0.06137575 -0.05747480 0 0 0 0
-0.06637473 0.09788139 -0.00605276 0 0 0 0
-0.02255367 -0.09598671 -0.01068963 0 0 0 0
-0.05339832 -0.06227355 -0.05646981 0 0 0 0
-0.00334756 -0.00477080 -0.09850831 0 0 0 0
-0.03977684 -0.01624968 -0.07695839 0 0 0 0
0.08219813 0.04701918 -0.03284169 0 0 0 0
0.07254785 0.02662172 -0.04496881 0 0 0 0
0.04676934 -0.07280576 0.04457868 0 0 0 0
0.09595778 -0.01911888 0.01041616 0 0 0 0
-0.00211361 0.01487928 0.09399751 0 0 0 0
-0.07405432 -0.00455221 0.04308469 0 0 0 0
-0.00853374 -0.06006612 -0.05850855 0 0 0 0
-0.04284559 -0.02623764 -0.07459941 0 0 0 0
-0.01755099 0.05981693 -0.05901005 0 0 0 0
0.04961174 -0.09879399 0.00441845 0 0 0 0
-0.00367206 -0.06529163 -0.05302604 0 0 0 0
0.09230385 -0.01032861 -0.01739024 0 0 0 0
0.02736400 0.06075050 -0.05779052 0 0 0 0
-0.06095408 0.01141964 -0.05757692 0 0 0 0
0.03327645 -0.08851246 -0.02399487 0 0 0 0
-0.01899293 -0.07950240 -0.03645264 0 0 0 0
0.04633362 -0.04619668 -0.07129127 0 0 0 0
-0.01061383 -0.09575663 -0.01125271 0 0 0 0
-0.08342531 -0.08449335 -0.02989649 0 0 0 0
0.04013412 0.07613495 -0.04062190 0 0 0 0
0.07115404 -0.09890345 -0.00332859 0 0 0 0
-0.06511264 0.07655054 0.04009774 0 0 0 0
0.08488651 0.07061269 -0.02939199 0 0 0 0
0.03159959 0.05371911 0.06471415 0 0 0 0
-0.00729586 -0.09995693 -0.00013074 0 0 0 0
0.06575665 0.04453192 -0.05257084 0 0 0 0
0.01665460 -0.01481535 -0.09270206 0 0 0 0
-0.02797988 0.07697494 -0.03994722 0 0 0 0
0.02443231 -0.09445453 -0.01346010 0 0 0 0
-0.02177115 -0.02893269 -0.08491091 0 0 0 0
-0.03160571 0.05021629 -0.06787050 0 0 0 0
-0.03443739 -0.03442692 -0.08091641 0 0 0 0
0.02548985 -0.06155957 -0.05726904 0 0 0 0
0.08623987 0.01316179 0.02701415 0 0 0 0
-0.02368591 0.05450677 -0.06391080 0 0 0 0
-0.09823729 0.00341756 -0.00535072 0 0 0 0
-0.01971136 0.07097828 -0.04705973 0 0 0 0
0.01070715 0.02711158 -0.08617671 0 0 0 0
-0.03939765 0.05195522 0.06645008 0 0 0 0
-0.09434296 -0.09725930 -0.00831942 0 0 0 0
-0.08697320 0.05887507 -0.02619022 0 0 0 0
0.00573046 0.03912584 -0.07752105 0 0 0 0
-0.04945344 0.00369757 -0.06857453 0 0 0 0
-0.06845593 -0.02809867 -0.04954928 0 0 0 0
-0.05369613 0.06749334 -0.05062680 0 0 0 0
-0.07004702 0.06572612 -0.04803679 0 0 0 0
0.06536107 -0.04670139 -0.05295320 0 0 0 0
-0.01078961 0.04916550 -0.06884363 0 0 0 0
0.00302418 0.02259253 -0.08931772 0 0 0 0
0.02949932 0.05371402 -0.06491227 0 0 0 0
0.04660267 0.02457228 -0.07120551 0 0 0 0
-0.01069359 -0.04671464 -0.07110217 0 0 0 0
0.01074877 -0.04269357 -0.07443741 0 0 0 0
0.02567005 0.07324903 0.04404829 0 0 0 0
-0.01973756 -0.09939148 -0.00184720 0 0 0 0
0.06271265 -0.09921324 -0.00279333 0 0 0 0
-0.05524450 -0.04785500 -0.06322996 0 0 0 0
0.00965233 -0.03903141 0.07736626 0 0 0 0
-0.06983442 -0.08759178 -0.02526785 0 0 0 0
0.08962684 -0.04504479 -0.02182832 0 0 0 0
0.00760266 -0.04095303 0.07581471 0 0 0 0
0.01440989 0.05107508 0.06731626 0 0 0 0
-0.04093850 -0.03504412 -0.07603218 0 0 0 0
0.00054999 0.00140333 -0.09961698 0 0 0 0
-0.00350379 -0.04363104 -0.07362714 0 0 0 0
0.09487884 -0.04436239 -0.01319543 0 0 0 0
0.06836756 -0.04878550 -0.04979885 0 0 0 0
-0.09170449 -0.00062891 -0.01848550 0 0 0 0
-0.05493265 -0.01248961 -0.06351776 0 0 0 0
0.07731964 0.05075770 -0.03910172 0 0 0 0
-0.06444986 0.01391066 -0.05403365 0 0 0 0
-0.02538402 0.07380800 0.04337942 0 0 0 0
-0.03711845 -0.02590024 -0.07890216 0 0 0 0
0.05280843 0.09479220 -0.01284304 0 0 0 0
-0.06168205 -0.02029839 -0.05713193 0 0 0 0
0.08062609 -0.07517535 0.03522097 0 0 0 0
0.08130936 0.08057036 -0.03395425 0 0 0 0
-0.09865773 -0.04185361 -0.00407448 0 0 0 0
0.04511331 0.04134216 0.07245566 0 0 0 0
0.06277692 0.01146203 -0.05566443 0 0 0 0
0.05993543 0.00321223 -0.05864567 0 0 0 0
0.01384008 0.08824737 -0.02436140 0 0 0 0
-0.00751688 -0.00022584 0.09728181 0 0 0 0
0.05383431 -0.08304678 -0.03175271 0 0 0 0
-0.02269510 -0.06476247 -0.05358123 0 0 0 0
-0.09914877 -0.00364769 0.00203201 0 0 0 0
-0.03411479 0.08275484 0.03224209 0 0 0 0
0.06379588 0.09786336 -0.00609690 0 0 0 0
0.06057576 -0.09876346 0.00458861 0 0 0 0
-0.00624666 0.01291304 -0.09471653 0 0 0 0
-0.01485542 0.00776729 -0.09374245 0 0 0 0
0.02233637 -0.07808165 -0.03841704 0 0 0 0
-0.09564912 0.01516721 0.01105726 0 0 0 0
-0.05230596 0.06150730 -0.05699649 0 0 0 0
0.05955346 -0.02002413 0.05897230 0 0 0 0
0.04336446 0.08344352 -0.03124362 0 0 0 0
0.05093790 -0.06577705 -0.05251675 0 0 0 0
0.08621824 0.01425211 0.02704661 0 0 0 0
-0.02926928 0.04839969 -0.06954704 0 0 0 0
0.09422318 -0.00207886 -0.01427317 0 0 0 0
-0.08647890 -0.09827642 -0.00523195 0 0 0 0
-0.09340402 -0.00215941 -0.01561963 0 0 0 0
0.07885225 -0.09165382 -0.01857807 0 0 0 0
0.02585655 0.04117048 0.07563914 0 0 0 0
0.09054010 -0.01702433 -0.02061330 0 0 0 0
-0.09258270 0.02632747 -0.01688066 0 0 0 0
0.05698044 -0.03613632 0.06150452 0 0 0 0
0.05194140 0.02796275 0.06646368 0 0 0 0
0.03405519 -0.09922449 0.00152267 0 0 0 0
-0.02257770 -0.09371593 0.01507260 0 0 0 0
-0.04710015 0.00015683 0.07085147 0 0 0 0
0.03004071 -0.08755130 -0.02532382 0 0 0 0
0.00590227 -0.04328183 -0.07427032 0 0 0 0
-0.08375295 -0.07339011 -0.03057560 0 0 0 0
0.06470867 -0.08075365 -0.03469522 0 0 0 0
-0.05954713 -0.05834984 -0.05925905 0 0 0 0
0.06399374 -0.04184078 0.05460241 0 0 0 0
0.00178535 0.09323004 -0.01590562 0 0 0 0
0.08952651 0.07243285 -0.02199324 0 0 0 0
-0.09511172 0.07881140 -0.01225915 0 0 0 0
-0.02933419 0.08652795 -0.02692208 0 0 0 0
-0.02576185 0.07324167 -0.04419215 0 0 0 0
-0.06191552 -0.08608161 0.02725157 0 0 0 0
0.07565931 0.00429607 -0.04148585 0 0 0 0
-0.08468091 -0.05510665 -0.02965580 0 0 0 0
-0.06422313 0.06725714 0.05121810 0 0 0 0
0.07146703 -0.09688134 -0.00850021 0 0 0 0
-0.03754873 -0.08162105 -0.03358219 0 0 0 0
0.03431141 0.08698997 0.02588891 0 0 0 0
-0.09383780 0.05480680 0.01481947 0 0 0 0
-0.06649408 0.09145082 -0.01894906 0 0 0 0
-0.02643355 0.09924198 0.00140509 0 0 0 0
-0.03646908 -0.03872780 -0.07769306 0 0 0 0
0.07697377 -0.05800682 -0.03954553 0 0 0 0
0.02420217 -0.08884129 -0.02311957 0 0 0 0
0.05799382 -0.05135357 0.06050721 0 0 0 0
0.01590612 0.06589089 -0.05239732 0 0 0 0
-0.04325620 -0.01512353 -0.07395113 0 0 0 0
0.00489080 -0.09859361 -0.00426909 0 0 0 0
0.03257193 0.07840628 -0.03770735 0 0 0 0
-0.01683621 0.07268156 -0.04481913 0 0 0 0
0.08353505 -0.02356065 -0.03087690 0 0 0 0
-0.07004212 0.08607368 -0.02766878 0 0 0 0
-0.03060866 -0.04993587 -0.06817778 0 0 0 0
-0.01376949 -0.09382802 -0.01492271 0 0 0 0
0.07132082 0.09935192 0.00066557 0 0 0 0
0.05121715 0.09989750 -0.00031115 0 0 0 0
-0.02878304 0.02226369 -0.08516447 0 0 0 0
0.07789776 0.07742827 -0.03835989 0 0 0 0
-0.09648877 -0.06306924 0.00931325 0 0 0 0
-0.09329715 0.03604650 0.01594242 0 0 0 0
0.02457840 -0.07713811 0.03939465 0 0 0 0
0.00295088 0.04187226 0.07507252 0 0 0 0
-0.04383573 0.01780177 -0.07375912 0 0 0 0
-0.01027271 -0.08197398 -0.03303529 0 0 0 0
0.00984366 -0.09902370 -0.00325720 0 0 0 0
0.05024362 -0.08345713 -0.03122615 0 0 0 0
-0.05472851 0.04548562 0.06372076 0 0 0 0
-0.02099111 -0.02076012 0.09015666 0 0 0 0
-0.05393490 -0.04416180 0.06450178 0 0 0 0
0.02542418 0.06511214 -0.05321436 0 0 0 0
-0.06826665 0.07560951 -0.04129614 0 0 0 0
0.04077885 -0.08250570 0.03261584 0 0 0 0
-0.03186369 -0.09510471 -0.01227198 0 0 0 0
-0.03771183 -0.04817854 -0.06975114 0 0 0 0
-0.09425002 -0.02793996 0.01396327 0 0 0 0
-0.04807036 -0.07800407 -0.03822347 0 0 0 0
0.05965928 -0.06039600 -0.05816244 0 0 0 0
-0.00108768 0.00853619 -0.09697083 0 0 0 0
-0.07930083 -0.00708590 -0.03673134 0 0 0 0
-0.02859353 -0.06254883 -0.05590374 0 0 0 0
-0.08062339 -0.02060569 0.03522420 0 0 0 0
0.02726774 -0.09155150 -0.01866470 0 0 0 0
-0.06875776 -0.04484499 -0.04921141 0 0 0 0
0.01668957 0.09789563 -0.00601793 0 0 0 0
0.04627946 0.08929026 -0.02289723 0 0 0 0
0.09995357 0.05948272 -0.00014094 0 0 0 0
0.03010615 0.06528317 -0.05310085 0 0 0 0
0.02780716 0.04633264 0.07147116 0 0 0 0
-0.02046182 -0.07013650 0.04777270 0 0 0 0
0.01224875 -0.07124358 -0.04678138 0 0 0 0
0.08458507 -0.08003194 0.02949654 0 0 0 0
0.04678180 -0.06705991 -0.05111198 0 0 0 0
-0.02192885 -0.02844784 0.08540100 0 0 0 0
-0.05958991 -0.09310209 -0.01611593 0 0 0 0
0.07934771 -0.01331317 -0.03649932 0 0 0 0
0.05865538 -0.04427195 -0.05998867 0 0 0 0
0.06001941 -0.06247392 -0.05624551 0 0 0 0
-0.06966646 -0.09712006 -0.00791597 0 0 0 0
-0.08874505 -0.05878446 -0.02367327 0 0 0 0
0.04512024 0.09711937 0.00800348 0 0 0 0
-0.09767897 0.05530605 0.00684114 0 0 0 0
0.09225960 0.08903647 -0.01747108 0 0 0 0
0.05326856 -0.02902351 -0.06529729 0 0 0 0
-0.09062487 -0.08283848 0.02043615 0 0 0 0
-0.09332410 0.01455250 0.01588644 0 0 0 0
-0.04595217 0.08926827 -0.02293741 0 0 0 0
-0.03141186 0.04456591 -0.07308523 0 0 0 0
-0.05417076 -0.07399546 -0.04336727 0 0 0 0
0.03859578 -0.06130204 -0.05721185 0 0 0 0
0.08049302 -0.08667897 0.02635544 0 0 0 0
-0.01288398 0.02726380 -0.08607090 0 0 0 0
0.09877848 -0.03068695 -0.00385733 0 0 0 0
-0.06629551 0.04795721 -0.05197280 0 0 0 0
0.00733585 -0.06709811 0.05140840 0 0 0 0
-0.00899586 -0.09164186 -0.01851617 0 0 0 0
0.06327680 0.09362163 -0.01526197 0 0 0 0
-0.05798342 -0.09627308 -0.01013691 0 0 0 0
0.06535022 0.03381775 -0.05302580 0 0 0 0
-0.09063403 -0.08427451 0.02042240 0 0 0 0
-0.07185636 -0.01532497 -0.04574286 0 0 0 0
0.00780402 -0.08468858 0.02934127 0 0 0 0
-0.04536794 -0.01372011 0.07225007 0 0 0 0
0.00834122 0.02651927 0.08663098 0 0 0 0
0.01047489 0.07610312 -0.04098905 0 0 0 0
-0.02467197 -0.05406222 -0.06461132 0 0 0 0
0.09828404 -0.07910182 -0.00520881 0 0 0 0
0.01586144 0.03785700 -0.07861773 0 0 0 0
0.07403471 -0.08598961 -0.02780698 0 0 0 0
0.05999516 -0.03028673 -0.05884556 0 0 0 0
-0.04977432 -0.06656186 -0.05166949 0 0 0 0
0.01538483 -0.04825325 0.06992044 0 0 0 0
0.03763621 0.09350022 0.01552064 0 0 0 0
-0.01022376 0.09142200 -0.01887756 0 0 0 0
0.03026660 0.00119700 0.08424105 0 0 0 0
0.09724893 -0.06858189 0.00773438 0 0 0 0
-0.04846000 0.09771375 -0.00646305 0 0 0 0
-0.07812797 -0.03339726 0.03821019 0 0 0 0
-0.06751712 0.02544521 -0.05069111 0 0 0 0
0.01131560 -0.05325126 0.06517459 0 0 0 0
-0.09003954 -0.04314328 0.02131420 0 0 0 0
0.07922540 -0.08217756 -0.03286808 0 0 0 0
0.00466603 0.07747249 -0.03925929 0 0 0 0
0.09870660 0.01902937 -0.00392613 0 0 0 0
0.01806160 0.06871551 -0.04943379 0 0 0 0
0.04217919 -0.04768827 -0.07012042 0 0 0 0
-0.06271870 -0.07972626 0.03629769 0 0 0 0
-0.08197782 -0.07794393 -0.03303000 0 0 0 0
0.03018851 0.05530868 -0.06317072 0 0 0 0
0.09809532 0.07857099 0.00597637 0 0 0 0
-0.09373839 0.07092646 -0.01476877 0 0 0 0
0.07316444 -0.03668102 0.04414950 0 0 0 0
0.01937613 0.00388418 0.09118664 0 0 0 0
-0.04262136 0.00439647 -0.07476787 0 0 0 0
-0.01098824 -0.03771379 0.07843011 0 0 0 0
-0.04752046 0.09233578 -0.01733189 0 0 0 0
0.03452304 0.01145888 0.08100636 0 0 0 0
-0.07593058 0.05383839 0.04083956 0 0 0 0
-0.01298070 -0.00235823 -0.09468167 0 0 0 0
0.07419672 -0.05687738 -0.04310902 0 0 0 0
0.00121748 0.09942421 -0.00174783 0 0 0 0
-0.00089842 -0.06821180 0.05007576 0 0 0 0
-0.02657958 -0.07577367 -0.04108550 0 0 0 0
0.07547460 -0.04230803 -0.04146926 0 0 0 0
-0.05980822 -0.08917508 0.02261099 0 0 0 0
0.06401967 0.05892099 0.05457690 0 0 0 0
0.02991872 0.09445232 0.01354307 0 0 0 0
-0.05517245 -0.06303616 0.05554481 0 0 0 0
-0.08585405 -0.09206687 0.01827297 0 0 0 0
-0.01026855 0.09043574 -0.02080400 0 0 0 0
-0.05577258 0.04850323 -0.06301324 0 0 0 0
-0.05488901 -0.04692776 -0.06355803 0 0 0 0
-0.05528305 0.04103263 0.06317501 0 0 0 0
-0.00715651 0.08650322 -0.02677294 0 0 0 0
0.05147223 0.08529244 -0.02844704 0 0 0 0
0.06106482 -0.08163053 -0.03351018 0 0 0 0
-0.02629398 -0.08686061 0.02608296 0 0 0 0
0.06103890 0.09597851 -0.01070971 0 0 0 0
-0.06906676 -0.04009824 -0.04906525 0 0 0 0
-0.01697341 -0.06236902 -0.05609239 0 0 0 0
-0.05226758 -0.09159227 -0.01869057 0 0 0 0
0.04683014 0.02536846 -0.07099558 0 0 0 0
-0.00501703 -0.03611810 0.07971849 0 0 0 0
0.02039042 0.07813323 -0.03834572 0 0 0 0
0.03875691 -0.02773340 -0.07783993 0 0 0 0
0.03179675 -0.02269140 -0.08292020 0 0 0 0
-0.01090581 0.03767807 -0.07848172 0 0 0 0
-0.01610512 0.07785194 0.03854049 0 0 0 0
0.09263150 0.06104083 -0.01688946 0 0 0 0
0.04809393 0.07332090 -0.04423287 0 0 0 0
0.02093523 -0.08745992 -0.02539017 0 0 0 0
0.02888130 0.06744504 -0.05068086 0 0 0 0
-0.07268899 0.06092853 -0.04481081 0 0 0 0
0.02358988 -0.05488664 0.06356513 0 0 0 0
-0.06229310 -0.00537006 -0.05644792 0 0 0 0
0.03411833 0.07784180 -0.03843170 0 0 0 0
-0.01822769 -0.09167021 -0.01854814 0 0 0 0
0.05531534 0.04096641 -0.06316458 0 0 0 0
-0.03213273 -0.00147293 0.08293632 0 0 0 0
-0.02138270 -0.09434035 -0.01408057 0 0 0 0
0.09797222 -0.02371200 -0.00615536 0 0 0 0
-0.05687659 -0.01945883 -0.06185494 0 0 0 0
-0.01548247 0.04523400 0.07235821 0 0 0 0
0.02487681 0.06628229 0.05235014 0 0 0 0
-0.09107733 0.05807579 0.01975740 0 0 0 0
-0.04411789 0.08851536 -0.02399087 0 0 0 0
0.05514192 0.02444085 -0.06367492 0 0 0 0
-0.00952632 0.06319989 0.05538368 0 0 0 0
-0.07874393 0.05733264 -0.03750134 0 0 0 0
0.04051610 0.03885048 -0.07631943 0 0 0 0
0.04828389 0.08071357 -0.03474666 0 0 0 0
0.05663075 -0.01796633 -0.06211287 0 0 0 0
-0.06711929 0.04170872 -0.05110851 0 0 0 0
0.07877156 0.09194501 0.01845579 0 0 0 0
0.09190544 -0.00125298 -0.01811828 0 0 0 0
-0.05561934 0.08880629 -0.02317710 0 0 0 0
0.04273915 -0.09222205 -0.01756249 0 0 0 0
0.05543311 -0.00309170 0.06302732 0 0 0 0
0.08331887 -0.09964450 -0.00173793 0 0 0 0
-0.04348076 0.04383947 -0.07375567 0 0 0 0
0.05375497 0.09872846 -0.00385975 0 0 0 0
0.06837262 -0.03826312 -0.04979353 0 0 0 0
-0.00630382 -0.09518632 0.01201851 0 0 0 0
-0.01754424 0.00506920 -0.09218762 0 0 0 0
0.04464311 0.09173072 0.01877724 0 0 0 0
-0.03107844 -0.04729255 -0.07056881 0 0 0 0
0.02011865 0.06753527 0.05088530 0 0 0 0
-0.01933823 -0.05178633 0.06661628 0 0 0 0
0.06672602 -0.09212272 0.01818920 0 0 0 0
0.01823838 0.04701480 0.07092038 0 0 0 0
0.03434552 0.03217651 0.08114968 0 0 0 0
0.01210479 -0.08473620 -0.02958486 0 0 0 0
0.03298127 -0.08764181 0.02491107 0 0 0 0
-0.05642799 -0.05974283 -0.05884773 0 0 0 0
-0.08843563 0.09101279 -0.01974950 0 0 0 0
0.07236481 0.09094138 0.01996134 0 0 0 0
-0.05725202 -0.06631795 -0.05194926 0 0 0 0
-0.05599325 -0.07437531 -0.04292316 0 0 0 0
0.03286312 0.03567507 -0.08022452 0 0 0 0
0.09909769 -0.02901725 0.00237560 0 0 0 0
-0.04170625 -0.09205462 -0.01784567 0 0 0 0
-0.02706162 0.06373881 0.05485331 0 0 0 0
0.08775317 -0.06845649 -0.02490814 0 0 0 0
-0.09677747 -0.09600739 -0.00875441 0 0 0 0
-0.04022783 -0.09513479 -0.01277453 0 0 0 0
0.03012581 0.05263551 -0.06584444 0 0 0 0
-0.08181611 0.06849042 0.03365031 0 0 0 0
-0.09562634 0.08622772 -0.01131874 0 0 0 0
-0.00104591 0.07931174 -0.03671626 0 0 0 0
-0.08442314 0.05907928 -0.02998657 0 0 0 0
0.03266440 -0.09565534 -0.01150060 0 0 0 0
0.04681868 0.04459604 -0.07100616 0 0 0 0
0.07236858 -0.02870349 -0.04545488 0 0 0 0
-0.08731513 -0.00678324 -0.02565036 0 0 0 0
0.08474405 -0.09000379 -0.02120872 0 0 0 0
-0.00341751 -0.03743238 0.07865733 0 0 0 0
0.06570677 -0.09464341 -0.01358241 0 0 0 0
0.01993627 0.05554136 0.06292079 0 0 0 0
-0.01455447 -0.00748286 -0.09391648 0 0 0 0
-0.05191106 0.03438703 -0.06647061 0 0 0 0
-0.09967602 0.06305701 -0.00166079 0 0 0 0
-0.05591605 -0.09440502 0.01364133 0 0 0 0
-0.02220876 0.01516846 0.08938008 0 0 0 0
-0.03435888 -0.04662007 0.07123909 0 0 0 0
-0.08441746 -0.01661710 -0.02999386 0 0 0 0
-0.09580140 -0.04091293 0.01074096 0 0 0 0
0.03651495 0.09588887 0.01055929 0 0 0 0
0.02444350 0.05459818 0.06384902 0 0 0 0
0.03948110 -0.07885543 -0.03713102 0 0 0 0
-0.01097227 0.07938399 0.03670725 0 0 0 0
0.01937800 0.04021486 -0.07657585 0 0 0 0
-0.01394476 0.09906025 0.00262744 0 0 0 0
-0.07932730 0.02831550 -0.03669473 0 0 0 0
0.05202357 -0.04569538 -0.06637336 0 0 0 0
-0.03515547 -0.09387322 0.01474591 0 0 0 0
0.00073224 -0.08401562 0.03035080 0 0 0 0
-0.08668782 -0.05200433 -0.02651770 0 0 0 0
-0.07960889 -0.03291119 -0.03616418 0 0 0 0
-0.02504459 0.06947273 0.04856696 0 0 0 0
0.09576395 -0.08765553 -0.01123479 0 0 0 0
0.09947077 0.01433076 -0.00216309 0 0 0 0
0.08263288 0.07436328 -0.03212426 0 0 0 0
-0.04270356 0.03116883 0.07440132 0 0 0 0
0.08799157 -0.04152336 0.02438639 0 0 0 0
0.03916066 0.04780371 -0.07002065 0 0 0 0
0.03566267 -0.08614214 -0.02755625 0 0 0 0
0.08194850 -0.07619781 -0.03316200 0 0 0 0
0.06035513 0.09451556 -0.01379257 0 0 0 0
-0.04504664 -0.09742524 -0.00781570 0 0 0 0
0.03516869 -0.08822687 0.02403343 0 0 0 0
-0.03351618 -0.00359826 0.08181930 0 0 0 0
0.09808286 -0.03043422 0.00600225 0 0 0 0
0.03430665 -0.09605621 -0.01051953 0 0 0 0
-0.06786206 0.03860664 0.05049426 0 0 0 0
0.03443831 -0.03561407 0.08012544 0 0 0 0
-0.02002173 -0.06995448 0.04799049 0 0 0 0
-0.03945671 -0.09092106 -0.01970097 0 0 0 0
0.09642460 -0.06190665 0.00944653 0 0 0 0
-0.08406885 -0.03154134 0.03027093 0 0 0 0
-0.09066622 -0.02561850 0.02037411 0 0 0 0
0.01294624 -0.06549354 0.05312640 0 0 0 0
0.03522485 -0.07742600 -0.03896524 0 0 0 0
0.06182511 0.09578229 0.01078066 0 0 0 0
0.04447218 0.04807940 -0.06984263 0 0 0 0
0.02904733 -0.08541869 -0.02870909 0 0 0 0
0.00371365 0.08779867 0.02467576 0 0 0 0
0.09846857 -0.05713339 -0.00464867 0 0 0 0
-0.08841936 -0.05124742 0.02374468 0 0 0 0
-0.07691292 -0.02882019 -0.04003297 0 0 0 0
0.02039575 0.05568849 0.06277598 0 0 0 0
-0.03841094 0.07368137 -0.04377032 0 0 0 0
0.07957949 -0.08310123 -0.03168285 0 0 0 0
-0.08294165 -0.04236558 0.03196186 0 0 0 0
0.04451452 0.05954599 0.05897965 0 0 0 0
-0.08308031 0.07774130 -0.03150564 0 0 0 0
0.03644640 -0.07195207 0.04560020 0 0 0 0
-0.09695339 0.03970007 -0.00832388 0 0 0 0
0.09529273 0.06339744 -0.01192838 0 0 0 0
0.09365772 0.00978055 -0.01520262 0 0 0 0
0.04092115 0.08984273 0.02160944 0 0 0 0
-0.08889578 -0.09046216 -0.02075573 0 0 0 0
-0.01182226 -0.00272412 -0.09527834 0 0 0 0
0.06683875 0.09946264 -0.00007925 0 0 0 0
-0.06613471 0.07795016 0.03842296 0 0 0 0
-0.09566378 -0.09752554 -0.00692366 0 0 0 0
0.02942365 0.06537382 -0.05293982 0 0 0 0
-0.03399168 0.00594314 0.08143538 0 0 0 0
0.09458913 0.02172400 -0.01321412 0 0 0 0
-0.08542985 0.03616675 -0.02825704 0 0 0 0
0.06652664 0.08655325 0.02654405 0 0 0 0
0.06029629 -0.03266977 0.05824126 0 0 0 0
-0.05011652 0.07812437 -0.03806910 0 0 0 0
0.00365856 0.07896286 -0.03699315 0 0 0 0
0.04149718 -0.07927672 -0.03659042 0 0 0 0
-0.09438308 0.05073651 0.01368689 0 0 0 0
0.05529835 0.09902963 -0.00294556 0 0 0 0
-0.09158690 -0.00390953 0.01899300 0 0 0 0
-0.00358973 -0.09421729 -0.01389364 0 0 0 0
-0.00690815 -0.08173665 -0.03336344 0 0 0 0
0.09728180 0.00434704 0.00766609 0 0 0 0
-0.09259376 -0.06363322 0.01740341 0 0 0 0
-0.00708838 -0.06578790 -0.05253586 0 0 0 0
0.07271150 0.00579440 -0.04501484 0 0 0 0
0.06739641 0.08623540 -0.02714325 0 0 0 0
-0.00815113 0.05905993 -0.05970870 0 0 0 0
0.09414866 -0.03658978 -0.01401905 0 0 0 0
-0.08307509 0.01233673 -0.03171638 0 0 0 0
-0.02005122 0.02635329 -0.08698992 0 0 0 0
0.06688922 0.02449830 -0.05130305 0 0 0 0
-0.04714983 0.00042408 -0.07070054 0 0 0 0
0.08243174 0.08826695 0.02397328 0 0 0 0
-0.06225113 -0.05673730 -0.05649490 0 0 0 0
0.06826147 0.09965229 -0.00135488 0 0 0 0
0.06389670 -0.09725919 0.00771306 0 0 0 0
0.07368808 -0.02096768 0.04352291 0 0 0 0
0.01828930 0.06811737 -0.04992826 0 0 0 0
-0.00540075 0.05929396 -0.05931868 0 0 0 0
-0.02838357 0.09483616 -0.01326558 0 0 0 0
0.01290527 -0.06219936 0.05636834 0 0 0 0
0.02070028 0.08769694 -0.02500058 0 0 0 0
-0.06402422 -0.02871962 0.05457241 0 0 0 0
0.02875442 0.02624539 -0.08503482 0 0 0 0
0.05562436 0.02509115 -0.06316876 0 0 0 0
-0.06584246 0.05230362 -0.05247478 0 0 0 0
0.01075440 0.07741648 -0.03933674 0 0 0 0
0.05347451 0.00435162 -0.06486348 0 0 0 0
0.01576750 0.00479616 0.09348810 0 0 0 0
0.05246702 0.09599628 0.01033618 0 0 0 0
0.09884520 0.00215472 0.00407399 0 0 0 0
0.08027272 0.08063481 0.03521054 0 0 0 0
0.07998385 -0.05721806 -0.03578695 0 0 0 0
-0.04401947 -0.06510764 -0.05321908 0 0 0 0
-0.02630728 0.09861593 -0.00420136 0 0 0 0
0.03267656 -0.08091988 -0.03448193 0 0 0 0
0.02253705 -0.06444102 -0.05404355 0 0 0 0
0.05547507 -0.03780199 -0.06332538 0 0 0 0
0.02830051 0.09100465 -0.01976436 0 0 0 0
-0.03192470 0.07926706 -0.03677803 0 0 0 0
0.02699233 -0.00079679 -0.08625959 0 0 0 0
-0.09589121 -0.02859298 -0.01083472 0 0 0 0
0.01742208 0.02647900 -0.08661638 0 0 0 0
0.05458226 0.07874925 -0.03726725 0 0 0 0
0.03832081 -0.02908348 -0.07821685 0 0 0 0
0.04265326 0.01159107 -0.07474390 0 0 0 0
0.08673999 -0.02683407 -0.02657355 0 0 0 0
-0.04401843 0.02828592 0.07333969 0 0 0 0
-0.09895612 -0.09517153 -0.00342260 0 0 0 0
-0.08003391 -0.03384779 -0.03571773 0 0 0 0
0.00446575 -0.04800123 -0.06991477 0 0 0 0
-0.07969998 -0.04629542 -0.03604729 0 0 0 0
-0.09849627 -0.07149659 0.00514356 0 0 0 0
0.07170248 0.09290920 -0.01628402 0 0 0 0
0.01169123 -0.02766252 -0.08579376 0 0 0 0
0.04223791 0.08470944 -0.02925312 0 0 0 0
0.05485508 0.04048127 -0.06392604 0 0 0 0
0.05435631 -0.08531688 0.02839873 0 0 0 0
-0.06186703 0.09355420 0.01540853 0 0 0 0
0.05597966 0.09946290 -0.00218235 0 0 0 0
-0.06293412 0.09213020 -0.01770755 0 0 0 0
-0.08583321 -0.04776882 0.02762418 0 0 0 0
-0.04817798 -0.01859218 0.06998122 0 0 0 0
0.09200781 -0.04501983 -0.01791464 0 0 0 0
0.07205031 0.06060702 -0.04586328 0 0 0 0
-0.03495124 0.09903400 -0.00323200 0 0 0 0
0.01264773 -0.08175603 0.03374042 0 0 0 0
0.04842565 0.00274315 0.06978124 0 0 0 0
-0.09249149 0.06306273 0.01761584 0 0 0 0
0.01899448 -0.09391461 0.01465991 0 0 0 0
-0.06421646 -0.04054091 0.05438323 0 0 0 0
-0.05678905 -0.07720374 0.03931613 0 0 0 0
0.04737965 0.01418895 -0.07038717 0 0 0 0
0.04442580 0.04454551 -0.07283676 0 0 0 0
-0.00509604 -0.01528055 -0.09349713 0 0 0 0
-0.09775086 -0.09867796 -0.00401307 0 0 0 0
0.01061354 -0.01838645 -0.09189743 0 0 0 0
-0.08909507 0.00048983 0.02273102 0 0 0 0
-0.08921620 0.01659592 -0.02250331 0 0 0 0
-0.00012731 0.08457704 -0.02943618 0 0 0 0
0.06622697 0.05707683 -0.05204471 0 0 0 0
-0.03080133 0.02366251 0.08390002 0 0 0 0
-0.02277712 -0.09599432 -0.01067099 0 0 0 0
-0.00155206 -0.06089355 -0.05801456 0 0 0 0
-0.08973127 0.09401368 -0.01426571 0 0 0 0
0.00297390 0.06072735 -0.05816983 0 0 0 0
0.00932605 0.06987474 -0.04821754 0 0 0 0
-0.03777215 -0.07416068 -0.04316341 0 0 0 0
-0.06105626 0.02583252 0.05749333 0 0 0 0
0.09914087 0.07400326 -0.00297045 0 0 0 0
0.00014834 0.00221020 -0.09931936 0 0 0 0
-0.03614589 0.01395549 -0.07963283 0 0 0 0
-0.09160392 0.02441418 0.01896745 0 0 0 0
0.02514645 0.09024831 0.02100102 0 0 0 0
0.05155167 0.06912611 0.04898172 0 0 0 0
-0.05150610 -0.05492358 -0.06386684 0 0 0 0
0.01113519 0.05664452 -0.06193787 0 0 0 0
0.02998682 0.08386975 -0.03069668 0 0 0 0
-0.06614666 -0.07945982 0.03661653 0 0 0 0
0.06648611 -0.09907510 -0.00313141 0 0 0 0
0.04346105 -0.00686485 -0.07410491 0 0 0 0
-0.08124287 0.03204510 -0.03406746 0 0 0 0
0.01394473 -0.02784309 -0.08566825 0 0 0 0
-0.06632113 0.08380341 -0.03078181 0 0 0 0
0.00014283 -0.06643828 0.05219663 0 0 0 0
-0.07970266 -0.03447853 0.03632593 0 0 0 0
-0.09963204 0.05466402 -0.00121863 0 0 0 0
0.09502335 0.06992655 -0.01295789 0 0 0 0
0.02616225 -0.00995365 0.08685867 0 0 0 0
-0.06751505 0.08730732 -0.02566116 0 0 0 0
0.08429431 -0.06466983 -0.03015189 0 0 0 0
-0.00101216 0.00478166 -0.09837088 0 0 0 0
-0.00790475 -0.02459921 -0.08792296 0 0 0 0
0.02655014 0.03312060 0.08213870 0 0 0 0
-0.09979410 -0.04357388 -0.00062503 0 0 0 0
-0.04166114 0.09135784 -0.01898302 0 0 0 0
-0.08816041 0.09953546 -0.00056899 0 0 0 0
-0.05500187 0.06753398 -0.05058131 0 0 0 0
-0.06902234 -0.05681874 -0.04891524 0 0 0 0
-0.05080007 -0.01337705 -0.06733172 0 0 0 0
-0.08917879 -0.09173312 0.01877364 0 0 0 0
-0.06091301 -0.08013570 -0.03548818 0 0 0 0
0.03848841 0.06317262 -0.05546340 0 0 0 0
0.05686388 -0.08502131 0.02884213 0 0 0 0
-0.01722701 0.06685708 -0.05138360 0 0 0 0
0.09736700 -0.01995284 -0.00799250 0 0 0 0
0.05572753 0.00786276 0.06273757 0 0 0 0
-0.08677857 0.09001656 0.02134867 0 0 0 0
0.08244924 0.05570507 -0.03237819 0 0 0 0
0.09636083 0.00966579 -0.00977405 0 0 0 0
-0.02395303 -0.09651650 0.00925566 0 0 0 0
-0.05172688 -0.04602750 0.06667480 0 0 0 0
-0.09689489 0.07015639 -0.00846704 0 0 0 0
0.00441746 -0.09845154 0.00523648 0 0 0 0
-0.06399681 0.07009552 -0.04771393 0 0 0 0
-0.08200178 0.02043013 -0.03299686 0 0 0 0
0.00779300 -0.08361156 -0.03102799 0 0 0 0
-0.09771269 0.05553571 -0.00694315 0 0 0 0
-0.05100333 0.09717156 0.00789507 0 0 0 0
-0.05312927 0.07920323 -0.03668472 0 0 0 0
-0.08751566 0.06626806 -0.02529855 0 0 0 0
-0.00747750 -0.09149496 -0.01875764 0 0 0 0
-0.05804271 -0.09543293 -0.01167218 0 0 0 0
-0.09714101 -0.06900434 -0.00855084 0 0 0 0
-0.09953823 0.08091254 -0.00058766 0 0 0 0
-0.07069940 -0.07332085 -0.04410351 0 0 0 0
0.00777192 0.00203632 -0.09726793 0 0 0 0
-0.00490673 -0.08946188 -0.02258362 0 0 0 0
0.09759460 0.07826976 -0.00730164 0 0 0 0
-0.00600878 0.02473786 -0.08802786 0 0 0 0
0.07163353 -0.00298199 -0.04599228 0 0 0 0
-0.04251729 0.00524224 -0.07484606 0 0 0 0
-0.01040005 0.02212954 0.08943060 0 0 0 0
-0.09953074 -0.01949927 -0.00053730 0 0 0 0
-0.08339352 -0.09647352 -0.00977062 0 0 0 0
0.01732468 0.08710954 -0.02596609 0 0 0 0
-0.05101990 0.03085252 -0.06712884 0 0 0 0
-0.09747283 0.09893653 0.00345968 0 0 0 0
0.05397958 0.05225094 -0.06439735 0 0 0 0
0.04585976 0.07527135 -0.04173006 0 0 0 0
-0.04070256 -0.08217062 -0.03287699 0 0 0 0
-0.07354572 0.07212999 -0.04394438 0 0 0 0
0.09281549 -0.06910205 -0.01645526 0 0 0 0
0.01960066 -0.02733925 -0.08624918 0 0 0 0
-0.05702318 -0.00312450 -0.06158841 0 0 0 0
0.02046345 -0.09848333 -0.00460386 0 0 0 0
0.06629236 -0.01218856 0.05234025 0 0 0 0
0.01500678 -0.03728477 0.07877650 0 0 0 0
-0.09875949 0.07256543 -0.00376556 0 0 0 0
0.00240790 0.00349719 -0.09884541 0 0 0 0
0.04448541 0.02934837 -0.07288869 0 0 0 0
0.02941654 0.08712696 -0.02593748 0 0 0 0
0.04210177 -0.08082405 -0.03460489 0 0 0 0
-0.02340867 0.06723709 -0.05098491 0 0 0 0
-0.04020933 -0.05638929 0.06208631 0 0 0 0
-0.06078557 -0.09503435 0.01233415 0 0 0 0
-0.08195534 0.09665202 0.00897419 0 0 0 0
0.07411724 0.06765335 -0.04321204 0 0 0 0
-0.03337171 0.08379368 -0.03051928 0 0 0 0
0.07270919 0.08264820 -0.03226417 0 0 0 0
0.08762290 -0.07641354 -0.02512228 0 0 0 0
0.01149443 -0.04429216 -0.07305573 0 0 0 0
-0.07080092 0.06950130 0.04697766 0 0 0 0
-0.07887586 -0.09643533 -0.00959172 0 0 0 0
0.01072228 -0.06756368 -0.05054806 0 0 0 0
0.07827358 0.01731697 0.03803597 0 0 0 0
-0.09756440 0.06470032 -0.00682856 0 0 0 0
-0.04977806 -0.05751058 0.06098279 0 0 0 0
0.02764769 0.05715535 -0.06146643 0 0 0 0
0.02558858 0.03940176 -0.07718672 0 0 0 0
-0.05426325 0.01982500 0.06417864 0 0 0 0
0.09174409 -0.05838934 -0.01841313 0 0 0 0
0.09680399 0.09760679 0.00699106 0 0 0 0
0.05749970 0.07002081 -0.04779756 0 0 0 0
-0.07860483 0.08437340 0.02981408 0 0 0 0
-0.09525087 0.06365083 0.01188443 0 0 0 0
-0.02095896 0.03501988 0.08060519 0 0 0 0
-0.03212068 -0.06369028 -0.05488392 0 0 0 0
-0.03440581 0.04752643 -0.07026030 0 0 0 0
-0.09175538 -0.00808694 0.01874024 0 0 0 0
-0.04165946 -0.09749418 -0.00760644 0 0 0 0
-0.09044374 -0.03324513 -0.02048557 0 0 0 0
-0.08481295 0.06515399 -0.02948638 0 0 0 0
-0.09033923 0.00485836 -0.02065735 0 0 0 0
0.09923579 -0.07012789 -0.00231979 0 0 0 0
0.07629064 0.03741372 0.04040872 0 0 0 0
0.06836496 -0.01608739 -0.04965110 0 0 0 0
-0.08094845 0.00516682 0.03483524 0 0 0 0
-0.06917919 0.09157076 0.01901720 0 0 0 0
-0.02436489 -0.09741133 -0.00785792 0 0 0 0
-0.09882800 -0.03622130 0.00418968 0 0 0 0
-0.00903507 0.00344097 -0.09671389 0 0 0 0
0.01976809 -0.07656998 -0.04006368 0 0 0 0
-0.08119112 -0.09981653 -0.00055692 0 0 0 0
-0.00353546 0.03135873 0.08354453 0 0 0 0
-0.07496186 -0.05397950 0.04199872 0 0 0 0
0.02233993 -0.01393491 -0.08949330 0 0 0 0
-0.08551495 0.01929667 -0.02813938 0 0 0 0
-0.09948299 0.08668067 -0.00021608 0 0 0 0
-0.08347966 -0.03033827 -0.03119725 0 0 0 0
-0.06018119 0.09247686 -0.01714366 0 0 0 0
0.03902652 -0.00567954 0.07737020 0 0 0 0
0.08860345 0.04018490 0.02346851 0 0 0 0
0.05812642 -0.07051297 -0.04754793 0 0 0 0
0.02502860 0.06985970 -0.04823332 0 0 0 0
0.05199014 -0.06855683 0.04966291 0 0 0 0
-0.06628988 -0.09845535 -0.00464813 0 0 0 0
-0.03445479 0.04439368 -0.07296798 0 0 0 0
0.03087918 0.03695456 -0.07933520 0 0 0 0
-0.02142855 0.09508073 -0.01231577 0 0 0 0
-0.06870133 -0.07866238 0.03757072 0 0 0 0
-0.02829968 -0.09250649 -0.01709495 0 0 0 0
-0.04160516 -0.07927281 0.03684030 0 0 0 0
-0.00837895 -0.07875817 -0.03725582 0 0 0 0
0.02742381 -0.08189436 -0.03323148 0 0 0 0
-0.09914905 0.03922912 -0.00258307 0 0 0 0
-0.03920560 0.05332832 -0.06524564 0 0 0 0
-0.06182097 0.03749359 -0.05666739 0 0 0 0
-0.01648855 0.08567552 -0.02832326 0 0 0 0
0.00619322 -0.09312678 -0.01607535 0 0 0 0
0.00705779 0.05646657 0.06201025 0 0 0 0
-0.02000557 -0.08747550 -0.02542861 0 0 0 0
-0.05963171 0.04303459 -0.05918099 0 0 0 0
0.04957103 0.09498340 -0.01302356 0 0 0 0
0.00765237 -0.02054884 -0.09073822 0 0 0 0
0.06592102 0.04295630 0.05270569 0 0 0 0
-0.02698908 -0.01274430 -0.08626185 0 0 0 0
-0.01336876 0.05188060 -0.06633450 0 0 0 0
0.09569675 -0.08654810 0.01095834 0 0 0 0
-0.09439208 0.07114183 -0.01399554 0 0 0 0
0.07550764 -0.01419168 -0.04142686 0 0 0 0
0.02301833 0.07544833 -0.04150296 0 0 0 0
0.06293065 -0.06832881 -0.04969157 0 0 0 0
0.03506350 -0.04508388 0.07247942 0 0 0 0
0.05503429 0.06762200 -0.05048277 0 0 0 0
-0.06204422 -0.01770249 -0.05672652 0 0 0 0
0.00316012 -0.07593807 -0.04117381 0 0 0 0
-0.00040121 0.02671395 -0.08671896 0 0 0 0
0.01523968 -0.06053770 0.05800366 0 0 0 0
-0.01491292 0.06337971 0.05520671 0 0 0 0
-0.09168160 0.01912198 -0.01852732 0 0 0 0
0.02141788 0.06357352 -0.05501463 0 0 0 0
-0.01779958 -0.05327336 -0.06529315 0 0 0 0
-0.00652342 -0.09595542 -0.01076621 0 0 0 0
0.04971716 -0.02720427 -0.06836682 0 0 0 0
0.02484206 0.09761296 -0.00724589 0 0 0 0
-0.09955013 0.01284975 -0.00066768 0 0 0 0
0.01324460 0.07437213 -0.04288394 0 0 0 0
0.05610555 0.08486254 0.02908031 0 0 0 0
-0.00401539 0.00961345 -0.09641599 0 0 0 0
-0.00688918 -0.07442384 -0.04281758 0 0 0 0
0.05466764 -0.08785409 -0.02474225 0 0 0 0
-0.01676610 0.00470188 -0.09273200 0 0 0 0
-0.01478675 -0.04118730 -0.07584526 0 0 0 0
0.01381889 0.06092002 -0.05798495 0 0 0 0
0.00585209 0.08528121 0.02845225 0 0 0 0
0.04174583 0.05566629 -0.06284069 0 0 0 0
-0.04139268 0.05073841 0.06764759 0 0 0 0
-0.08070533 0.07374274 -0.03475723 0 0 0 0
0.01557465 0.02097471 0.09016712 0 0 0 0
0.07722782 -0.09351819 0.01548331 0 0 0 0
0.01723294 0.02572481 -0.08714060 0 0 0 0
-0.02859264 0.02772536 -0.08514727 0 0 0 0
-0.02279962 0.07263429 -0.04511391 0 0 0 0
-0.03862351 0.09163931 -0.01852036 0 0 0 0
0.05662077 -0.08611917 0.02719521 0 0 0 0
-0.08809702 0.05264078 -0.02434295 0 0 0 0
-0.09921859 -0.06889262 -0.00278024 0 0 0 0
-0.03039945 0.06657661 0.05203242 0 0 0 0
0.08197130 -0.05296449 0.03341751 0 0 0 0
-0.08797839 0.09919219 -0.00245213 0 0 0 0
-0.00494608 -0.05447110 0.06397409 0 0 0 0
0.04676481 -0.05691253 -0.06169053 0 0 0 0
-0.04451129 0.07545623 0.04140717 0 0 0 0
-0.01044483 0.02014655 -0.09099089 0 0 0 0
-0.04701411 0.07475194 -0.04239657 0 0 0 0
0.03919118 -0.09521985 -0.01256637 0 0 0 0
0.02553176 -0.01251079 -0.08756878 0 0 0 0
-0.08262015 0.08846284 0.02367944 0 0 0 0
0.06577638 0.09748240 -0.00764220 0 0 0 0
-0.07881491 0.05061033 0.03738822 0 0 0 0
-0.06107137 0.00389608 0.05747847 0 0 0 0
0.04184790 -0.09890606 0.00366466 0 0 0 0
-0.04765488 0.02094053 -0.07023443 0 0 0 0
0.09452005 -0.02224113 -0.01378517 0 0 0 0
-0.07306948 0.07626884 -0.04080354 0 0 0 0
0.02201062 -0.04649869 -0.07130147 0 0 0 0
0.03572464 -0.00565102 0.08003617 0 0 0 0
0.01893067 -0.04518399 -0.07251482 0 0 0 0
-0.03165048 0.01296812 -0.08301019 0 0 0 0
0.09900154 -0.04856465 0.00302241 0 0 0 0
-0.09281836 0.07727148 -0.01658230 0 0 0 0
0.02980512 -0.03283373 -0.08212122 0 0 0 0
-0.09795591 -0.00170282 -0.00620485 0 0 0 0
-0.01824408 -0.01509784 0.09190862 0 0 0 0
0.09038456 0.00361297 -0.02058283 0 0 0 0
-0.06419803 -0.07843947 -0.03792229 0 0 0 0
0.04786035 0.02739165 -0.07004480 0 0 0 0
0.00110635 -0.07750622 -0.03921265 0 0 0 0
-0.04539929 0.09529280 0.01179736 0 0 0 0
0.05803778 -0.06780387 0.05056389 0 0 0 0
0.08997372 0.05076500 -0.02125815 0 0 0 0
-0.09563262 -0.04515680 -0.01155621 0 0 0 0
-0.07957666 0.01297021 -0.03620555 0 0 0 0
0.01135131 -0.03750443 -0.07861217 0 0 0 0
0.07231091 -0.00160957 -0.04552888 0 0 0 0
0.02255455 0.03596880 -0.07976587 0 0 0 0
0.03137409 0.03895590 0.07742722 0 0 0 0
-0.01904156 -0.09359185 0.01533033 0 0 0 0
-0.09884126 0.00014343 0.00410045 0 0 0 0
-0.07977141 -0.08302252 -0.03178384 0 0 0 0
0.03437456 0.07284296 -0.04484616 0 0 0 0
0.05621509 0.06658663 -0.05164176 0 0 0 0
0.00692335 -0.04216366 0.07483725 0 0 0 0
0.02426273 0.02970752 -0.08446992 0 0 0 0
0.09644961 0.07575788 -0.00955678 0 0 0 0
-0.05922887 0.08488858 -0.02938933 0 0 0 0
-0.06235325 -0.04490263 -0.05638059 0 0 0 0
0.01238618 -0.06556086 -0.05279000 0 0 0 0
0.07479925 0.09863979 -0.00412895 0 0 0 0
0.00396330 -0.08135614 -0.03392213 0 0 0 0
0.01368272 -0.07154507 0.04608722 0 0 0 0
0.08050203 -0.08312590 0.03168545 0 0 0 0
-0.01663622 0.03377583 0.08160966 0 0 0 0
-0.00581951 -0.04484162 0.07267503 0 0 0 0
-0.09714118 0.09951246 -0.00147994 0 0 0 0
0.01992015 -0.02441801 0.08797109 0 0 0 0
0.03558004 -0.05064768 -0.06756257 0 0 0 0
-0.06416844 -0.00553842 -0.05420448 0 0 0 0
0.01715019 0.04211763 0.07487440 0 0 0 0
0.09592508 -0.04599590 0.01048409 0 0 0 0
-0.07728840 0.02928493 -0.03914180 0 0 0 0
0.07191485 -0.09229918 -0.01739877 0 0 0 0
-0.06450909 0.03365799 -0.05396736 0 0 0 0
0.05263911 -0.09723523 -0.00763412 0 0 0 0
-0.03434595 0.08312194 0.03169141 0 0 0 0
-0.06310212 0.06151277 -0.05554231 0 0 0 0
-0.02453917 -0.07425706 -0.04305552 0 0 0 0
0.03473171 0.06498092 -0.05343919 0 0 0 0
0.02783615 -0.02835126 -0.08548886 0 0 0 0
-0.00707826 0.06270912 0.05586667 0 0 0 0
-0.07877921 0.05425330 -0.03745256 0 0 0 0
0.05232612 0.03361465 -0.06611186 0 0 0 0
-0.08775349 -0.06208272 0.02474354 0 0 0 0
-0.01640615 0.04157395 0.07531338 0 0 0 0
0.03301030 -0.08973559 -0.02164957 0 0 0 0
-0.09630175 0.04744598 -0.01008450 0 0 0 0
-0.00280611 -0.05550861 -0.06329019 0 0 0 0
-0.06159546 0.07549267 0.04136357 0 0 0 0
0.05743213 -0.01742505 0.06106000 0 0 0 0
-0.07909980 0.06872696 -0.03681743 0 0 0 0
0.04896664 0.02208819 -0.06901551 0 0 0 0
0.06511986 0.02644346 0.05349416 0 0 0 0
-0.04764398 -0.06534059 0.05327692 0 0 0 0
-0.08346403 -0.00577722 -0.03121729 0 0 0 0
0.00787957 -0.05773396 0.06076295 0 0 0 0
0.02090178 -0.04935996 -0.06866080 0 0 0 0
0.03991469 0.00536612 -0.07680137 0 0 0 0
0.06771594 0.01385444 -0.05037762 0 0 0 0
0.02391976 0.05048846 -0.06761931 0 0 0 0
0.06237594 0.03055681 -0.05635519 0 0 0 0
-0.08230326 -0.03327025 -0.03258002 0 0 0 0
0.09768308 0.00053386 -0.00703304 0 0 0 0
-0.01571122 0.05060621 -0.06759840 0 0 0 0
-0.05057405 0.05141140 -0.06676752 0 0 0 0
0.07897026 -0.06717961 -0.03718840 0 0 0 0
-0.05594296 -0.06379755 -0.05476385 0 0 0 0
-0.02456964 -0.03985985 -0.07688664 0 0 0 0
0.07642160 -0.09935740 -0.00244054 0 0 0 0
0.06663875 -0.02990390 -0.05161268 0 0 0 0
0.05687119 0.00616649 0.06161204 0 0 0 0
0.09882052 -0.08972602 -0.00375444 0 0 0 0
-0.00315335 0.05683889 0.06164383 0 0 0 0
0.07472351 -0.05384907 -0.04243305 0 0 0 0
0.09284174 -0.09432311 -0.01370025 0 0 0 0
-0.02371061 0.06366004 -0.05491778 0 0 0 0
-0.02296524 0.02604788 -0.08721937 0 0 0 0
0.02280537 0.02808871 -0.08549754 0 0 0 0
0.04408542 -0.01156858 -0.07352869 0 0 0 0
-0.05639599 -0.00626352 -0.06216724 0 0 0 0
-0.02339250 -0.04612124 -0.07147483 0 0 0 0
0.01813873 0.05291051 0.06550994 0 0 0 0
-0.04461654 0.02671446 -0.07277536 0 0 0 0
0.06162860 -0.05657324 0.05693005 0 0 0 0
0.01079666 0.03731698 -0.07875300 0 0 0 0
-0.05462710 0.05325143 0.06382056 0 0 0 0
-0.09479665 0.09211748 -0.01283491 0 0 0 0
-0.06941520 0.07944975 -0.03652544 0 0 0 0
-0.01293296 0.05636988 0.06210541 0 0 0 0
-0.08774417 -0.06649253 0.02475753 0 0 0 0
-0.00395609 -0.08808628 -0.02436060 0 0 0 0
0.09892336 -0.03857193 -0.00326814 0 0 0 0
0.06694525 0.00605185 -0.05124032 0 0 0 0
0.01718005 0.06945218 -0.04843409 0 0 0 0
0.05145688 -0.09805765 0.00605461 0 0 0 0
0.07477790 -0.00201431 -0.04236326 0 0 0 0
0.08110974 -0.00061785 -0.03423830 0 0 0 0
-0.04875037 -0.05319817 -0.06511851 0 0 0 0
-0.06926341 -0.08397410 -0.03056278 0 0 0 0
-0.00184103 -0.05347122 -0.06486651 0 0 0 0
0.02197125 0.09418164 0.01410530 0 0 0 0
-0.08988667 -0.04151354 0.02154354 0 0 0 0
-0.08504800 -0.01266501 -0.02918476 0 0 0 0
-0.08306903 0.01947855 -0.03172415 0 0 0 0
-0.04192323 0.09245701 -0.01711034 0 0 0 0
-0.06205158 -0.08303826 -0.03156377 0 0 0 0
-0.09172825 -0.05895944 -0.01844208 0 0 0 0
0.03645401 0.02613171 -0.07968311 0 0 0 0
-0.04623841 -0.01535920 -0.07154168 0 0 0 0
-0.02318216 0.08949799 -0.02204012 0 0 0 0
-0.05383020 -0.05464288 -0.06378519 0 0 0 0
-0.01814395 0.05783577 -0.06084859 0 0 0 0
-0.07218589 -0.04536785 -0.04537398 0 0 0 0
0.01496405 -0.01440162 -0.09366015 0 0 0 0
0.09876910 -0.07651361 -0.00388029 0 0 0 0
-0.04518376 -0.02233546 0.07239878 0 0 0 0
-0.08261452 0.06886728 -0.03214967 0 0 0 0
-0.07005385 -0.09932611 -0.00204560 0 0 0 0
0.05948852 0.07600234 -0.04110187 0 0 0 0
-0.02342281 0.02016329 0.08860580 0 0 0 0
-0.05387873 -0.03347414 0.06455706 0 0 0 0
0.05397194 0.00095383 -0.06468935 0 0 0 0
0.04615168 0.05745931 -0.06124356 0 0 0 0
-0.07104070 -0.02491452 0.04669074 0 0 0 0
-0.05049313 0.08180232 -0.03334960 0 0 0 0
-0.01141277 -0.01038442 -0.09573318 0 0 0 0
0.09048991 -0.05053024 -0.02070500 0 0 0 0
-0.04468842 -0.09522927 0.01192932 0 0 0 0
0.08001087 -0.05850971 -0.03564836 0 0 0 0
-0.00695732 -0.06912013 0.04898887 0 0 0 0
-0.05273994 0.09760715 -0.00726354 0 0 0 0
-0.01289245 0.04735896 -0.07040505 0 0 0 0
0.02489121 0.04324907 0.07396087 0 0 0 0
-0.08854366 -0.02392506 -0.02360879 0 0 0 0
-0.02417826 0.07997458 -0.03579976 0 0 0 0
0.02539735 -0.04302018 0.07414568 0 0 0 0
0.01467330 -0.00322138 -0.09380990 0 0 0 0
0.09622552 -0.07140349 -0.01022380 0 0 0 0
-0.03440830 -0.01062442 -0.08110501 0 0 0 0
0.09849492 0.09953751 -0.00140389 0 0 0 0
0.08358021 -0.07587497 -0.03081444 0 0 0 0
-0.03304567 -0.06184148 -0.05695346 0 0 0 0
0.00313411 0.00813892 0.09700432 0 0 0 0
0.05214550 -0.01742236 -0.06626797 0 0 0 0
0.00217705 0.04722445 -0.07063167 0 0 0 0
-0.07105170 -0.08756917 -0.02529911 0 0 0 0
0.03129476 -0.03742345 0.07866453 0 0 0 0
-0.07808224 -0.09052742 -0.02034801 0 0 0 0
0.09557771 0.08629926 -0.01169058 0 0 0 0
-0.04481418 0.05252650 0.06588785 0 0 0 0
0.08353488 -0.07628518 0.03107195 0 0 0 0
-0.08006175 -0.06801832 -0.03567925 0 0 0 0
-0.00361165 -0.07825863 -0.03817233 0 0 0 0
0.07029187 0.06707926 -0.04777990 0 0 0 0
-0.02634656 -0.06018919 -0.05866649 0 0 0 0
-0.09353566 0.09575693 0.01083332 0 0 0 0
-0.00603591 0.05496806 0.06348500 0 0 0 0
0.09206219 -0.05960697 -0.01782526 0 0 0 0
0.08279972 -0.00192434 -0.03206974 0 0 0 0
0.00085195 -0.08307157 -0.03151772 0 0 0 0
-0.09328824 -0.06696954 -0.01580995 0 0 0 0
-0.01321457 0.06571794 -0.05257877 0 0 0 0
0.05564374 0.01835592 -0.06286149 0 0 0 0
0.02661945 0.09890784 -0.00354076 0 0 0 0
-0.03304925 -0.04356138 -0.07368735 0 0 0 0
-0.03573053 -0.01871053 -0.07994489 0 0 0 0
-0.09428062 -0.04184895 -0.01417875 0 0 0 0
0.06766296 -0.04310060 0.05073250 0 0 0 0
0.04403225 0.07237479 -0.04516252 0 0 0 0
0.02198280 0.01961598 0.08952419 0 0 0 0
0.03442524 -0.01563702 0.08108532 0 0 0 0
-0.07738580 0.07883339 -0.03737763 0 0 0 0
0.04348160 -0.06126750 -0.05724809 0 0 0 0
0.08186470 -0.05935402 0.03357741 0 0 0 0
-0.00365114 -0.05264059 -0.06584006 0 0 0 0
-0.02242975 -0.09040422 -0.02086160 0 0 0 0
0.00834559 0.08838610 0.02379456 0 0 0 0
-0.02007607 -0.00527114 -0.09102719 0 0 0 0
-0.04799009 -0.05867871 -0.05996420 0 0 0 0
0.09483679 0.08815776 -0.01326456 0 0 0 0
0.08249424 -0.05989856 0.03263303 0 0 0 0
-0.00668583 0.03809879 0.07811926 0 0 0 0
0.07049339 -0.06466455 -0.04726856 0 0 0 0
-0.07252578 0.03992360 -0.04499351 0 0 0 0
-0.01147202 -0.01665865 0.09291975 0 0 0 0
0.03974234 -0.09550335 -0.01154349 0 0 0 0
0.09713594 0.00511255 -0.00787712 0 0 0 0
0.08249202 -0.07309703 0.03263635 0 0 0 0
-0.06129351 0.03469503 -0.05722080 0 0 0 0
-0.06236350 0.05435141 -0.05609818 0 0 0 0
0.00948680 -0.08985604 0.02158947 0 0 0 0
0.05976107 0.07197659 -0.04595788 0 0 0 0
-0.01960087 -0.00486191 -0.09099836 0 0 0 0
-0.07888132 -0.05312047 -0.03731138 0 0 0 0
-0.00877919 -0.06489157 -0.05353921 0 0 0 0
0.09521082 -0.06098508 0.01196763 0 0 0 0
-0.04637226 -0.03324606 0.07143917 0 0 0 0
-0.08860632 -0.05371048 -0.02350579 0 0 0 0
0.04849147 -0.08876577 0.02322501 0 0 0 0
0.09800719 -0.00726003 -0.00574493 0 0 0 0
0.08391608 -0.01590361 -0.03063723 0 0 0 0
-0.09814637 0.09925260 0.00133358 0 0 0 0
-0.04727448 0.06327952 -0.05534372 0 0 0 0
-0.01548452 -0.06590982 -0.05237746 0 0 0 0
-0.03933979 -0.08731874 0.02539572 0 0 0 0
0.02247111 -0.06679855 -0.05140454 0 0 0 0
-0.07939221 -0.09962506 -0.00113815 0 0 0 0
-0.07051940 0.01291896 -0.04723945 0 0 0 0
-0.01836581 0.00364764 -0.09171254 0 0 0 0
0.00143208 0.00546040 -0.09832579 0 0 0 0
0.05476347 0.06813782 0.05016429 0 0 0 0
-0.00007579 0.01973877 -0.09120090 0 0 0 0
0.00019880 0.03982886 -0.07691343 0 0 0 0
0.02286724 0.01848113 -0.08912679 0 0 0 0
-0.08925363 0.02915060 0.02249317 0 0 0 0
-0.06275792 0.09655687 0.00917180 0 0 0 0
0.05516007 -0.03323362 -0.06365588 0 0 0 0
-0.07414370 -0.04087466 -0.04317705 0 0 0 0
-0.01012425 0.09387849 -0.01483976 0 0 0 0
0.04812837 0.02954435 -0.06979744 0 0 0 0
