ply
format ascii 1.0
comment https://github.com/mikedh/trimesh
element vertex 1118
property float x
property float y
property float z
property uchar red
property uchar green
property uchar blue
property uchar alpha
end_header
0.04152093 0.08080550 -0.03267758 0 0 0 0
-0.08367563 0.01324864 0.03043973 0 0 0 0
0.07652821 0.08604378 -0.00775448 0 0 0 0
-0.03551634 0.08743913 -0.02397585 0 0 0 0
-0.07446592 0.08784665 0.00705871 0 0 0 0
0.02751194 0.05133041 -0.06573597 0 0 0 0
-0.01759010 -0.05169591 -0.06627944 0 0 0 0
-0.00610195 0.06474044 -0.05352528 0 0 0 0
-0.01922736 0.04087925 -0.07560723 0 0 0 0
-0.03951734 0.03977701 -0.07063811 0 0 0 0
0.00598352 0.04936913 -0.06854670 0 0 0 0
-0.01302730 0.03481746 -0.08043524 0 0 0 0
-0.02155778 -0.04370206 -0.07319082 0 0 0 0
-0.00348891 0.03018979 -0.08398850 0 0 0 0
0.00996557 0.01946727 -0.09086417 0 0 0 0
0.04990635 -0.01552608 -0.06797749 0 0 0 0
0.08492733 -0.04292971 0.02656210 0 0 0 0
-0.04072847 0.03308725 -0.07293717 0 0 0 0
0.06021942 0.05231030 -0.05048634 0 0 0 0
-0.08898897 0.06724226 0.01080094 0 0 0 0
0.05942121 0.08225587 -0.02558601 0 0 0 0
0.09488564 -0.04086895 0.01031438 0 0 0 0
0.01491024 -0.03156457 -0.08274517 0 0 0 0
0.09165130 0.06427376 0.00864999 0 0 0 0
0.08017473 -0.02095729 -0.03486833 0 0 0 0
-0.03900159 0.02435856 -0.07633003 0 0 0 0
0.04111792 0.09865027 -0.00014059 0 0 0 0
-0.07925788 0.03983191 -0.03469193 0 0 0 0
-0.07684214 0.04507051 -0.03675086 0 0 0 0
-0.04006795 0.04825273 -0.06522578 0 0 0 0
0.00284343 0.08038396 0.03526541 0 0 0 0
-0.08709548 -0.06088573 -0.01766342 0 0 0 0
-0.09397928 0.05312261 -0.00997323 0 0 0 0
-0.06474625 0.04764519 -0.04862744 0 0 0 0
0.00947545 0.08875775 0.02309986 0 0 0 0
0.01020703 0.00777139 0.09572642 0 0 0 0
-0.03477148 0.06872230 0.04785563 0 0 0 0
0.04228492 0.08827731 0.02223660 0 0 0 0
0.05324873 0.04723545 -0.05840607 0 0 0 0
0.08851437 0.05730226 -0.01707020 0 0 0 0
0.00697940 0.00291479 -0.09774085 0 0 0 0
-0.02489537 0.08759110 0.02468250 0 0 0 0
-0.02414068 -0.06205477 -0.05583239 0 0 0 0
-0.07943086 0.05175708 0.03204581 0 0 0 0
0.08471122 0.07330604 -0.01251295 0 0 0 0
-0.06885360 0.04997941 -0.04395023 0 0 0 0
-0.08188339 -0.06745207 -0.02116339 0 0 0 0
-0.06884448 -0.09308758 -0.00083722 0 0 0 0
-0.08466910 0.02366266 0.02861842 0 0 0 0
0.07378210 -0.07965346 -0.01869127 0 0 0 0
-0.02481381 0.01297690 -0.08740070 0 0 0 0
0.02421215 -0.06420401 0.05390780 0 0 0 0
-0.05629438 -0.04443371 -0.05760798 0 0 0 0
-0.01318376 -0.00074415 -0.09469365 0 0 0 0
-0.06395255 -0.06400733 -0.04035330 0 0 0 0
-0.09441584 -0.03337635 0.01281436 0 0 0 0
0.00753964 0.09659187 -0.00849791 0 0 0 0
0.05212716 -0.09638929 -0.00397905 0 0 0 0
0.00120607 -0.08932656 -0.02198149 0 0 0 0
-0.06735595 0.01573135 -0.05061324 0 0 0 0
-0.07555282 -0.06816362 -0.02779580 0 0 0 0
0.07151582 0.02741851 -0.04547377 0 0 0 0
-0.02485404 -0.04367320 -0.07274694 0 0 0 0
-0.09729693 -0.04046295 -0.00538509 0 0 0 0
0.07397158 0.04214757 -0.04067630 0 0 0 0
0.00636687 -0.05647122 -0.06214287 0 0 0 0
0.01992222 -0.02476270 -0.08644708 0 0 0 0
-0.08397097 0.06779784 0.01833408 0 0 0 0
0.03946234 0.05744853 -0.05804961 0 0 0 0
0.08207911 0.00079027 -0.03275603 0 0 0 0
-0.03040581 0.08322409 -0.03087604 0 0 0 0
-0.00392112 0.06646736 -0.05156674 0 0 0 0
0.08717029 0.05846520 -0.01868091 0 0 0 0
-0.01230932 0.03928432 0.07697539 0 0 0 0
0.07252945 0.09176947 -0.00025664 0 0 0 0
-0.08882819 0.07237180 -0.00730614 0 0 0 0
-0.02572030 0.08167657 -0.03323129 0 0 0 0
0.04601045 0.09722482 0.00466592 0 0 0 0
0.04648884 -0.06958394 -0.04459904 0 0 0 0
0.01336246 0.09583758 -0.01051081 0 0 0 0
0.08343897 -0.04528463 0.02833189 0 0 0 0
-0.05269605 -0.01528471 0.06552491 0 0 0 0
-0.09728012 0.02152537 -0.00670706 0 0 0 0
-0.02705221 -0.07787223 0.03783483 0 0 0 0
-0.00462381 0.07906318 -0.03670752 0 0 0 0
0.02001311 0.09150033 -0.01810437 0 0 0 0
-0.05793233 -0.04618459 -0.05553721 0 0 0 0
0.08104440 0.00608455 -0.03415673 0 0 0 0
-0.04801259 -0.00933242 -0.06972181 0 0 0 0
0.04909868 0.08515944 -0.02508147 0 0 0 0
-0.07630200 0.05557060 0.03418104 0 0 0 0
0.06669910 0.09084150 -0.00783938 0 0 0 0
-0.06341274 0.07930828 0.02647395 0 0 0 0
0.04670024 0.06956986 -0.04477944 0 0 0 0
-0.04477284 0.07455666 -0.03936002 0 0 0 0
-0.04390826 0.01694602 0.07310630 0 0 0 0
-0.08637244 0.03564481 0.02542644 0 0 0 0
0.02070430 -0.05321905 -0.06504883 0 0 0 0
-0.00118636 0.01633957 -0.09287105 0 0 0 0
0.00120444 -0.07873560 -0.03704881 0 0 0 0
-0.06628789 0.04233737 -0.04883334 0 0 0 0
0.00413532 -0.05491389 -0.06373391 0 0 0 0
0.08092067 0.02642157 0.03415382 0 0 0 0
0.06902735 -0.06060905 -0.03844843 0 0 0 0
-0.01464301 -0.00581319 -0.09379406 0 0 0 0
-0.03735156 0.04060324 -0.07124838 0 0 0 0
-0.07672369 0.08751069 -0.00479549 0 0 0 0
-0.06189138 -0.08116379 0.02498561 0 0 0 0
-0.06720101 -0.03105975 -0.05014204 0 0 0 0
0.03522884 0.06925684 0.04731599 0 0 0 0
0.05367955 0.01184782 -0.06444258 0 0 0 0
0.06805828 -0.01020666 -0.04976040 0 0 0 0
0.07184775 -0.08915049 0.00712638 0 0 0 0
0.07225890 0.01055199 0.04509708 0 0 0 0
-0.03391056 0.09538721 0.01008512 0 0 0 0
0.07718702 -0.03004385 -0.03888178 0 0 0 0
-0.00487498 0.02431232 -0.08808319 0 0 0 0
0.04551727 0.00757239 0.07199996 0 0 0 0
-0.05101824 0.08471571 0.02491617 0 0 0 0
0.09373222 -0.02935728 0.01413002 0 0 0 0
0.04301205 0.07188536 -0.04297640 0 0 0 0
-0.08270837 -0.08284904 0.00501991 0 0 0 0
0.07665347 -0.08515494 -0.00894726 0 0 0 0
0.01315139 0.00119541 -0.09458122 0 0 0 0
0.05337976 0.05657299 -0.05265425 0 0 0 0
-0.04008565 -0.02349641 -0.07573525 0 0 0 0
0.00801753 -0.08827680 0.02379953 0 0 0 0
-0.01079215 -0.05555999 -0.06281991 0 0 0 0
-0.04713777 0.05303551 -0.05878358 0 0 0 0
-0.06902125 0.04254566 -0.04607111 0 0 0 0
-0.02138172 -0.09592050 -0.01035998 0 0 0 0
0.09167261 0.06973679 0.00432685 0 0 0 0
0.06534195 0.03622368 -0.05126209 0 0 0 0
0.06735519 -0.09308751 0.00363980 0 0 0 0
-0.09378124 0.01310046 0.01436045 0 0 0 0
0.08699261 0.06576358 -0.01562121 0 0 0 0
0.04215643 -0.09431021 -0.01174401 0 0 0 0
-0.07932617 -0.03793041 -0.03489843 0 0 0 0
-0.02373027 -0.06090481 -0.05707049 0 0 0 0
-0.07058061 -0.05568525 -0.03989518 0 0 0 0
0.08306301 0.03040738 -0.03062413 0 0 0 0
0.05671944 -0.07450761 -0.03540246 0 0 0 0
-0.09224129 -0.01836482 -0.01702745 0 0 0 0
-0.06346557 0.08159728 0.02364190 0 0 0 0
-0.02961442 -0.05463900 -0.06282263 0 0 0 0
0.01036145 0.06272022 -0.05557135 0 0 0 0
-0.08940867 -0.07387584 -0.00425430 0 0 0 0
0.03678737 0.00377312 -0.07939585 0 0 0 0
0.01654392 0.09135541 -0.01863887 0 0 0 0
0.08895300 -0.05159818 0.01891172 0 0 0 0
-0.07958084 -0.08180051 0.00967348 0 0 0 0
-0.07674850 0.08657933 0.00626501 0 0 0 0
0.00947379 -0.06666833 -0.05153601 0 0 0 0
0.05328415 0.07321736 -0.03837391 0 0 0 0
-0.07497647 0.00535518 -0.04212321 0 0 0 0
-0.08769773 0.01835318 -0.02481876 0 0 0 0
-0.02550212 -0.01374869 -0.08719507 0 0 0 0
-0.00986708 0.06541912 -0.05267153 0 0 0 0
0.07148686 0.03638705 0.04448611 0 0 0 0
0.03519889 0.05167481 -0.06401594 0 0 0 0
-0.00906461 -0.09909213 0.00031338 0 0 0 0
-0.04914904 -0.03107259 -0.06724095 0 0 0 0
-0.09329730 -0.06509995 0.00475111 0 0 0 0
-0.01720693 -0.00186512 0.09255074 0 0 0 0
0.02017007 0.08571468 -0.02755337 0 0 0 0
-0.03765173 0.05769175 0.05818944 0 0 0 0
-0.06788299 0.05031934 -0.04496424 0 0 0 0
-0.06220926 -0.02904601 -0.05556568 0 0 0 0
0.07898653 -0.07935576 0.01390618 0 0 0 0
-0.07073048 -0.05075389 0.04178482 0 0 0 0
0.08831640 -0.06111750 -0.01626862 0 0 0 0
-0.09681300 0.01595757 -0.00792188 0 0 0 0
-0.03091885 -0.01354872 -0.08326654 0 0 0 0
-0.09771743 -0.04813190 -0.00186865 0 0 0 0
0.09904286 0.01831701 0.00182812 0 0 0 0
0.06455049 0.08689000 0.01655408 0 0 0 0
0.02885238 0.00204234 -0.08492755 0 0 0 0
-0.06703503 0.03137019 -0.04998854 0 0 0 0
-0.03006676 -0.08537045 -0.02777033 0 0 0 0
0.04819237 -0.09325908 0.01233064 0 0 0 0
-0.09870090 -0.03446401 0.00049304 0 0 0 0
-0.05194785 -0.04200479 0.06169156 0 0 0 0
-0.00568271 -0.03384395 0.08149131 0 0 0 0
-0.06235062 -0.09154281 -0.00978402 0 0 0 0
0.02446784 -0.05003334 0.06751408 0 0 0 0
0.07514616 0.06293149 0.03136507 0 0 0 0
-0.03663562 -0.04921708 -0.06554001 0 0 0 0
-0.09656092 -0.03281856 -0.00779796 0 0 0 0
0.05552729 -0.08030251 -0.02926776 0 0 0 0
-0.01950134 -0.03772793 -0.07810760 0 0 0 0
-0.05078674 -0.07915745 -0.03230566 0 0 0 0
-0.07408495 -0.08150162 0.01669911 0 0 0 0
0.05623516 -0.02218986 -0.06181649 0 0 0 0
-0.08506851 -0.05649502 -0.02317767 0 0 0 0
-0.03133370 0.04314934 0.07172772 0 0 0 0
-0.00910207 -0.09303106 -0.01587814 0 0 0 0
-0.08134931 0.04574110 0.03106655 0 0 0 0
0.08598228 0.07307421 -0.01109696 0 0 0 0
-0.08878011 0.04172316 -0.02095120 0 0 0 0
-0.04294702 -0.02956853 -0.07217295 0 0 0 0
-0.00789549 0.09892268 -0.00287432 0 0 0 0
0.03276709 0.06393308 -0.05327311 0 0 0 0
0.01971059 0.05457585 -0.06352352 0 0 0 0
0.04209839 0.02111882 -0.07436491 0 0 0 0
-0.07140470 0.07165734 -0.02846877 0 0 0 0
0.07345639 0.08484469 -0.01266351 0 0 0 0
0.02372511 0.03931376 -0.07622264 0 0 0 0
-0.08371813 0.03106011 -0.03004681 0 0 0 0
0.04723889 -0.07840870 -0.03420279 0 0 0 0
0.08446069 -0.06609909 -0.01834737 0 0 0 0
-0.03556251 -0.07279816 0.04307485 0 0 0 0
0.04338785 -0.04630251 -0.06479100 0 0 0 0
0.02628652 0.07261907 0.04411354 0 0 0 0
0.09817980 -0.01595596 -0.00449905 0 0 0 0
0.08387949 -0.04925820 -0.02699945 0 0 0 0
-0.01302308 -0.04584355 -0.07153025 0 0 0 0
0.05159418 0.09094663 -0.01557738 0 0 0 0
-0.00909190 -0.01005358 0.09552056 0 0 0 0
0.08690770 -0.02363738 -0.02577083 0 0 0 0
0.08802681 0.01410589 0.02413540 0 0 0 0
0.02939710 0.00397844 -0.08463693 0 0 0 0
0.09930957 0.00611571 -0.00038569 0 0 0 0
0.05282293 0.07554460 -0.03581377 0 0 0 0
-0.09402954 -0.04636537 -0.01115585 0 0 0 0
0.07866179 0.02774348 -0.03666588 0 0 0 0
0.00374218 0.08549917 0.02790676 0 0 0 0
0.06362039 -0.08260287 -0.02226280 0 0 0 0
-0.08028599 0.08342353 -0.00770577 0 0 0 0
-0.06632480 0.00867784 0.05220065 0 0 0 0
-0.06482364 -0.01989672 0.05353902 0 0 0 0
-0.00278145 -0.08330625 -0.03122575 0 0 0 0
0.09351605 -0.03258773 -0.01480884 0 0 0 0
0.08986494 -0.00260237 -0.02149147 0 0 0 0
0.08957000 0.06269183 -0.01284301 0 0 0 0
0.00536068 -0.02494948 0.08760418 0 0 0 0
0.05019059 0.04524551 -0.06150988 0 0 0 0
-0.07984809 0.03968024 -0.03422545 0 0 0 0
0.02811944 0.09856106 -0.00325338 0 0 0 0
0.00817221 -0.08848949 -0.02364008 0 0 0 0
-0.07251544 -0.03915862 -0.04318613 0 0 0 0
-0.05764245 -0.01715168 0.06063637 0 0 0 0
-0.05793498 0.08321514 -0.02470090 0 0 0 0
-0.08864559 -0.07260121 -0.00799966 0 0 0 0
-0.06386554 -0.01318043 0.05451758 0 0 0 0
-0.04610827 -0.08716516 -0.02314958 0 0 0 0
0.07326807 0.00575102 0.04385764 0 0 0 0
0.05603862 0.08658293 0.02097049 0 0 0 0
0.05069359 -0.09097514 0.01584631 0 0 0 0
0.02654297 0.06794917 0.04987382 0 0 0 0
-0.03648512 0.06568532 0.05102107 0 0 0 0
-0.06607512 -0.03793914 0.05031461 0 0 0 0
-0.09605761 0.03160475 0.00941508 0 0 0 0
0.09882708 -0.02200116 -0.00252861 0 0 0 0
0.01491602 0.06972970 0.04788740 0 0 0 0
-0.03088141 -0.09451906 0.01269227 0 0 0 0
-0.02939988 -0.07212432 0.04477528 0 0 0 0
-0.00628063 0.07749384 -0.03908993 0 0 0 0
0.08428510 -0.07847551 -0.00815422 0 0 0 0
0.09806558 -0.02055300 -0.00530185 0 0 0 0
-0.07314434 0.08456068 -0.01277236 0 0 0 0
0.09009490 0.05288094 -0.01672743 0 0 0 0
0.09107844 -0.05171924 -0.01536416 0 0 0 0
-0.07857256 0.06879485 -0.02404881 0 0 0 0
-0.02911844 -0.03632214 -0.07703527 0 0 0 0
-0.00081378 -0.05049464 0.06777100 0 0 0 0
0.02606389 0.01371823 0.08659486 0 0 0 0
-0.00882222 -0.05965122 -0.05879875 0 0 0 0
0.05438856 0.00187388 -0.06398325 0 0 0 0
0.02733671 -0.08484165 -0.02883800 0 0 0 0
0.09845783 0.03069104 0.00230571 0 0 0 0
0.00893653 -0.09910836 -0.00275709 0 0 0 0
-0.05270290 -0.07027633 -0.04175380 0 0 0 0
-0.03376920 -0.08122923 0.03329059 0 0 0 0
0.02327335 0.08294626 -0.03133118 0 0 0 0
-0.01107864 -0.09337665 -0.01552600 0 0 0 0
-0.08183424 0.05747300 0.02632469 0 0 0 0
-0.08492632 0.01862615 -0.02855134 0 0 0 0
0.07766413 -0.05535984 0.03256727 0 0 0 0
0.06553946 0.08478551 0.01904762 0 0 0 0
0.04370918 0.05029475 -0.06236073 0 0 0 0
-0.07917085 0.04876228 0.03338911 0 0 0 0
0.04691833 0.02020486 -0.07041626 0 0 0 0
0.00883646 0.08907025 0.02233630 0 0 0 0
-0.03043532 0.07622995 0.03961335 0 0 0 0
-0.06011165 0.03661027 0.05627186 0 0 0 0
0.07878707 -0.01521323 -0.03680512 0 0 0 0
-0.09513899 -0.06186033 0.00040848 0 0 0 0
-0.08104087 0.04694463 -0.03092528 0 0 0 0
0.06452565 -0.04716961 -0.04926813 0 0 0 0
0.04030723 0.01468520 0.07608303 0 0 0 0
-0.06043822 -0.07778464 -0.02977505 0 0 0 0
0.00433407 0.06899612 -0.04903078 0 0 0 0
0.02380384 0.00139071 -0.08844243 0 0 0 0
-0.02656202 0.05988064 0.05798175 0 0 0 0
-0.04081417 0.06587426 -0.04980857 0 0 0 0
0.03819278 0.02671142 -0.07639535 0 0 0 0
-0.00832987 -0.00860953 -0.09640537 0 0 0 0
0.03535473 -0.05634447 -0.06022758 0 0 0 0
-0.00417913 0.02820076 -0.08555280 0 0 0 0
0.04622002 0.09002025 0.01857322 0 0 0 0
0.06072596 0.09379280 -0.00633731 0 0 0 0
0.03056673 -0.04357825 0.07160717 0 0 0 0
0.05007335 0.05868294 -0.05296133 0 0 0 0
-0.07915052 -0.03547318 0.03572653 0 0 0 0
0.06798309 0.01948676 -0.04979216 0 0 0 0
0.08391222 -0.02355063 -0.03004352 0 0 0 0
0.03648171 0.05011271 -0.06510945 0 0 0 0
0.02713301 0.02037989 0.08500084 0 0 0 0
0.06489860 -0.08689754 -0.01603882 0 0 0 0
0.09833823 -0.04340118 -0.00085143 0 0 0 0
0.02858537 0.09899319 -0.00042369 0 0 0 0
-0.03669984 -0.09905425 -0.00169555 0 0 0 0
-0.00902226 0.02982720 0.08441799 0 0 0 0
-0.04534975 0.01382891 -0.07197838 0 0 0 0
0.08140134 0.00803429 0.03405121 0 0 0 0
-0.05800302 -0.03631235 0.05825459 0 0 0 0
0.01583721 -0.03867387 0.07734530 0 0 0 0
0.06695305 -0.02791816 -0.05056947 0 0 0 0
-0.07489370 -0.08703945 -0.00716327 0 0 0 0
-0.03101395 -0.07539777 0.04057555 0 0 0 0
-0.06319869 -0.03429806 -0.05369388 0 0 0 0
-0.05609155 0.09500969 0.00611339 0 0 0 0
0.01043305 -0.03792451 -0.07817456 0 0 0 0
0.06948834 0.09222378 -0.00272748 0 0 0 0
-0.03538220 0.09157015 -0.01728731 0 0 0 0
0.08802070 -0.00647399 -0.02443874 0 0 0 0
-0.03228969 -0.03033602 0.07873541 0 0 0 0
0.00550585 -0.01473594 -0.09372120 0 0 0 0
0.01785691 0.07802327 -0.03796671 0 0 0 0
0.01153146 -0.01664506 0.09234246 0 0 0 0
0.04443925 0.07011092 0.04444469 0 0 0 0
-0.05778546 0.09481626 -0.00516447 0 0 0 0
0.06389126 0.06081568 0.04257806 0 0 0 0
0.06472269 0.07787119 -0.02729771 0 0 0 0
-0.01525164 -0.07286979 -0.04466924 0 0 0 0
0.02580310 0.09024952 0.02029126 0 0 0 0
-0.00203951 -0.06017362 0.05822467 0 0 0 0
0.06495368 0.01176258 -0.05323490 0 0 0 0
-0.08367379 0.07684450 -0.01063491 0 0 0 0
-0.05966705 -0.07989302 -0.02838087 0 0 0 0
-0.06053912 -0.08448142 -0.02144377 0 0 0 0
0.02993701 0.00557690 -0.08422428 0 0 0 0
0.09708305 -0.02041161 -0.00754170 0 0 0 0
0.05504359 -0.01017204 -0.06359053 0 0 0 0
0.02550206 -0.06777792 0.05009250 0 0 0 0
0.00978633 0.08682313 0.02569934 0 0 0 0
-0.00081702 0.07027571 0.04741303 0 0 0 0
-0.03183570 -0.05061597 -0.06581245 0 0 0 0
-0.00679910 0.08763634 0.02461447 0 0 0 0
-0.02429560 0.01132034 0.08781465 0 0 0 0
-0.05014850 0.00961257 -0.06778113 0 0 0 0
0.00145211 -0.00847606 0.09684516 0 0 0 0
0.08699721 -0.06364645 0.01702063 0 0 0 0
0.07338173 -0.08285739 0.01560234 0 0 0 0
-0.07586599 0.00553426 -0.04081657 0 0 0 0
0.06331192 -0.07946489 -0.02663838 0 0 0 0
0.03960481 0.09790759 -0.00339665 0 0 0 0
-0.08940473 -0.00218467 -0.02187183 0 0 0 0
0.03279896 -0.00053310 -0.08213886 0 0 0 0
0.00339595 -0.05448239 -0.06381673 0 0 0 0
-0.09609268 0.03237004 -0.00899418 0 0 0 0
0.06887755 0.02670579 0.04869556 0 0 0 0
-0.04674231 -0.06149351 0.05238488 0 0 0 0
0.09335259 0.04081095 0.01403132 0 0 0 0
0.01044151 -0.03280759 0.08223007 0 0 0 0
-0.04095763 -0.09039318 -0.01894188 0 0 0 0
0.04019991 -0.02409493 0.07536967 0 0 0 0
0.05552741 -0.01831723 -0.06293945 0 0 0 0
-0.06878553 0.02387073 -0.04866249 0 0 0 0
-0.01697160 -0.05165153 -0.06627490 0 0 0 0
0.03544743 0.06429388 0.05286245 0 0 0 0
0.07517795 -0.07555702 -0.02162578 0 0 0 0
-0.05299936 0.08860514 -0.01871443 0 0 0 0
0.04109131 0.08929297 0.02082131 0 0 0 0
-0.04867279 -0.00407923 0.06947416 0 0 0 0
-0.03435301 -0.09731142 -0.00645902 0 0 0 0
0.06767057 -0.00384671 -0.05044460 0 0 0 0
0.04986233 0.00325292 -0.06813356 0 0 0 0
-0.00664910 -0.06177459 0.05672432 0 0 0 0
0.02669704 -0.06922963 -0.04824681 0 0 0 0
0.04995465 -0.04373728 -0.06241887 0 0 0 0
-0.00496495 -0.05139839 0.06688081 0 0 0 0
0.06447972 -0.05255286 0.04687955 0 0 0 0
0.00013278 0.07200097 0.04534195 0 0 0 0
-0.08430205 0.07970117 -0.00650984 0 0 0 0
0.06714459 -0.07324393 -0.03052715 0 0 0 0
-0.04035104 -0.02658068 -0.07502715 0 0 0 0
-0.02118590 0.05372298 -0.06431741 0 0 0 0
-0.04479727 0.01339127 -0.07237393 0 0 0 0
0.02914981 -0.03877088 -0.07551263 0 0 0 0
0.00037710 -0.09306972 -0.01559638 0 0 0 0
-0.07548962 0.07228854 -0.02411252 0 0 0 0
-0.00676608 -0.08153521 -0.03337226 0 0 0 0
-0.08455337 -0.07338871 0.01263200 0 0 0 0
-0.09607206 -0.05534593 0.00358524 0 0 0 0
-0.00011538 -0.09473199 -0.01307580 0 0 0 0
-0.08426090 -0.00404026 0.02965990 0 0 0 0
0.06682938 -0.09369259 -0.00130587 0 0 0 0
-0.04058404 -0.02624539 0.07473800 0 0 0 0
-0.01373202 -0.07471890 0.04191957 0 0 0 0
-0.03778066 -0.00091636 -0.07839005 0 0 0 0
-0.01715290 0.04172140 -0.07511552 0 0 0 0
0.03666157 0.04928678 0.06554671 0 0 0 0
-0.09436195 -0.06360693 0.00280717 0 0 0 0
-0.05242795 -0.09379504 -0.01002744 0 0 0 0
-0.04216612 0.08248575 -0.03050365 0 0 0 0
0.07239324 0.08948085 -0.00599017 0 0 0 0
-0.02836928 0.09899571 -0.00276400 0 0 0 0
-0.02697561 0.03549482 -0.07806201 0 0 0 0
0.03259688 0.07004022 0.04686046 0 0 0 0
-0.09220900 -0.04382650 0.01542028 0 0 0 0
-0.01369256 -0.04002775 0.07633267 0 0 0 0
-0.00286638 0.09292109 0.01624068 0 0 0 0
-0.04282129 0.03505831 -0.07069202 0 0 0 0
0.01878656 -0.06929249 0.04859039 0 0 0 0
0.07682303 -0.08830041 -0.00290295 0 0 0 0
-0.04165111 -0.06623916 -0.04929861 0 0 0 0
-0.04896104 0.08798325 -0.02142522 0 0 0 0
0.00710274 0.01734905 -0.09222631 0 0 0 0
0.04869910 0.03738989 -0.06587724 0 0 0 0
-0.06442102 0.06088439 0.04230144 0 0 0 0
-0.08096524 -0.06267123 0.02502396 0 0 0 0
-0.01080158 0.03805273 -0.07806732 0 0 0 0
0.00242853 0.02435127 0.08799649 0 0 0 0
0.08681031 -0.03889772 -0.02462126 0 0 0 0
-0.01534358 0.09351571 -0.01510436 0 0 0 0
-0.04677850 -0.02791298 0.06987526 0 0 0 0
0.03250621 0.00722684 0.08254454 0 0 0 0
-0.00643687 0.03967716 0.07683086 0 0 0 0
-0.05303170 0.03272483 0.06340807 0 0 0 0
0.01600674 0.07849608 -0.03737164 0 0 0 0
0.02127833 -0.08119965 0.03396919 0 0 0 0
-0.05279384 -0.02807386 -0.06476112 0 0 0 0
-0.02004120 -0.05494665 -0.06316438 0 0 0 0
-0.09072660 0.02294333 -0.01986679 0 0 0 0
0.07421558 0.07692229 0.02139549 0 0 0 0
0.03184948 0.00546421 -0.08285160 0 0 0 0
-0.07079427 -0.01254649 0.04666753 0 0 0 0
-0.03392807 0.06774344 0.04910237 0 0 0 0
0.08477835 -0.06882217 0.01639720 0 0 0 0
0.05725758 -0.08125523 0.02714571 0 0 0 0
0.04780215 0.01060278 -0.06989118 0 0 0 0
0.04388329 -0.01144935 0.07325293 0 0 0 0
-0.09768559 -0.03101417 -0.00535374 0 0 0 0
-0.08320986 -0.01768084 -0.03106275 0 0 0 0
-0.00584776 -0.09494526 -0.01230079 0 0 0 0
-0.06849585 -0.05298375 -0.04327039 0 0 0 0
-0.03299472 0.09491579 -0.01194256 0 0 0 0
0.08196519 0.07716407 -0.01287585 0 0 0 0
-0.01401917 0.07429014 0.04259640 0 0 0 0
-0.06049139 -0.09462123 -0.00407390 0 0 0 0
-0.00001849 -0.01699679 0.09268069 0 0 0 0
-0.07826953 0.00180479 -0.03810438 0 0 0 0
0.07629698 0.08570616 0.00803308 0 0 0 0
0.03783312 0.02123312 -0.07782265 0 0 0 0
0.04751997 -0.05563688 0.05645297 0 0 0 0
-0.07262439 0.05097031 -0.03964741 0 0 0 0
0.09473224 -0.05736455 -0.00619838 0 0 0 0
0.07060745 -0.02132515 0.04687225 0 0 0 0
0.09608679 -0.04669727 -0.00687563 0 0 0 0
0.04367993 0.00518135 -0.07347492 0 0 0 0
0.09213726 0.05298902 0.01271095 0 0 0 0
-0.03736326 -0.00339635 -0.07898228 0 0 0 0
-0.04297492 -0.01874311 -0.07374608 0 0 0 0
-0.06536551 0.07325632 -0.03171163 0 0 0 0
0.04760079 -0.06568348 0.04814937 0 0 0 0
0.01212697 0.09814402 -0.00485316 0 0 0 0
-0.01254622 -0.06737427 -0.05071812 0 0 0 0
0.01728921 0.01410882 0.09141774 0 0 0 0
0.00964336 0.06513976 -0.05292877 0 0 0 0
-0.05923948 -0.02343023 -0.05911201 0 0 0 0
0.01410982 -0.07987820 0.03608884 0 0 0 0
0.04315719 -0.07150551 -0.04334984 0 0 0 0
0.06650849 0.07822592 -0.02582269 0 0 0 0
-0.09276087 0.00597489 -0.01627456 0 0 0 0
0.04711635 -0.09708833 -0.00397565 0 0 0 0
0.05460984 0.00480946 -0.06372164 0 0 0 0
0.09883542 -0.02395977 -0.00199416 0 0 0 0
-0.02578805 0.02128631 0.08538986 0 0 0 0
0.00014696 -0.03508130 -0.08058070 0 0 0 0
0.06198405 0.01370671 -0.05646879 0 0 0 0
-0.02169511 0.08511733 0.02840205 0 0 0 0
-0.00740311 0.09742536 -0.00645727 0 0 0 0
-0.07189873 0.04865251 0.04124300 0 0 0 0
0.04262592 0.04461318 -0.06633286 0 0 0 0
-0.05722816 0.03889595 -0.05834427 0 0 0 0
0.04495288 0.05072495 -0.06127296 0 0 0 0
0.05834654 0.02827963 -0.05934094 0 0 0 0
-0.08534409 0.06270687 0.01974668 0 0 0 0
-0.07462642 -0.02903509 -0.04186633 0 0 0 0
0.08078148 -0.07214652 -0.01868085 0 0 0 0
-0.07396302 -0.01212802 0.04306279 0 0 0 0
0.05369672 0.05425993 -0.05416228 0 0 0 0
0.04524232 0.09293191 0.01392656 0 0 0 0
0.09624831 0.01274872 0.00925167 0 0 0 0
0.05244753 -0.09421930 -0.00902901 0 0 0 0
0.00659014 -0.09849603 -0.00398971 0 0 0 0
0.05501079 0.02617018 -0.06288086 0 0 0 0
0.00067090 -0.01070735 -0.09583689 0 0 0 0
-0.08854028 -0.00250411 0.02323716 0 0 0 0
0.06714009 0.08864929 0.01156739 0 0 0 0
-0.01998052 -0.09612407 0.00919337 0 0 0 0
-0.09024064 0.02348187 -0.02092232 0 0 0 0
-0.00248135 -0.03872246 0.07754321 0 0 0 0
-0.02210301 -0.08310477 0.03109186 0 0 0 0
-0.06487905 -0.08487220 0.01921893 0 0 0 0
0.05870711 0.05720270 0.04893463 0 0 0 0
0.01862634 0.07293033 -0.04451707 0 0 0 0
-0.05995994 0.08046263 -0.02738986 0 0 0 0
-0.01839514 0.07501607 -0.04176602 0 0 0 0
0.02559677 0.03659220 -0.07773582 0 0 0 0
0.08964522 -0.04521618 -0.01957886 0 0 0 0
0.02732616 0.03977514 -0.07529430 0 0 0 0
0.06503832 -0.04179418 -0.05034759 0 0 0 0
-0.04158363 -0.09375782 0.01277683 0 0 0 0
-0.03849844 0.09583219 0.00938964 0 0 0 0
-0.07238301 -0.04462729 0.04199194 0 0 0 0
-0.06362260 0.03176068 -0.05367361 0 0 0 0
0.02432909 0.04538860 0.07138978 0 0 0 0
0.02280234 0.09263973 -0.01638396 0 0 0 0
0.09066487 -0.03825813 -0.01890404 0 0 0 0
-0.01029291 -0.09556271 0.01103426 0 0 0 0
0.09233058 -0.02286173 0.01773082 0 0 0 0
-0.09470052 0.05216414 -0.00813675 0 0 0 0
-0.05380574 0.05220201 -0.05519608 0 0 0 0
-0.08410390 0.00669058 -0.03019019 0 0 0 0
0.05462122 -0.06671520 -0.04406630 0 0 0 0
-0.08781342 0.04535965 -0.02187251 0 0 0 0
0.05059521 -0.06590055 -0.04678728 0 0 0 0
-0.05184150 -0.05255425 -0.05626380 0 0 0 0
0.05309642 -0.09248523 -0.01231777 0 0 0 0
0.07579480 0.02925208 -0.04017412 0 0 0 0
-0.02361842 0.02729892 -0.08382054 0 0 0 0
-0.03502015 -0.06561435 0.05137258 0 0 0 0
0.06771472 0.00158125 -0.05044864 0 0 0 0
0.08258050 -0.06422321 -0.02261561 0 0 0 0
-0.02382448 -0.02403103 -0.08517374 0 0 0 0
0.02142808 0.07756202 0.03841166 0 0 0 0
0.08021735 0.04379071 0.03323670 0 0 0 0
0.04635545 0.06250282 -0.05130699 0 0 0 0
-0.04288371 -0.04251778 0.06746044 0 0 0 0
-0.05846279 -0.09243362 -0.01045636 0 0 0 0
-0.05435804 -0.08742880 -0.02018483 0 0 0 0
0.08332746 -0.04295469 -0.02952631 0 0 0 0
0.05414681 -0.02966607 -0.06335551 0 0 0 0
0.00929501 0.01549237 -0.09311686 0 0 0 0
0.07249140 0.02035696 0.04472084 0 0 0 0
-0.08924218 0.01060294 0.02212028 0 0 0 0
-0.05758811 -0.08948056 0.01569532 0 0 0 0
-0.08612484 0.02428108 -0.02705525 0 0 0 0
0.08411931 -0.03985757 -0.02865527 0 0 0 0
-0.09322219 -0.00917127 -0.01564060 0 0 0 0
0.07254118 -0.03364009 0.04369532 0 0 0 0
-0.03973118 0.07437818 0.04087547 0 0 0 0
0.06421386 0.05856333 -0.04408219 0 0 0 0
0.01338371 -0.08733447 -0.02516348 0 0 0 0
0.01161559 0.09893820 0.00190551 0 0 0 0
-0.04102873 -0.03627393 0.07150586 0 0 0 0
0.07214332 0.07675513 -0.02367448 0 0 0 0
0.01075352 -0.07221432 0.04508606 0 0 0 0
-0.05262896 -0.06527416 -0.04610125 0 0 0 0
-0.00913701 -0.08582351 0.02750569 0 0 0 0
-0.02626267 -0.06697175 0.05104952 0 0 0 0
-0.01138598 0.06768347 -0.05049007 0 0 0 0
-0.07220771 0.05924543 0.03673267 0 0 0 0
-0.08124267 0.04548683 -0.03148153 0 0 0 0
0.09213179 0.02195221 -0.01694634 0 0 0 0
-0.07338899 -0.05556216 0.03714610 0 0 0 0
-0.03236870 -0.01866252 0.08196704 0 0 0 0
0.06869919 -0.01808161 0.04919294 0 0 0 0
-0.05767296 -0.00668556 -0.06089691 0 0 0 0
-0.01598131 -0.08753319 0.02502102 0 0 0 0
-0.03997027 -0.07000011 -0.04564477 0 0 0 0
-0.05875931 -0.04536287 -0.05509899 0 0 0 0
-0.07196506 -0.04082118 -0.04334218 0 0 0 0
0.01850127 0.01774741 -0.08984114 0 0 0 0
0.03007388 -0.09607689 -0.00908833 0 0 0 0
0.04328293 -0.04249168 -0.06711166 0 0 0 0
0.00177378 -0.02040563 -0.09050564 0 0 0 0
-0.07576321 0.02581913 -0.04070636 0 0 0 0
0.01834093 -0.04474659 0.07239293 0 0 0 0
-0.00047086 0.09687726 -0.00796050 0 0 0 0
0.03597271 -0.03910690 0.07266701 0 0 0 0
-0.02366563 0.09909008 0.00058607 0 0 0 0
0.07921399 -0.01531823 -0.03625444 0 0 0 0
-0.09578083 0.03795031 0.00920109 0 0 0 0
-0.07529230 -0.06531256 -0.03020473 0 0 0 0
-0.01771732 0.03267943 -0.08175930 0 0 0 0
-0.00567728 0.05533790 -0.06308886 0 0 0 0
0.08048664 0.06943360 -0.02142776 0 0 0 0
-0.08438580 0.07686726 -0.00953973 0 0 0 0
-0.02641314 0.09638183 0.00868698 0 0 0 0
0.09870736 -0.00934948 -0.00354660 0 0 0 0
0.02668256 -0.07704605 -0.03907471 0 0 0 0
0.07308978 0.06880845 -0.02927141 0 0 0 0
0.06200577 0.02989655 -0.05573227 0 0 0 0
-0.05381740 0.03444365 -0.06241649 0 0 0 0
-0.04495010 -0.08784937 -0.02252182 0 0 0 0
-0.07088917 -0.08886068 -0.00827075 0 0 0 0
-0.00884835 0.03553813 -0.07996036 0 0 0 0
-0.09858847 0.02481379 0.00226454 0 0 0 0
0.06399633 0.03033102 -0.05339810 0 0 0 0
-0.06258170 -0.08296628 -0.02306516 0 0 0 0
-0.02187631 0.06578991 -0.05223180 0 0 0 0
0.08751324 -0.04067133 0.02341367 0 0 0 0
-0.09466756 0.05544319 0.00687530 0 0 0 0
0.02661862 0.01253152 0.08632566 0 0 0 0
-0.07594173 -0.03868962 -0.03895975 0 0 0 0
-0.03074976 -0.01229641 -0.08346684 0 0 0 0
0.00730144 -0.00084766 -0.09760031 0 0 0 0
-0.06990734 -0.01608150 -0.04792831 0 0 0 0
0.02121689 -0.00647720 0.08996046 0 0 0 0
0.09448659 0.06511057 -0.00166564 0 0 0 0
-0.09693500 0.04355050 -0.00619992 0 0 0 0
0.08224083 -0.07395861 -0.01560422 0 0 0 0
-0.05495358 -0.05470576 0.05323322 0 0 0 0
-0.09447299 -0.05907775 -0.00615831 0 0 0 0
-0.00977343 -0.06067493 -0.05762189 0 0 0 0
-0.05037277 0.01768884 -0.06753592 0 0 0 0
0.09863013 0.04641687 -0.00003912 0 0 0 0
0.02716815 0.09638364 0.00906748 0 0 0 0
0.02512076 0.09913310 0.00059145 0 0 0 0
0.01611022 -0.07771604 0.03856920 0 0 0 0
0.08884915 -0.02444010 0.02278693 0 0 0 0
0.08089468 0.03158568 -0.03347996 0 0 0 0
-0.03599407 -0.07872857 -0.03593809 0 0 0 0
-0.02318936 0.01472457 -0.08828270 0 0 0 0
-0.02516690 0.08537397 0.02763125 0 0 0 0
-0.05189064 -0.04300369 0.06113868 0 0 0 0
0.06705175 0.09136878 0.00692776 0 0 0 0
0.00285396 -0.01706583 0.09261697 0 0 0 0
0.08484392 -0.03278471 -0.02841819 0 0 0 0
0.03612303 0.08829792 -0.02294503 0 0 0 0
0.02732974 0.06085280 -0.05689145 0 0 0 0
-0.06854655 0.04556582 -0.04602677 0 0 0 0
-0.03399184 0.08163026 -0.03227936 0 0 0 0
-0.06423546 0.06513347 0.03945746 0 0 0 0
0.09582856 -0.05921776 -0.00221417 0 0 0 0
-0.05376730 -0.08715366 -0.02119532 0 0 0 0
0.06420178 -0.04969107 0.04857415 0 0 0 0
-0.04711582 -0.06972448 0.04392692 0 0 0 0
-0.00071732 -0.05686286 -0.06162947 0 0 0 0
-0.01983208 -0.03008628 -0.08311687 0 0 0 0
0.04241037 0.05910909 -0.05578198 0 0 0 0
-0.01771704 -0.04134606 -0.07521926 0 0 0 0
-0.05586336 0.05951352 -0.04937137 0 0 0 0
0.01264776 0.08319435 0.03110885 0 0 0 0
-0.05776033 -0.06507878 -0.04405800 0 0 0 0
-0.06129776 -0.00144803 0.05722547 0 0 0 0
-0.01581423 -0.04600207 -0.07134531 0 0 0 0
-0.05833530 -0.08106969 -0.02705299 0 0 0 0
-0.01041951 -0.02384014 -0.08826710 0 0 0 0
-0.05849819 -0.03262428 -0.05877724 0 0 0 0
-0.02320940 0.00716646 -0.08878343 0 0 0 0
0.01457754 -0.05437296 0.06385721 0 0 0 0
-0.03865058 0.02382695 -0.07670107 0 0 0 0
-0.07677750 0.05048441 0.03558487 0 0 0 0
-0.01189531 0.06412245 -0.05409675 0 0 0 0
0.01461229 0.01707762 -0.09131327 0 0 0 0
-0.08286486 -0.05724143 -0.02574446 0 0 0 0
-0.04274332 -0.07890038 -0.03498515 0 0 0 0
0.03386651 -0.02357120 -0.07988311 0 0 0 0
0.02799694 0.09817638 -0.00397961 0 0 0 0
0.08987048 -0.01127809 -0.02099243 0 0 0 0
-0.03152627 0.09888459 -0.00155041 0 0 0 0
-0.02595508 -0.00994962 0.08684291 0 0 0 0
-0.01061761 0.06703226 -0.05092794 0 0 0 0
0.04726688 0.06294719 0.05083327 0 0 0 0
-0.04510227 0.01860140 -0.07214472 0 0 0 0
0.00355620 -0.06594046 0.05250819 0 0 0 0
0.08391754 -0.07807145 -0.00928215 0 0 0 0
0.09526835 -0.02319102 0.01114670 0 0 0 0
-0.03401268 0.07640339 0.03906308 0 0 0 0
0.04452430 0.05528864 -0.05807324 0 0 0 0
-0.04984261 0.07691070 -0.03518451 0 0 0 0
-0.02808639 -0.08094176 -0.03380419 0 0 0 0
-0.07323370 -0.05457960 -0.03773096 0 0 0 0
0.09796900 -0.01878961 0.00596590 0 0 0 0
0.03273404 0.08381732 -0.02981660 0 0 0 0
0.03380945 -0.03235631 -0.07723661 0 0 0 0
-0.01275664 0.00845289 0.09467584 0 0 0 0
-0.05415491 0.00295506 -0.06447710 0 0 0 0
-0.07591369 -0.01771184 -0.04090422 0 0 0 0
0.07856086 -0.06691571 -0.02553294 0 0 0 0
0.07509357 0.00632160 -0.04196921 0 0 0 0
-0.00372477 -0.04816381 -0.06966168 0 0 0 0
0.08920477 0.02938378 -0.02213201 0 0 0 0
-0.08516574 -0.03792239 -0.02709065 0 0 0 0
0.06635725 -0.04955388 -0.04700998 0 0 0 0
0.01367291 0.08433151 -0.02968152 0 0 0 0
0.06377834 0.09316790 -0.00564837 0 0 0 0
-0.04696184 -0.07444569 -0.03904762 0 0 0 0
0.08266835 0.00102491 0.03207733 0 0 0 0
0.04132095 0.09543677 0.00906957 0 0 0 0
-0.03254011 0.09327001 -0.01469979 0 0 0 0
0.04500987 -0.08589856 -0.02501489 0 0 0 0
0.02696120 0.08966593 -0.02097008 0 0 0 0
0.00568243 -0.00761251 -0.09716347 0 0 0 0
0.05742047 -0.02887004 -0.06036330 0 0 0 0
-0.03291188 -0.03152622 -0.07793494 0 0 0 0
-0.02167911 -0.09030950 0.02052813 0 0 0 0
-0.09651609 -0.02860489 -0.00905013 0 0 0 0
-0.09559652 -0.05605960 -0.00483345 0 0 0 0
-0.07897091 0.00632075 -0.03678961 0 0 0 0
0.06713495 -0.00255977 0.05119409 0 0 0 0
-0.09716871 -0.01689459 -0.00817217 0 0 0 0
0.07326101 0.04977518 0.03959922 0 0 0 0
0.09173981 -0.06873404 0.00504114 0 0 0 0
-0.01530742 -0.06107458 -0.05713959 0 0 0 0
-0.07355187 0.01283955 -0.04380171 0 0 0 0
0.04209819 -0.00017845 -0.07508712 0 0 0 0
-0.06767635 0.01591060 -0.05033698 0 0 0 0
-0.00476026 -0.06628087 -0.05176591 0 0 0 0
-0.01989590 0.01112380 -0.09082881 0 0 0 0
-0.06500480 -0.00247349 -0.05325824 0 0 0 0
-0.09796612 0.02880119 0.00497728 0 0 0 0
0.05909629 -0.03773705 0.05694900 0 0 0 0
0.03910148 -0.00545145 -0.07732366 0 0 0 0
-0.09085530 0.03792178 0.01859060 0 0 0 0
-0.00250069 -0.09479661 0.01237148 0 0 0 0
0.06047065 0.04887845 -0.05218776 0 0 0 0
0.08870973 0.03633860 -0.02225057 0 0 0 0
-0.03293152 -0.09295751 0.01518037 0 0 0 0
-0.07289282 0.05357111 0.03839361 0 0 0 0
0.05693094 -0.05192304 -0.05325509 0 0 0 0
-0.03587746 0.09726943 -0.00648285 0 0 0 0
0.00020680 -0.02842317 -0.08522062 0 0 0 0
0.04047685 -0.09515619 -0.01033793 0 0 0 0
-0.01863464 -0.04290606 0.07387286 0 0 0 0
-0.00052744 -0.06789151 -0.05000972 0 0 0 0
-0.04291028 -0.00762852 -0.07419775 0 0 0 0
0.04333339 -0.06873272 -0.04646097 0 0 0 0
-0.01709617 0.07711685 -0.03926668 0 0 0 0
-0.08412807 0.02400186 0.02941923 0 0 0 0
0.00995436 -0.07498252 -0.04187762 0 0 0 0
0.01479779 0.05718214 -0.06125181 0 0 0 0
-0.09907861 0.01320035 0.00051346 0 0 0 0
-0.06847433 0.08684064 -0.01373814 0 0 0 0
-0.09067223 -0.02372252 0.01961112 0 0 0 0
-0.03006367 0.01292113 0.08419588 0 0 0 0
0.06139077 0.02141083 -0.05664282 0 0 0 0
-0.03948242 0.01462954 -0.07703164 0 0 0 0
-0.07925915 -0.08662533 -0.00221937 0 0 0 0
-0.08377396 -0.01299352 0.03052145 0 0 0 0
0.07186464 -0.00047809 -0.04572224 0 0 0 0
0.09509832 -0.05383475 0.00673345 0 0 0 0
0.09913118 0.02950965 -0.00073944 0 0 0 0
-0.04001257 0.03178168 -0.07392599 0 0 0 0
-0.09780116 0.04564763 -0.00289662 0 0 0 0
-0.06284250 -0.05764934 0.04545290 0 0 0 0
0.06408220 -0.04980877 -0.04871951 0 0 0 0
-0.09624366 -0.04185267 -0.00787685 0 0 0 0
0.08944799 -0.02045954 -0.02242042 0 0 0 0
-0.01783813 0.07793290 0.03822491 0 0 0 0
0.09217751 -0.02850910 0.01752545 0 0 0 0
0.04190195 -0.00902296 -0.07516472 0 0 0 0
0.00822188 -0.08470816 -0.02898334 0 0 0 0
-0.00046732 -0.07291553 -0.04455624 0 0 0 0
-0.05107738 0.02772811 0.06615853 0 0 0 0
0.04725124 -0.05640569 -0.05592080 0 0 0 0
-0.05704740 0.05695104 -0.05004575 0 0 0 0
-0.09621277 0.05687459 0.00215510 0 0 0 0
-0.03475943 0.05462020 0.06163631 0 0 0 0
-0.05178136 0.00654246 0.06653596 0 0 0 0
-0.07759478 -0.02396599 0.03848831 0 0 0 0
0.03527822 0.01592988 -0.07999604 0 0 0 0
0.00730239 0.07924341 -0.03651252 0 0 0 0
-0.06975070 -0.06595834 0.03487859 0 0 0 0
-0.09302729 0.04269160 0.01371850 0 0 0 0
0.05847206 -0.08933199 -0.01566169 0 0 0 0
-0.06785405 0.01515875 -0.05025355 0 0 0 0
0.07658432 0.03761996 -0.03838863 0 0 0 0
0.00549720 0.03724735 -0.07874043 0 0 0 0
0.00166259 -0.07672255 -0.03963966 0 0 0 0
0.09160925 0.01647951 0.01851654 0 0 0 0
-0.03772740 -0.09613951 -0.00881738 0 0 0 0
-0.04982008 0.02368488 0.06783876 0 0 0 0
-0.03434232 0.07125865 0.04504625 0 0 0 0
-0.01437577 -0.03750756 -0.07871649 0 0 0 0
-0.07364700 -0.08204857 0.01598150 0 0 0 0
-0.03438843 0.06626020 0.05072925 0 0 0 0
0.05560679 -0.08531167 0.02262627 0 0 0 0
-0.02846540 -0.08644594 0.02620761 0 0 0 0
0.06365929 0.05593865 0.04598289 0 0 0 0
-0.03530434 -0.08920943 -0.02152242 0 0 0 0
0.06846672 0.05558407 -0.04213109 0 0 0 0
0.05457390 -0.07477172 -0.03589787 0 0 0 0
-0.05223177 0.00516918 -0.06606640 0 0 0 0
0.06322333 -0.08739470 -0.01652087 0 0 0 0
-0.05460814 0.05743451 0.05189034 0 0 0 0
-0.05163473 -0.01041322 -0.06635780 0 0 0 0
-0.04094782 -0.00366531 -0.07596800 0 0 0 0
-0.07013394 0.05489872 -0.04086251 0 0 0 0
-0.06208986 0.08343567 0.02226527 0 0 0 0
-0.01069280 -0.07435942 0.04238954 0 0 0 0
0.07649952 -0.02575103 -0.03945400 0 0 0 0
0.09274137 0.06871603 0.00045991 0 0 0 0
0.05729157 -0.07235307 -0.03740636 0 0 0 0
-0.08065426 -0.03517184 -0.03357467 0 0 0 0
-0.00907990 -0.02800500 -0.08561558 0 0 0 0
-0.06315061 -0.09153852 0.00929050 0 0 0 0
0.02703712 -0.01622163 -0.08581398 0 0 0 0
0.00232230 0.04640965 0.07132211 0 0 0 0
-0.09189473 0.04228145 0.01608135 0 0 0 0
0.04645093 0.05229027 -0.05972821 0 0 0 0
0.05933347 0.09133344 0.01157056 0 0 0 0
-0.01604141 0.05425500 -0.06402707 0 0 0 0
-0.06864747 -0.09105531 -0.00647855 0 0 0 0
0.04445330 -0.06181909 -0.05249329 0 0 0 0
0.03213180 0.07458749 -0.04157310 0 0 0 0
-0.07045682 0.03741628 -0.04550748 0 0 0 0
0.06094128 -0.09003557 0.01341932 0 0 0 0
0.00693752 -0.08621271 -0.02701053 0 0 0 0
-0.01152841 0.06976970 -0.04815803 0 0 0 0
-0.05285920 -0.02721235 -0.06443591 0 0 0 0
-0.06174003 0.02454060 -0.05648501 0 0 0 0
-0.05302556 -0.07870077 -0.03241620 0 0 0 0
0.02624568 0.00554414 -0.08700408 0 0 0 0
-0.01943416 0.00945066 0.09093608 0 0 0 0
-0.06431787 -0.07805352 0.02754426 0 0 0 0
-0.09196800 0.06812728 0.00555901 0 0 0 0
-0.06176240 -0.08133189 -0.02538792 0 0 0 0
-0.00059652 -0.05476890 -0.06355322 0 0 0 0
-0.06859364 0.00920914 -0.04935693 0 0 0 0
-0.06815501 0.03799542 0.04795616 0 0 0 0
0.06285088 -0.05068452 -0.04910007 0 0 0 0
-0.04486285 0.08457381 -0.02698442 0 0 0 0
0.03507156 0.06015610 -0.05686818 0 0 0 0
0.07131562 -0.04939120 -0.04164355 0 0 0 0
-0.09968199 0.01151940 -0.00044282 0 0 0 0
-0.01931627 -0.02901916 0.08412903 0 0 0 0
-0.02055623 0.07620969 -0.04029926 0 0 0 0
-0.08492804 -0.02392236 -0.02903899 0 0 0 0
0.02264290 -0.03980791 0.07581417 0 0 0 0
-0.03843562 0.07370120 -0.04180906 0 0 0 0
-0.08128285 -0.02854652 -0.03320657 0 0 0 0
-0.06506754 0.06541188 0.03863671 0 0 0 0
-0.00030029 -0.08280726 -0.03161772 0 0 0 0
-0.07199071 -0.04686476 0.04169132 0 0 0 0
0.00360451 0.04244781 0.07452835 0 0 0 0
-0.07184930 -0.06354234 0.03468611 0 0 0 0
0.06881680 0.08414991 -0.01698041 0 0 0 0
-0.08455765 -0.04566865 -0.02704383 0 0 0 0
-0.04962731 -0.03026556 0.06695707 0 0 0 0
-0.05023960 0.08058565 0.03101603 0 0 0 0
0.00782884 -0.04476441 0.07272646 0 0 0 0
0.06795443 0.00079976 -0.04993932 0 0 0 0
-0.04175476 0.00810371 -0.07510044 0 0 0 0
-0.05395352 -0.02685706 -0.06362993 0 0 0 0
-0.05623695 0.04954199 0.05509993 0 0 0 0
0.02099435 -0.02258281 -0.08725322 0 0 0 0
0.00129214 -0.09219792 0.01779673 0 0 0 0
0.08367210 -0.08020093 -0.00644763 0 0 0 0
-0.01872852 -0.09853104 -0.00428971 0 0 0 0
0.01000676 0.08140810 -0.03349126 0 0 0 0
-0.02838657 -0.01610337 -0.08486683 0 0 0 0
0.08143840 -0.01954448 -0.03320329 0 0 0 0
0.08932631 -0.04865076 -0.01866747 0 0 0 0
0.05534607 -0.09566139 0.00497184 0 0 0 0
0.04435574 -0.08045776 -0.03246449 0 0 0 0
-0.09847099 -0.03703622 0.00269335 0 0 0 0
0.04283869 -0.02146077 -0.07361810 0 0 0 0
-0.01385936 -0.00830701 -0.09405296 0 0 0 0
-0.02203557 0.03872348 -0.07691394 0 0 0 0
-0.01635378 -0.02060834 -0.08940957 0 0 0 0
0.02593181 -0.05688525 -0.06100368 0 0 0 0
0.01646301 0.04508090 -0.07235713 0 0 0 0
-0.07625215 -0.08623479 -0.00766707 0 0 0 0
0.06825463 0.07443883 0.02846554 0 0 0 0
0.07288011 0.05101554 -0.03958179 0 0 0 0
-0.08952658 -0.07639050 -0.00029753 0 0 0 0
-0.03089644 -0.07184142 -0.04513774 0 0 0 0
0.05485084 -0.07620925 0.03490290 0 0 0 0
-0.01713241 0.04499153 -0.07211244 0 0 0 0
0.06691013 0.01162727 -0.05117238 0 0 0 0
-0.07376353 -0.07395335 -0.02428276 0 0 0 0
0.00726166 -0.08499811 -0.02858152 0 0 0 0
-0.01955863 -0.09464039 0.01269669 0 0 0 0
0.01177900 -0.07327125 -0.04425400 0 0 0 0
-0.00513818 -0.08420778 0.02976964 0 0 0 0
0.06545286 0.08341470 -0.02008172 0 0 0 0
0.06637091 -0.05859489 -0.04209012 0 0 0 0
-0.01425146 0.02861317 0.08497553 0 0 0 0
-0.06487550 0.07612858 -0.02906874 0 0 0 0
-0.05524889 -0.09339935 -0.00991848 0 0 0 0
-0.00085983 -0.09802528 -0.00532014 0 0 0 0
-0.08606616 0.06894830 -0.01407136 0 0 0 0
0.07627367 -0.04321963 -0.03768381 0 0 0 0
0.05925177 -0.09504663 0.00446489 0 0 0 0
0.09758668 0.02520444 0.00676392 0 0 0 0
0.00901521 0.02965158 -0.08439114 0 0 0 0
-0.02794980 -0.09896671 0.00020187 0 0 0 0
0.00233061 0.08006461 -0.03546933 0 0 0 0
-0.08354072 -0.07717894 -0.01048638 0 0 0 0
-0.03373700 0.05102209 -0.06512099 0 0 0 0
0.08754876 0.03251410 -0.02406316 0 0 0 0
-0.09055584 -0.03886115 0.01894765 0 0 0 0
-0.09646529 -0.01444701 -0.00876932 0 0 0 0
-0.07437394 -0.03508671 -0.04151573 0 0 0 0
0.08981691 0.01964779 -0.02117413 0 0 0 0
-0.08275364 0.08335336 0.00359862 0 0 0 0
-0.00830629 -0.08861773 -0.02314933 0 0 0 0
-0.01842353 -0.06871374 0.04906085 0 0 0 0
-0.08861610 0.03214601 0.02242836 0 0 0 0
0.05068583 0.00087676 0.06757964 0 0 0 0
0.01425772 -0.09763288 -0.00607895 0 0 0 0
-0.03008476 -0.07909218 -0.03619399 0 0 0 0
0.08886514 0.01596455 0.02288901 0 0 0 0
0.06786963 0.06900804 -0.03367125 0 0 0 0
0.02590594 -0.00999329 -0.08719216 0 0 0 0
0.04052130 0.04336353 0.06824128 0 0 0 0
0.02987045 0.05508042 -0.06251846 0 0 0 0
-0.02584429 -0.09250581 0.01714061 0 0 0 0
0.03594415 -0.09324168 -0.01424542 0 0 0 0
0.03518251 0.03431735 0.07539713 0 0 0 0
-0.02064799 -0.05559611 -0.06271317 0 0 0 0
-0.01367338 0.09857851 -0.00322124 0 0 0 0
0.03805878 0.06908967 -0.04739417 0 0 0 0
0.01561912 -0.09773886 -0.00571237 0 0 0 0
-0.05939607 0.07800590 -0.03056544 0 0 0 0
-0.02938155 0.03077196 -0.07981094 0 0 0 0
0.07405853 0.01875192 0.04298839 0 0 0 0
0.02136563 -0.09774230 0.00579414 0 0 0 0
0.03742258 -0.05866800 -0.05734880 0 0 0 0
-0.09109180 0.01569188 -0.01899756 0 0 0 0
-0.06893186 0.07133712 -0.03088634 0 0 0 0
-0.01202733 -0.08433435 -0.03003051 0 0 0 0
0.01468602 0.07346082 -0.04359245 0 0 0 0
-0.04446148 -0.06530628 -0.04951085 0 0 0 0
0.05077612 0.08666598 -0.02265883 0 0 0 0
0.06534432 -0.03766144 -0.05093724 0 0 0 0
0.08302663 -0.01194252 -0.03123000 0 0 0 0
-0.00519135 0.07411031 0.04275865 0 0 0 0
0.01493166 0.05083971 0.06729463 0 0 0 0
-0.06963633 -0.07818475 -0.02392895 0 0 0 0
-0.02721478 -0.04117966 0.07404383 0 0 0 0
0.08137706 0.02307331 -0.03353850 0 0 0 0
-0.09859915 0.04309288 -0.00041230 0 0 0 0
0.04009823 -0.01987212 -0.07607362 0 0 0 0
-0.02371262 -0.09441113 -0.01270135 0 0 0 0
-0.02999507 -0.06662846 -0.05065996 0 0 0 0
0.03063301 -0.09425877 -0.01272002 0 0 0 0
0.07280688 0.05975565 0.03578552 0 0 0 0
0.04119049 0.06438196 -0.05119336 0 0 0 0
0.02814512 -0.05473953 -0.06299566 0 0 0 0
0.02937874 -0.00152681 -0.08457839 0 0 0 0
0.07195179 -0.00479289 -0.04552235 0 0 0 0
0.03796771 -0.04421278 0.06899941 0 0 0 0
-0.00216232 0.03379291 -0.08147828 0 0 0 0
0.02424926 -0.07804271 0.03777290 0 0 0 0
0.06948189 -0.01616593 -0.04801742 0 0 0 0
-0.09211729 0.01194793 0.01781759 0 0 0 0
0.02554736 0.03975238 -0.07547561 0 0 0 0
-0.05593286 -0.00490504 -0.06273606 0 0 0 0
0.03933418 -0.09059656 -0.01866826 0 0 0 0
0.05293028 0.00479943 -0.06550491 0 0 0 0
0.03894386 -0.09251094 -0.01574159 0 0 0 0
0.07491897 0.04565857 0.03878306 0 0 0 0
0.05139720 -0.09046637 -0.01621700 0 0 0 0
-0.07111172 0.02393337 -0.04662006 0 0 0 0
0.05970320 0.02953495 0.05776174 0 0 0 0
-0.05855045 -0.07724838 0.03164610 0 0 0 0
0.02097908 0.05344859 0.06464536 0 0 0 0
-0.02841252 -0.06262150 0.05522757 0 0 0 0
0.04297135 -0.00744808 -0.07445862 0 0 0 0
-0.06599743 -0.02485032 -0.05186336 0 0 0 0
-0.02777969 0.02525907 0.08324537 0 0 0 0
0.03515374 -0.08675659 0.02493780 0 0 0 0
-0.05501202 0.09061138 -0.01511807 0 0 0 0
0.04879978 0.06613629 -0.04691108 0 0 0 0
0.07108794 -0.07227291 -0.02870929 0 0 0 0
-0.07307675 -0.08929808 -0.00516045 0 0 0 0
-0.08229759 -0.01673356 0.03251548 0 0 0 0
0.01438099 0.05509736 -0.06343479 0 0 0 0
0.00227003 0.02382037 0.08833473 0 0 0 0
-0.05826598 -0.09138919 -0.01223627 0 0 0 0
-0.07644825 0.06070249 0.03135851 0 0 0 0
0.02532223 -0.02825730 -0.08270732 0 0 0 0
0.05471972 0.03174724 0.06208538 0 0 0 0
-0.00742215 -0.09447592 -0.01338999 0 0 0 0
-0.02788549 -0.08699639 -0.02534689 0 0 0 0
-0.08092125 0.04402762 -0.03207324 0 0 0 0
-0.06102666 -0.09210967 0.00974954 0 0 0 0
-0.00467267 0.07891388 -0.03690019 0 0 0 0
-0.06148348 0.01524922 -0.05668251 0 0 0 0
0.00428957 0.02977309 -0.08440654 0 0 0 0
-0.00880511 0.06224976 0.05627836 0 0 0 0
0.01895097 0.04495285 -0.07204457 0 0 0 0
-0.08198883 0.07909318 -0.01050254 0 0 0 0
-0.03512467 -0.04395885 0.07016269 0 0 0 0
0.07960179 -0.00880682 0.03617305 0 0 0 0
0.04804731 -0.07244594 -0.04084843 0 0 0 0
-0.05257125 0.03217637 -0.06390335 0 0 0 0
0.04852159 0.01602856 0.06954767 0 0 0 0
0.04081387 -0.03232345 -0.07291172 0 0 0 0
-0.03972424 -0.04560182 0.06712471 0 0 0 0
-0.01257162 -0.09904802 0.00116506 0 0 0 0
-0.02324911 0.09009419 -0.02071678 0 0 0 0
-0.08923396 0.00555363 -0.02208876 0 0 0 0
-0.07933227 -0.03165904 -0.03565842 0 0 0 0
0.07792957 -0.04340325 -0.03564472 0 0 0 0
0.06725931 -0.04124045 -0.04823882 0 0 0 0
0.04013366 0.06324977 -0.05249156 0 0 0 0
0.01580885 0.04940234 -0.06834063 0 0 0 0
-0.08503331 0.04655237 -0.02584040 0 0 0 0
-0.06747364 -0.00725841 -0.05057537 0 0 0 0
-0.08204813 -0.03781697 -0.03149531 0 0 0 0
-0.03825810 -0.00223184 -0.07820437 0 0 0 0
0.05681353 -0.07703939 -0.03244064 0 0 0 0
-0.05266263 0.01261435 0.06557118 0 0 0 0
-0.04463254 -0.00688259 -0.07288916 0 0 0 0
-0.08163103 0.02127170 -0.03341572 0 0 0 0
-0.09149834 0.05126550 -0.01501484 0 0 0 0
-0.04245818 -0.04387026 -0.06669766 0 0 0 0
0.03728082 -0.01634083 -0.07871973 0 0 0 0
0.00891205 -0.03033281 -0.08387905 0 0 0 0
0.04220628 -0.02520930 -0.07402004 0 0 0 0
-0.03000946 -0.09099013 0.01899068 0 0 0 0
0.00698507 -0.08049737 -0.03470391 0 0 0 0
-0.00574867 0.00988755 -0.09611695 0 0 0 0
-0.01217431 0.02477698 -0.08776178 0 0 0 0
0.02871933 -0.07477139 -0.04178633 0 0 0 0
-0.06784713 -0.05268606 -0.04404715 0 0 0 0
0.04334784 0.07787896 -0.03582882 0 0 0 0
0.09295546 -0.04426368 0.01383415 0 0 0 0
-0.06206432 -0.07034668 -0.03658043 0 0 0 0
0.00014692 0.06461079 0.05385550 0 0 0 0
-0.00896098 0.09878177 -0.00328879 0 0 0 0
0.02573636 -0.06819393 -0.04936783 0 0 0 0
0.08905613 0.02746081 -0.02181007 0 0 0 0
-0.00642278 -0.03422447 -0.08101676 0 0 0 0
0.01311732 -0.04420564 -0.07292630 0 0 0 0
-0.00921568 0.06823826 0.04998469 0 0 0 0
-0.04964142 0.01056591 0.06866689 0 0 0 0
0.08924333 0.06932949 -0.00946164 0 0 0 0
0.07777207 -0.01527143 -0.03848954 0 0 0 0
0.09628557 -0.00838735 -0.00978936 0 0 0 0
0.00366243 0.06996734 -0.04773115 0 0 0 0
-0.03904961 -0.07810951 -0.03646820 0 0 0 0
0.06612794 0.01220645 -0.05187726 0 0 0 0
-0.00736551 0.06484286 -0.05333916 0 0 0 0
0.01123423 -0.05050297 -0.06748901 0 0 0 0
0.05042963 0.09660404 -0.00431805 0 0 0 0
0.07538424 -0.03190983 -0.04103697 0 0 0 0
0.05633914 -0.09171011 -0.01222878 0 0 0 0
-0.09471484 -0.05337631 0.00754148 0 0 0 0
-0.04721474 -0.05084087 -0.06009486 0 0 0 0
-0.04984826 -0.05196562 -0.05794226 0 0 0 0
-0.00613886 -0.01801589 -0.09184161 0 0 0 0
0.04552095 0.01863994 -0.07165233 0 0 0 0
-0.03466611 0.05915808 -0.05762037 0 0 0 0
0.08234929 0.06856106 0.01983802 0 0 0 0
-0.07497004 -0.06593571 -0.03002687 0 0 0 0
-0.02822303 0.07124500 0.04564867 0 0 0 0
0.04651510 0.05592872 -0.05692388 0 0 0 0
-0.09344299 -0.02004221 -0.01536731 0 0 0 0
-0.07533675 0.03376675 -0.04064187 0 0 0 0
0.00064248 -0.07665201 0.03976366 0 0 0 0
0.06729676 0.06134017 -0.03998885 0 0 0 0
0.01241889 -0.09679959 -0.00854791 0 0 0 0
0.03554852 -0.02229369 -0.07902445 0 0 0 0
0.09119628 0.06543685 0.00813691 0 0 0 0
0.08073331 0.05204585 0.02999880 0 0 0 0
0.06369755 0.06666100 0.03858204 0 0 0 0
0.00516594 0.08294292 -0.03163922 0 0 0 0
-0.08693849 0.05807207 -0.01952572 0 0 0 0
-0.06935232 0.07572345 -0.02634686 0 0 0 0
-0.03352806 -0.04600865 0.06933184 0 0 0 0
-0.08228268 -0.02465497 -0.03217281 0 0 0 0
-0.05251797 0.07539246 -0.03596734 0 0 0 0
0.04007548 0.00912096 -0.07664566 0 0 0 0
0.08186615 -0.02586617 0.03298145 0 0 0 0
-0.05134078 -0.04789894 -0.05930080 0 0 0 0
-0.04350372 0.08427559 0.02755756 0 0 0 0
-0.02400241 -0.06413998 0.05392592 0 0 0 0
0.08205328 0.08191667 -0.00680585 0 0 0 0
0.05147602 -0.03915672 0.06294660 0 0 0 0
-0.08410067 -0.06546758 -0.01914693 0 0 0 0
0.03457206 0.01110645 -0.08086725 0 0 0 0
-0.06858872 0.07766010 -0.02528853 0 0 0 0
0.05059659 -0.02148064 0.06721749 0 0 0 0
-0.08282980 0.00451257 0.03180810 0 0 0 0
-0.08462076 -0.05038335 -0.02544386 0 0 0 0
-0.04725220 -0.07938004 -0.03305215 0 0 0 0
0.04049287 -0.04429473 -0.06743825 0 0 0 0
-0.08889613 0.05735312 -0.01643360 0 0 0 0
0.08815448 -0.05402797 -0.01886713 0 0 0 0
0.01265107 -0.03109136 -0.08320117 0 0 0 0
-0.06149861 -0.07383973 -0.03377023 0 0 0 0
0.09626289 -0.03847776 -0.00805486 0 0 0 0
0.08046537 -0.05729056 -0.02828927 0 0 0 0
-0.00312764 0.09814675 -0.00508003 0 0 0 0
-0.03831240 0.05862346 -0.05733567 0 0 0 0
-0.09236221 0.01672691 0.01761673 0 0 0 0
-0.07319576 -0.03278316 -0.04314663 0 0 0 0
-0.02474137 0.06329327 -0.05487831 0 0 0 0
-0.01237344 -0.04604343 -0.07134129 0 0 0 0
-0.07414742 0.07365642 -0.02421357 0 0 0 0
-0.02465662 -0.06778017 -0.04998405 0 0 0 0
0.05372022 0.00081117 0.06469614 0 0 0 0
0.03972428 0.08035695 0.03365682 0 0 0 0
-0.06436402 0.08638149 -0.01704706 0 0 0 0
0.00641764 -0.09702163 0.00762626 0 0 0 0
-0.07820725 -0.00230112 -0.03771576 0 0 0 0
-0.09057789 -0.00240115 -0.02018142 0 0 0 0
0.08066393 -0.03098877 -0.03409777 0 0 0 0
0.03532171 0.04207456 -0.07098556 0 0 0 0
-0.07111704 0.08191311 -0.01822479 0 0 0 0
-0.04949462 -0.04152011 -0.06386843 0 0 0 0
0.09414653 -0.00233529 -0.01364676 0 0 0 0
-0.06750409 -0.05455949 0.04313909 0 0 0 0
-0.05688911 0.00057422 -0.06170076 0 0 0 0
0.03278303 -0.01211719 -0.08195984 0 0 0 0
-0.04835055 0.00307809 -0.06946485 0 0 0 0
-0.04091183 -0.09181192 0.01674684 0 0 0 0
0.09225966 0.06603545 -0.00566097 0 0 0 0
0.01111557 0.03185645 -0.08271416 0 0 0 0
0.08995787 0.04885594 -0.01787831 0 0 0 0
