ply
format ascii 1.0
comment https://github.com/mikedh/trimesh
element vertex 1120
property float x
property float y
property float z
property uchar red
property uchar green
property uchar blue
property uchar alpha
end_header
-0.07428853 0.00953826 -0.04233336 0 0 0 0
0.00774560 -0.08273413 0.03169700 0 0 0 0
-0.04789244 -0.08633463 0.00178861 0 0 0 0
-0.04459692 0.03906467 -0.05943020 0 0 0 0
0.01790626 -0.06990778 -0.04551337 0 0 0 0
0.09914683 0.00204924 -0.00198973 0 0 0 0
0.01142596 0.01139273 -0.09304611 0 0 0 0
0.04526951 -0.01162282 0.07098262 0 0 0 0
-0.01106769 0.04279304 0.07309264 0 0 0 0
-0.03055637 0.01547902 -0.08100999 0 0 0 0
-0.03268939 0.02090952 -0.07750845 0 0 0 0
0.00642357 -0.04279663 -0.07376844 0 0 0 0
-0.05969955 -0.05812481 -0.03094979 0 0 0 0
0.06441887 -0.03197763 -0.04593170 0 0 0 0
0.03319639 0.03624788 -0.06867214 0 0 0 0
-0.00594973 0.02154851 0.08926325 0 0 0 0
-0.02687768 -0.05089946 0.06069194 0 0 0 0
0.05628262 -0.04462321 -0.04572370 0 0 0 0
-0.04250111 0.08225643 -0.01631551 0 0 0 0
-0.03132355 -0.01619018 -0.08045582 0 0 0 0
-0.07930326 -0.03630407 -0.02558075 0 0 0 0
0.02939465 -0.03460707 -0.07199479 0 0 0 0
0.08016443 0.03178783 0.02645830 0 0 0 0
-0.09390263 0.00078094 -0.01433095 0 0 0 0
-0.00257168 -0.05812684 -0.06041647 0 0 0 0
0.06742828 -0.03090526 -0.04277069 0 0 0 0
-0.06929130 0.06303381 -0.01409449 0 0 0 0
0.03659828 -0.03705328 -0.06611736 0 0 0 0
-0.06693898 0.06958602 0.00870125 0 0 0 0
0.06916416 -0.05920889 0.01922928 0 0 0 0
0.04123351 -0.08770166 -0.00802321 0 0 0 0
-0.00976823 -0.08179207 -0.03195945 0 0 0 0
-0.03834888 0.00878202 -0.07715711 0 0 0 0
0.07396456 -0.06496425 -0.00337912 0 0 0 0
0.03034373 0.05384336 -0.05681725 0 0 0 0
0.04457402 0.00545849 -0.07274580 0 0 0 0
-0.07050020 -0.06891841 -0.00300282 0 0 0 0
0.00984246 0.07674555 0.03887761 0 0 0 0
-0.01413955 -0.06642789 -0.04995256 0 0 0 0
0.02619716 -0.01855041 0.08288480 0 0 0 0
0.03236285 -0.02816302 -0.07422131 0 0 0 0
-0.04847977 0.03278708 0.05972221 0 0 0 0
0.03128424 0.09106700 0.00935265 0 0 0 0
-0.06513603 -0.07401782 0.00465048 0 0 0 0
-0.04394774 -0.06657820 0.03603454 0 0 0 0
0.00987305 -0.01530540 -0.09194303 0 0 0 0
0.04200105 -0.01124656 -0.07391503 0 0 0 0
0.08694021 0.01362856 -0.02382940 0 0 0 0
0.07185017 0.00519079 -0.04523081 0 0 0 0
-0.02727360 -0.04518477 0.06542935 0 0 0 0
-0.00455886 -0.07674249 -0.03984144 0 0 0 0
-0.06312897 0.03209216 -0.04654172 0 0 0 0
-0.04423684 -0.07786363 -0.02203678 0 0 0 0
0.03989492 0.08800764 -0.00892758 0 0 0 0
0.08593766 0.01467539 -0.02518788 0 0 0 0
0.05609946 0.03867653 0.04998183 0 0 0 0
0.04938461 0.06504104 -0.03304289 0 0 0 0
0.03113407 -0.06229600 0.04798558 0 0 0 0
-0.05578325 -0.02397153 -0.05807859 0 0 0 0
-0.00868023 0.04055757 -0.07559045 0 0 0 0
0.06667192 -0.03997231 -0.03865257 0 0 0 0
0.08080820 0.00955739 0.03386176 0 0 0 0
0.05209335 -0.06900758 0.02639354 0 0 0 0
0.02484453 -0.02466317 -0.08059971 0 0 0 0
0.01514989 -0.06362668 -0.05268714 0 0 0 0
-0.03242715 -0.06660870 -0.04281496 0 0 0 0
0.07099552 0.02782972 -0.04050238 0 0 0 0
-0.05922971 -0.04166149 0.04480249 0 0 0 0
0.01035981 -0.06439561 -0.05309231 0 0 0 0
0.03068367 -0.00841400 0.08316563 0 0 0 0
0.09548219 0.02556572 0.00144725 0 0 0 0
-0.02829500 -0.05915280 -0.05260120 0 0 0 0
0.08352473 -0.05064840 -0.00627136 0 0 0 0
-0.04734923 0.07778821 -0.01943729 0 0 0 0
-0.07518247 -0.06041202 -0.00901251 0 0 0 0
-0.01713671 -0.08446775 0.02649488 0 0 0 0
0.07757708 0.05155722 -0.01537044 0 0 0 0
-0.06186774 0.06923990 0.01671970 0 0 0 0
-0.09482422 0.01940678 0.00780606 0 0 0 0
0.07458679 0.05069735 -0.02097706 0 0 0 0
-0.00705250 -0.01450962 -0.09301966 0 0 0 0
0.07119482 -0.03798812 -0.03429335 0 0 0 0
-0.08803506 0.00825091 0.02312713 0 0 0 0
0.07264729 0.02638201 -0.03926749 0 0 0 0
0.05355211 0.02681994 -0.05886408 0 0 0 0
-0.06410800 0.03636547 0.04313160 0 0 0 0
0.04483699 -0.07441929 -0.02630217 0 0 0 0
-0.00109889 -0.02668943 0.08649380 0 0 0 0
0.09249874 -0.01120908 -0.01514180 0 0 0 0
0.01432784 0.05984796 -0.05690079 0 0 0 0
0.03195970 0.04822307 -0.06071577 0 0 0 0
0.02376501 -0.03406293 -0.07545609 0 0 0 0
0.04399610 0.07505888 0.02540760 0 0 0 0
0.01708285 0.09725221 0.00396419 0 0 0 0
0.07330935 -0.03526232 -0.03389417 0 0 0 0
0.01610876 0.09425075 -0.01057052 0 0 0 0
0.04872748 -0.04174975 0.05417807 0 0 0 0
-0.00242687 -0.07274106 0.04459688 0 0 0 0
0.09869651 -0.01314292 -0.00104905 0 0 0 0
-0.04109518 -0.08036275 -0.02014032 0 0 0 0
-0.01736126 0.03399192 -0.07820409 0 0 0 0
-0.05599622 -0.06385109 0.02854894 0 0 0 0
-0.02097732 0.06959073 -0.04449294 0 0 0 0
-0.06143804 0.01107836 -0.05594788 0 0 0 0
0.05984931 0.06469681 0.02367178 0 0 0 0
-0.04677754 0.01832375 0.06808878 0 0 0 0
-0.05370418 -0.07165284 -0.02198905 0 0 0 0
0.07983210 -0.00516446 0.03557790 0 0 0 0
-0.04361623 -0.06985474 0.03239800 0 0 0 0
0.01501283 -0.03618098 -0.07732521 0 0 0 0
-0.08573008 -0.01662530 -0.02501970 0 0 0 0
0.03519236 -0.05709027 -0.05081587 0 0 0 0
0.04245527 0.01020052 0.07356352 0 0 0 0
-0.01712460 0.02363559 -0.08476123 0 0 0 0
0.07796241 -0.00152809 -0.03806908 0 0 0 0
0.05261897 0.00268219 0.06554220 0 0 0 0
-0.04197217 0.01690104 0.07219468 0 0 0 0
0.08694546 0.01423541 0.02389561 0 0 0 0
-0.02601407 0.01179393 0.08527105 0 0 0 0
-0.04427093 -0.05399770 -0.04792073 0 0 0 0
-0.06119714 0.00134255 -0.05701161 0 0 0 0
-0.06888837 0.01603262 -0.04697700 0 0 0 0
-0.04015937 -0.07544667 0.02807223 0 0 0 0
0.07216932 -0.01952878 -0.04212328 0 0 0 0
-0.01432787 0.04345252 -0.07169579 0 0 0 0
-0.07348925 -0.00838368 -0.04297904 0 0 0 0
-0.00846265 -0.08449218 -0.02931783 0 0 0 0
-0.02161279 0.06250292 0.05228137 0 0 0 0
-0.06452497 0.02133932 -0.04978540 0 0 0 0
0.01652021 0.08749891 -0.02210798 0 0 0 0
0.07472108 0.01553708 -0.04027347 0 0 0 0
0.04893300 -0.03244177 0.05955001 0 0 0 0
0.00752997 0.04892479 0.06867780 0 0 0 0
0.00327078 -0.05622346 -0.06212576 0 0 0 0
0.09091000 0.02176384 0.01520756 0 0 0 0
-0.03878173 -0.01688181 -0.07494303 0 0 0 0
-0.04979702 -0.02330983 0.06341650 0 0 0 0
0.05669609 -0.06178977 0.03004676 0 0 0 0
-0.07585017 -0.03406641 -0.03087852 0 0 0 0
0.00118785 -0.04859421 -0.06916303 0 0 0 0
-0.02849854 0.01327355 -0.08308409 0 0 0 0
-0.01296994 -0.07183262 -0.04433684 0 0 0 0
0.05619789 0.02407631 -0.05762202 0 0 0 0
0.02249167 -0.06733375 0.04635610 0 0 0 0
-0.01682332 -0.05071760 0.06485721 0 0 0 0
-0.02222450 0.09036743 -0.01595910 0 0 0 0
-0.04295120 0.04257215 -0.05815560 0 0 0 0
-0.05070041 0.02055049 -0.06372403 0 0 0 0
-0.01541541 0.06873570 0.04737568 0 0 0 0
0.01663476 0.06361207 -0.05239051 0 0 0 0
0.05131670 0.02748636 -0.06025482 0 0 0 0
-0.01341906 -0.04827344 -0.06788471 0 0 0 0
0.00142809 0.01060883 -0.09611409 0 0 0 0
0.03378784 0.05939638 -0.04946803 0 0 0 0
0.03068420 -0.08774684 -0.01560673 0 0 0 0
0.06851220 -0.05693110 0.02261096 0 0 0 0
0.00749116 0.09383544 -0.01345103 0 0 0 0
0.05398349 0.04701211 -0.04575045 0 0 0 0
-0.05846623 -0.06453814 -0.02542469 0 0 0 0
0.00969149 0.08149107 -0.03267891 0 0 0 0
0.03788796 -0.05010067 0.05547791 0 0 0 0
-0.07960483 0.04896661 0.01519020 0 0 0 0
0.07590134 -0.04277887 -0.02541271 0 0 0 0
-0.01675235 0.08876428 -0.02023138 0 0 0 0
0.07836974 0.04907565 0.01736997 0 0 0 0
-0.03551126 0.05150911 -0.05586930 0 0 0 0
0.05451594 -0.04778523 0.04464296 0 0 0 0
-0.02674782 -0.02239076 0.08069452 0 0 0 0
0.03883689 -0.04047135 0.06222157 0 0 0 0
0.07567393 0.00829556 -0.04030638 0 0 0 0
-0.05274918 0.00282345 -0.06541592 0 0 0 0
-0.07174624 0.00350847 -0.04572862 0 0 0 0
-0.06601659 0.05432213 -0.02841580 0 0 0 0
-0.04048077 0.08831280 -0.00678560 0 0 0 0
0.05459511 0.07643446 -0.01407211 0 0 0 0
0.00037164 0.09364855 -0.01413848 0 0 0 0
-0.02637170 0.09553514 -0.00264637 0 0 0 0
0.00794816 0.05125129 -0.06631801 0 0 0 0
0.01937063 -0.02358684 -0.08377676 0 0 0 0
-0.05326486 -0.05837754 -0.03665284 0 0 0 0
-0.00252778 -0.05232551 0.06579275 0 0 0 0
0.09772493 0.00094579 -0.00577442 0 0 0 0
0.02665108 0.00986686 0.08533534 0 0 0 0
-0.05334104 -0.01151233 -0.06362291 0 0 0 0
-0.09884287 0.00652642 -0.00006722 0 0 0 0
0.01269843 0.00206118 0.09488167 0 0 0 0
0.06677304 -0.02634834 -0.04547310 0 0 0 0
-0.09464996 0.00619150 -0.01271324 0 0 0 0
-0.09235835 0.01993740 -0.01283880 0 0 0 0
0.02408702 0.00608443 -0.08791220 0 0 0 0
0.09300383 0.01827999 -0.01266505 0 0 0 0
-0.04556876 0.06330594 0.03794277 0 0 0 0
-0.03067517 0.08396188 -0.02162294 0 0 0 0
0.00895382 -0.09184955 0.01793248 0 0 0 0
0.07848874 -0.05733838 -0.00682535 0 0 0 0
0.02250079 -0.05844138 -0.05553029 0 0 0 0
0.03098826 0.06386546 -0.04649708 0 0 0 0
0.06191289 0.01458606 -0.05465214 0 0 0 0
0.01623226 0.08157577 -0.03109351 0 0 0 0
0.07165173 -0.05935778 -0.01527672 0 0 0 0
0.03946018 -0.03165980 -0.06741340 0 0 0 0
0.06627940 0.01954711 -0.04884981 0 0 0 0
-0.06440359 -0.07278135 -0.00820185 0 0 0 0
-0.04361483 0.06515794 0.03744737 0 0 0 0
-0.06516407 0.06727949 -0.01447811 0 0 0 0
-0.05064505 0.00641487 -0.06703632 0 0 0 0
-0.00368330 0.08865818 -0.02316820 0 0 0 0
0.08099009 -0.00005465 -0.03438506 0 0 0 0
0.01176655 0.08678833 0.02460916 0 0 0 0
-0.02575415 0.04835492 -0.06394873 0 0 0 0
-0.04776505 -0.08305581 -0.01043545 0 0 0 0
-0.05481479 0.05918353 -0.03442106 0 0 0 0
-0.02701128 0.04358537 0.06692810 0 0 0 0
-0.02557043 0.06772792 -0.04478744 0 0 0 0
0.03207584 0.00409315 -0.08245176 0 0 0 0
0.06641337 -0.01338047 0.05058202 0 0 0 0
0.01731153 0.06119939 0.05476199 0 0 0 0
-0.03885140 0.07445556 0.02988028 0 0 0 0
-0.07287566 0.00727335 0.04385500 0 0 0 0
0.08929636 0.03337522 0.01127724 0 0 0 0
0.07027141 -0.05583323 -0.02129233 0 0 0 0
0.03481426 0.04767235 0.05921970 0 0 0 0
-0.03888886 0.02406731 0.07188295 0 0 0 0
0.02606609 -0.02949025 -0.07719718 0 0 0 0
0.02238232 0.06346713 -0.05083480 0 0 0 0
0.05280360 -0.04992998 0.04441955 0 0 0 0
-0.09041752 0.00748154 -0.02000587 0 0 0 0
-0.04534681 -0.05558883 -0.04592169 0 0 0 0
-0.03410665 -0.03048175 -0.07161967 0 0 0 0
0.02093522 -0.02643912 -0.08148143 0 0 0 0
-0.00219604 0.04012110 -0.07649985 0 0 0 0
-0.01553117 -0.01139997 0.09120975 0 0 0 0
-0.08496398 -0.02326424 0.02365307 0 0 0 0
-0.01545108 -0.00372368 -0.09312633 0 0 0 0
-0.03497627 0.07815909 -0.02747992 0 0 0 0
0.02466078 0.03432000 0.07471572 0 0 0 0
-0.03257721 -0.08802190 0.01398718 0 0 0 0
-0.03072118 0.04740231 -0.06211871 0 0 0 0
0.07460897 0.00724318 -0.04204936 0 0 0 0
0.05453873 0.01708742 0.06114153 0 0 0 0
-0.06731430 -0.00731830 -0.05036525 0 0 0 0
-0.00280956 -0.08723837 -0.02569235 0 0 0 0
-0.06996192 -0.01122554 -0.04665127 0 0 0 0
0.00258911 -0.06549536 0.05279440 0 0 0 0
-0.02907732 0.01102370 0.08367382 0 0 0 0
0.05408159 -0.07821957 -0.01188180 0 0 0 0
0.00063211 0.01900626 0.09136533 0 0 0 0
-0.03122259 0.01085971 0.08215605 0 0 0 0
-0.03010702 0.03765577 0.06994911 0 0 0 0
-0.08248387 0.01515872 0.03045490 0 0 0 0
0.02754161 -0.04192185 0.06798854 0 0 0 0
-0.04365970 -0.01459566 -0.07155158 0 0 0 0
-0.07672854 0.01914214 -0.03655085 0 0 0 0
-0.07024549 0.06214998 -0.01409909 0 0 0 0
0.07372242 0.04151750 -0.02929991 0 0 0 0
-0.09623430 -0.02406455 -0.00125052 0 0 0 0
-0.09523888 -0.01101523 0.00970222 0 0 0 0
-0.04150703 -0.06356896 -0.04096727 0 0 0 0
0.02446348 -0.00678266 -0.08729683 0 0 0 0
0.06338119 0.05688621 0.02834642 0 0 0 0
0.07339770 -0.06074566 0.01158890 0 0 0 0
0.01409775 0.09383841 -0.01201932 0 0 0 0
0.02266465 0.04151097 -0.07049446 0 0 0 0
0.07820222 -0.00176268 -0.03801522 0 0 0 0
-0.00394028 0.03654433 -0.07914616 0 0 0 0
0.01795707 0.01164273 -0.09014325 0 0 0 0
-0.04575454 -0.07290816 0.02708273 0 0 0 0
0.09793927 0.01714323 -0.00186382 0 0 0 0
-0.01359072 0.04575500 -0.06998230 0 0 0 0
0.08894147 -0.00908554 -0.02221099 0 0 0 0
-0.03240785 0.00341976 0.08244781 0 0 0 0
0.01193101 0.02394004 0.08640725 0 0 0 0
0.06393327 0.04975935 -0.03388436 0 0 0 0
-0.02565847 -0.08468920 0.02306770 0 0 0 0
0.05667245 0.07017948 -0.02058124 0 0 0 0
-0.04278865 -0.08339052 0.01420729 0 0 0 0
-0.07854344 -0.03379946 -0.02760768 0 0 0 0
0.03077244 0.06689915 0.04318856 0 0 0 0
0.06847575 -0.00893168 0.04905418 0 0 0 0
0.04993508 -0.07448053 -0.02145622 0 0 0 0
-0.01123816 0.06661311 0.05054855 0 0 0 0
-0.03986748 -0.00864609 -0.07591742 0 0 0 0
0.09610806 0.01206760 -0.00847116 0 0 0 0
0.01801148 -0.05316756 -0.06250462 0 0 0 0
0.03093108 0.02308284 0.07759033 0 0 0 0
0.03911226 0.01415284 -0.07544858 0 0 0 0
0.05771204 -0.06837560 -0.02180075 0 0 0 0
0.03652051 -0.05355104 -0.05322234 0 0 0 0
-0.08328676 -0.02712549 -0.02460674 0 0 0 0
0.09129482 -0.01552577 -0.01605891 0 0 0 0
0.09588256 -0.00876492 0.00929346 0 0 0 0
-0.03635417 -0.08067982 -0.02354684 0 0 0 0
0.00105545 0.08699577 0.02564567 0 0 0 0
0.07524411 -0.04941170 -0.02112944 0 0 0 0
-0.04477970 -0.01343646 -0.07074215 0 0 0 0
-0.08012813 -0.03002826 -0.02808300 0 0 0 0
-0.01890094 0.06472456 0.05067030 0 0 0 0
0.08238642 0.00007651 -0.03259060 0 0 0 0
0.07492762 -0.05148270 0.01972238 0 0 0 0
0.05452883 -0.05773049 -0.03621544 0 0 0 0
-0.09417955 0.02774436 -0.00479230 0 0 0 0
0.06765380 0.05762047 -0.02299827 0 0 0 0
-0.02105751 0.08228493 0.02859435 0 0 0 0
-0.06847659 -0.05031640 0.02841942 0 0 0 0
-0.04009647 -0.06170114 -0.04345562 0 0 0 0
0.03292162 0.06293111 -0.04635147 0 0 0 0
0.00342854 -0.01047411 0.09570470 0 0 0 0
0.03154483 -0.04460485 0.06360608 0 0 0 0
0.08084013 -0.01432475 -0.03260636 0 0 0 0
-0.01777770 0.02068745 -0.08620127 0 0 0 0
0.00351907 -0.06542730 -0.05265690 0 0 0 0
-0.06877943 0.00658022 -0.04870071 0 0 0 0
-0.09270297 -0.00411308 0.01610700 0 0 0 0
0.07257418 -0.06173407 -0.01241253 0 0 0 0
0.04663686 -0.00490143 -0.07068186 0 0 0 0
-0.09851706 0.01181597 -0.00100528 0 0 0 0
-0.03060018 0.01307191 -0.08178712 0 0 0 0
-0.07337226 -0.05269175 -0.02043112 0 0 0 0
-0.07711221 -0.01582891 -0.03686021 0 0 0 0
-0.08727977 0.02920656 -0.01784051 0 0 0 0
-0.05323725 -0.05592084 -0.03904546 0 0 0 0
0.01855001 0.02303548 -0.08445461 0 0 0 0
-0.06429841 -0.02522310 0.04896872 0 0 0 0
-0.02113422 0.07833225 -0.03396245 0 0 0 0
0.03134814 -0.09403758 -0.00185713 0 0 0 0
-0.04516341 0.08496848 0.00899151 0 0 0 0
-0.05561719 0.06535433 -0.02741795 0 0 0 0
0.02447800 0.05071402 0.06202231 0 0 0 0
-0.01071587 0.06906842 -0.04788042 0 0 0 0
-0.07694934 -0.04048334 -0.02556761 0 0 0 0
0.02806222 0.06307273 -0.04888862 0 0 0 0
-0.07812399 0.04524181 -0.02091255 0 0 0 0
-0.06184986 -0.05029451 -0.03555407 0 0 0 0
-0.01957513 0.01966902 0.08581768 0 0 0 0
-0.05680380 0.07659837 0.01110421 0 0 0 0
0.07314245 -0.00276145 -0.04396048 0 0 0 0
-0.06484734 -0.03884197 0.04104583 0 0 0 0
0.03048886 0.09316234 0.00565677 0 0 0 0
0.09190334 0.02232725 -0.01344592 0 0 0 0
0.05443161 0.03550394 -0.05306213 0 0 0 0
-0.00389513 0.04797689 -0.06973168 0 0 0 0
0.08145105 0.00668662 0.03323028 0 0 0 0
0.03393492 0.08136968 0.02370763 0 0 0 0
-0.01174219 -0.02062816 -0.08848540 0 0 0 0
-0.01696326 0.06137771 0.05480956 0 0 0 0
0.00992181 -0.06957924 0.04731544 0 0 0 0
0.07165980 -0.03466284 -0.03615478 0 0 0 0
-0.00637561 -0.04237018 0.07413252 0 0 0 0
-0.00182645 0.06210766 -0.05660786 0 0 0 0
-0.01790299 0.09615327 -0.00606315 0 0 0 0
0.08015348 0.05211265 0.01113868 0 0 0 0
0.05982805 0.00768495 0.05821558 0 0 0 0
-0.01674935 0.05957588 -0.05659329 0 0 0 0
0.06249983 0.04583959 0.03854767 0 0 0 0
-0.08892581 -0.00483146 0.02220112 0 0 0 0
0.00873713 0.04049684 -0.07552581 0 0 0 0
-0.02876593 -0.08908217 -0.01480564 0 0 0 0
-0.04338028 -0.06805835 -0.03427774 0 0 0 0
0.02572199 -0.00397673 -0.08719335 0 0 0 0
-0.00052225 0.06199948 0.05628181 0 0 0 0
-0.09376092 0.03108114 0.00179287 0 0 0 0
0.04600126 -0.01263447 -0.06995419 0 0 0 0
0.06182794 0.06488861 -0.02152464 0 0 0 0
0.00194337 0.02248657 -0.08926413 0 0 0 0
0.09040116 -0.03716500 0.00590941 0 0 0 0
0.06858741 0.06128855 0.01812194 0 0 0 0
-0.07139246 0.04224795 -0.03115092 0 0 0 0
0.06364920 0.06831715 0.01492166 0 0 0 0
-0.03235831 0.07952370 -0.02764866 0 0 0 0
0.07132493 0.06340301 0.01114515 0 0 0 0
0.07863855 0.06036805 -0.00210506 0 0 0 0
0.02000203 -0.04342356 -0.06993638 0 0 0 0
0.06834008 0.02263862 -0.04555469 0 0 0 0
-0.04646489 -0.01308403 -0.06959473 0 0 0 0
-0.05223615 0.05904026 0.03694797 0 0 0 0
-0.00352540 -0.04733165 -0.07023874 0 0 0 0
-0.03386445 0.00599776 -0.08108085 0 0 0 0
0.04107784 -0.08961400 0.00289824 0 0 0 0
-0.01821820 0.02384360 0.08437243 0 0 0 0
0.05380895 0.07741591 -0.01353298 0 0 0 0
-0.01160359 -0.09007423 -0.01948566 0 0 0 0
-0.01667700 -0.09685805 -0.00409397 0 0 0 0
-0.01650302 0.06325498 -0.05266138 0 0 0 0
-0.05942848 0.06237633 -0.02701497 0 0 0 0
0.03222770 -0.03587012 -0.06949556 0 0 0 0
0.00235445 -0.05276913 0.06553864 0 0 0 0
-0.04434050 -0.07684110 -0.02285841 0 0 0 0
-0.01580497 0.09695651 -0.00411120 0 0 0 0
0.03877668 0.08381335 -0.01666762 0 0 0 0
0.06234835 -0.02756090 0.04992024 0 0 0 0
0.04499049 -0.01122674 -0.07121653 0 0 0 0
-0.07347569 0.05741203 -0.01512885 0 0 0 0
-0.00336711 -0.05640603 0.06171341 0 0 0 0
-0.08109378 -0.02801308 -0.02722412 0 0 0 0
0.01629438 -0.03423350 0.07812700 0 0 0 0
0.08502978 -0.01868093 0.02538656 0 0 0 0
-0.00140663 0.00471480 0.09843104 0 0 0 0
-0.04081904 -0.04643384 -0.05637055 0 0 0 0
-0.06692577 0.06895512 -0.00983987 0 0 0 0
-0.07219622 0.04224652 -0.03082421 0 0 0 0
0.02554469 0.05285468 -0.05989276 0 0 0 0
-0.00877931 0.03533753 -0.07938763 0 0 0 0
-0.05660244 -0.03346755 -0.05223381 0 0 0 0
-0.09047605 0.01611507 -0.01787710 0 0 0 0
-0.03279046 -0.01500694 -0.07965033 0 0 0 0
0.09813178 0.00960072 0.00395420 0 0 0 0
-0.03121695 -0.01290141 -0.08131375 0 0 0 0
0.04874507 0.08209269 0.01066933 0 0 0 0
0.01728812 -0.07133686 0.04354871 0 0 0 0
0.01797628 0.00977100 0.09044922 0 0 0 0
-0.09043600 -0.03360968 0.00840339 0 0 0 0
-0.07314255 0.01917711 -0.04088915 0 0 0 0
0.01556490 -0.09222678 -0.01440862 0 0 0 0
0.04657112 -0.08408243 -0.00960881 0 0 0 0
0.08459254 -0.01913263 -0.02624205 0 0 0 0
0.02077132 -0.07110860 -0.04321982 0 0 0 0
-0.06780718 0.05234153 0.02743966 0 0 0 0
-0.02521679 -0.02907099 0.07766543 0 0 0 0
-0.03728578 0.08515634 0.01586965 0 0 0 0
-0.09169183 0.03502639 0.00518294 0 0 0 0
0.07864849 0.03951235 -0.02413069 0 0 0 0
0.03526570 0.00539904 -0.08017375 0 0 0 0
0.05337930 0.07085766 -0.02265347 0 0 0 0
0.01029396 0.04878371 -0.06818262 0 0 0 0
0.01104400 0.01314768 -0.09250477 0 0 0 0
-0.04140528 0.08305521 -0.01570506 0 0 0 0
0.08951702 -0.01871165 -0.01819975 0 0 0 0
-0.02359601 0.01754872 -0.08460630 0 0 0 0
0.07321917 0.06456466 -0.00621344 0 0 0 0
0.03221134 -0.05468103 0.05505342 0 0 0 0
-0.02683286 -0.02418726 -0.07957213 0 0 0 0
-0.05445777 0.06994541 -0.02279555 0 0 0 0
-0.03804911 0.04981916 -0.05554608 0 0 0 0
-0.01898457 0.04360142 -0.07013755 0 0 0 0
0.01979761 0.08530750 0.02496664 0 0 0 0
0.04936782 -0.08538973 -0.00378027 0 0 0 0
0.09609801 0.00352663 0.00953718 0 0 0 0
-0.04629631 0.06417024 -0.03681695 0 0 0 0
-0.08840188 -0.03530268 0.01116670 0 0 0 0
0.06898864 0.04219916 0.03447885 0 0 0 0
0.04068255 -0.05279135 -0.05146340 0 0 0 0
0.01302936 0.04697010 0.06934564 0 0 0 0
-0.02168163 0.05891811 0.05554115 0 0 0 0
0.05684563 0.04966702 -0.04134170 0 0 0 0
0.01770624 -0.05283941 -0.06278972 0 0 0 0
0.02990841 0.03180824 -0.07354394 0 0 0 0
0.01518581 0.05924662 0.05711092 0 0 0 0
0.05785513 -0.00676349 0.06019444 0 0 0 0
0.07041150 0.00023177 -0.04763092 0 0 0 0
-0.02784155 0.05384331 -0.05803593 0 0 0 0
-0.04883800 -0.01792068 -0.06616589 0 0 0 0
0.03859713 -0.04790151 0.05678141 0 0 0 0
-0.07667964 -0.00731056 0.03909937 0 0 0 0
0.02196510 -0.00732189 -0.08886218 0 0 0 0
0.08776547 0.00211773 0.02428462 0 0 0 0
-0.05952479 0.07465876 0.01058331 0 0 0 0
0.02964867 -0.08795413 0.01650153 0 0 0 0
-0.08257647 -0.04212989 -0.01588187 0 0 0 0
-0.01311989 0.09734832 0.00525254 0 0 0 0
-0.03007894 -0.06870018 -0.04167406 0 0 0 0
-0.02882828 -0.02390309 -0.07862093 0 0 0 0
-0.08508115 0.00832184 -0.02788327 0 0 0 0
-0.08798526 -0.02268564 0.02002626 0 0 0 0
-0.01452305 0.09075898 0.01794131 0 0 0 0
0.02333966 -0.00610774 -0.08825134 0 0 0 0
0.04806932 -0.07908408 -0.01625460 0 0 0 0
-0.03102421 0.09420937 -0.00174224 0 0 0 0
0.00874273 0.06537354 -0.05200900 0 0 0 0
-0.02975509 -0.04959580 0.06041896 0 0 0 0
-0.04258035 -0.01359468 0.07263117 0 0 0 0
-0.07131082 0.05213063 -0.02331576 0 0 0 0
-0.01341588 0.06425828 -0.05234308 0 0 0 0
0.03167049 -0.02853510 -0.07467131 0 0 0 0
0.05337530 0.05230166 -0.04237368 0 0 0 0
-0.03484110 0.01250007 0.07890210 0 0 0 0
0.07860271 0.05816443 -0.00661571 0 0 0 0
-0.02447532 -0.07823193 -0.03289073 0 0 0 0
0.07457022 -0.06397788 -0.00519118 0 0 0 0
-0.07406013 -0.02725649 0.03702327 0 0 0 0
-0.01910512 0.08146260 -0.03048751 0 0 0 0
-0.06623931 0.00192709 -0.05179407 0 0 0 0
0.04687527 0.07611588 -0.02200454 0 0 0 0
-0.02476635 -0.07027818 -0.04227348 0 0 0 0
0.03371121 0.00824847 -0.08081488 0 0 0 0
-0.01439689 0.06991969 -0.04649435 0 0 0 0
0.08948736 -0.03414402 -0.01042868 0 0 0 0
-0.00532264 -0.04876501 0.06908979 0 0 0 0
-0.03747634 -0.01476492 0.07633013 0 0 0 0
-0.05648872 0.05224968 0.03919847 0 0 0 0
-0.01919366 0.00938508 -0.08997115 0 0 0 0
-0.02869325 -0.04510494 0.06487376 0 0 0 0
0.06890255 -0.05731295 0.02144213 0 0 0 0
-0.00670503 -0.02131536 0.08922877 0 0 0 0
0.07036616 0.00592534 -0.04731315 0 0 0 0
0.07845473 -0.01991731 0.03477095 0 0 0 0
-0.09696635 -0.01378433 0.00538925 0 0 0 0
0.02444833 -0.09554377 0.00250632 0 0 0 0
0.08734322 0.04560912 -0.00367038 0 0 0 0
-0.04802946 0.06127084 0.03818430 0 0 0 0
-0.02922082 -0.05384732 0.05707898 0 0 0 0
-0.07475621 -0.04224530 -0.02715719 0 0 0 0
-0.02655135 -0.07556103 0.03552259 0 0 0 0
-0.04697508 -0.07795383 0.01930188 0 0 0 0
-0.07185441 0.01141392 -0.04470174 0 0 0 0
-0.02705416 0.00421814 -0.08594754 0 0 0 0
-0.04105670 -0.02336182 -0.07043353 0 0 0 0
0.02357862 0.02444890 0.08132873 0 0 0 0
-0.07485510 0.01630585 -0.03956018 0 0 0 0
-0.04737355 -0.04640510 -0.05190614 0 0 0 0
0.02588375 -0.00135632 -0.08729526 0 0 0 0
0.03853364 -0.05245189 -0.05310171 0 0 0 0
-0.08528333 -0.01020027 0.02697294 0 0 0 0
0.04727317 0.08675884 0.00134443 0 0 0 0
0.04893757 0.00681435 -0.06859300 0 0 0 0
0.05793051 0.03906467 0.04796996 0 0 0 0
-0.06946605 0.01022713 -0.04752607 0 0 0 0
0.01027465 0.02836017 -0.08397223 0 0 0 0
0.04903960 -0.05453934 -0.04375235 0 0 0 0
-0.00453393 0.01034526 0.09559458 0 0 0 0
-0.05490096 -0.04324955 -0.04786223 0 0 0 0
0.05609471 -0.02777324 0.05575148 0 0 0 0
-0.03924945 0.00125069 0.07709279 0 0 0 0
-0.03221672 0.03747606 -0.06839386 0 0 0 0
0.01591206 -0.00754106 -0.09229280 0 0 0 0
0.04952613 0.07820243 -0.01613919 0 0 0 0
0.00974500 -0.00101660 -0.09629773 0 0 0 0
0.01719013 -0.02547552 -0.08359566 0 0 0 0
-0.05236890 -0.07812898 -0.01340508 0 0 0 0
-0.04759751 -0.07716642 -0.01966481 0 0 0 0
0.01666403 0.06898748 -0.04679572 0 0 0 0
0.09704076 -0.01214150 -0.00658063 0 0 0 0
-0.01000234 -0.04096532 0.07471306 0 0 0 0
0.06267302 -0.06282394 0.02266067 0 0 0 0
-0.02863965 -0.05011576 -0.06069729 0 0 0 0
-0.03542542 0.05251069 -0.05502437 0 0 0 0
-0.01712647 -0.05778930 -0.05835969 0 0 0 0
-0.02014497 -0.06531419 -0.04932993 0 0 0 0
0.06874780 0.00327024 -0.04878715 0 0 0 0
-0.02831280 -0.08437799 -0.02302723 0 0 0 0
0.05135727 0.05952304 -0.03735321 0 0 0 0
-0.08878811 -0.04216224 0.00476797 0 0 0 0
-0.00242714 0.04462747 -0.07263549 0 0 0 0
0.06021103 0.07304642 0.01282369 0 0 0 0
0.02943190 -0.09276450 -0.00764876 0 0 0 0
0.05496563 -0.08256802 -0.00037400 0 0 0 0
-0.03133946 0.08082633 -0.02644058 0 0 0 0
-0.03530569 0.04093751 -0.06421708 0 0 0 0
0.03211927 -0.01648874 0.07964270 0 0 0 0
-0.05060564 -0.08442030 -0.00369008 0 0 0 0
-0.00707914 0.04102624 -0.07537282 0 0 0 0
0.00278451 0.00782981 -0.09706832 0 0 0 0
-0.07894660 0.04888221 -0.01582049 0 0 0 0
-0.03043003 -0.09013465 0.01121496 0 0 0 0
-0.03319068 0.08638509 -0.01649402 0 0 0 0
-0.09055947 -0.02407076 -0.01414464 0 0 0 0
-0.00418016 0.09565522 -0.01091489 0 0 0 0
-0.03179645 -0.09311704 -0.00368386 0 0 0 0
0.07974337 0.04953908 -0.01434311 0 0 0 0
-0.09429251 -0.00566220 -0.01321998 0 0 0 0
-0.07232005 -0.00664683 0.04439262 0 0 0 0
0.06823806 -0.07184220 -0.00199419 0 0 0 0
0.03504860 -0.09101905 0.00687300 0 0 0 0
-0.09061573 -0.03794213 -0.00429534 0 0 0 0
0.00873215 0.09699797 -0.00664741 0 0 0 0
0.07615103 -0.00462796 -0.04043566 0 0 0 0
-0.02163277 0.08950733 0.01774461 0 0 0 0
0.07023085 0.00151100 0.04725482 0 0 0 0
-0.03775718 -0.03548144 0.06636122 0 0 0 0
0.05857594 0.06404072 -0.02644484 0 0 0 0
-0.02787066 -0.07209982 -0.03912799 0 0 0 0
-0.08160870 0.05261675 -0.00754682 0 0 0 0
0.07269078 0.02886514 0.03774551 0 0 0 0
0.01462668 -0.08154816 -0.03152411 0 0 0 0
-0.00314705 0.07658771 -0.03952761 0 0 0 0
-0.01641072 0.05930884 -0.05674829 0 0 0 0
0.03217661 0.02638692 -0.07520816 0 0 0 0
0.00307627 -0.08985454 0.02148490 0 0 0 0
-0.09273485 -0.03552041 -0.00124793 0 0 0 0
0.01315835 0.09013296 -0.01938490 0 0 0 0
0.00606109 0.04213189 -0.07438117 0 0 0 0
-0.03044204 -0.07125626 -0.03876198 0 0 0 0
-0.00790217 -0.04231759 -0.07405385 0 0 0 0
0.03445540 0.01762537 -0.07765358 0 0 0 0
0.06033510 -0.05802620 0.03030592 0 0 0 0
-0.06541816 -0.06802613 -0.01280151 0 0 0 0
-0.00276370 -0.08521193 -0.02849225 0 0 0 0
0.08907042 0.03345669 0.01168085 0 0 0 0
0.08580252 -0.04106512 0.01135042 0 0 0 0
0.02817555 -0.09001108 -0.01310020 0 0 0 0
-0.00529577 -0.08378623 -0.02999179 0 0 0 0
0.03846885 0.05523303 -0.05052020 0 0 0 0
-0.04310628 -0.08483689 -0.01248462 0 0 0 0
0.05858176 0.01406882 -0.05835816 0 0 0 0
0.09494055 0.01258204 0.00996271 0 0 0 0
-0.00040754 0.08940791 -0.02230895 0 0 0 0
0.01162055 0.02682520 -0.08473010 0 0 0 0
-0.05020597 0.01498495 -0.06593154 0 0 0 0
-0.00562597 -0.01084296 -0.09524031 0 0 0 0
-0.03910099 -0.09111527 -0.00044596 0 0 0 0
0.04762102 -0.00533752 -0.06977781 0 0 0 0
-0.07402867 -0.01403721 -0.04121884 0 0 0 0
0.09818835 -0.00893167 -0.00288381 0 0 0 0
-0.01002304 0.04640438 -0.07023959 0 0 0 0
0.08874986 0.02568678 -0.01687081 0 0 0 0
0.00096534 0.05686722 0.06141051 0 0 0 0
0.01714903 -0.09779035 -0.00127813 0 0 0 0
-0.08887018 0.00751692 -0.02207146 0 0 0 0
-0.09866297 0.00301519 -0.00252809 0 0 0 0
-0.00861310 -0.04093574 -0.07531383 0 0 0 0
0.01827826 -0.01324043 -0.08923491 0 0 0 0
0.01902289 -0.04639647 0.06809099 0 0 0 0
-0.05466313 0.01001652 -0.06273644 0 0 0 0
0.01172111 -0.02412516 -0.08632603 0 0 0 0
0.02622444 0.07557048 -0.03532922 0 0 0 0
-0.08088650 -0.00394809 -0.03390167 0 0 0 0
0.04541721 -0.05984727 0.04161585 0 0 0 0
-0.02902689 0.03658646 -0.07080269 0 0 0 0
0.05654713 -0.00802007 0.06112372 0 0 0 0
0.00825204 -0.00685596 -0.09610613 0 0 0 0
0.02194603 0.03286838 -0.07704449 0 0 0 0
-0.03658186 0.07520546 -0.03075474 0 0 0 0
0.05972562 -0.06720233 -0.02081746 0 0 0 0
0.00604262 0.01387946 0.09387832 0 0 0 0
-0.06660774 -0.01559782 -0.04959676 0 0 0 0
-0.06795542 0.01213731 -0.04884935 0 0 0 0
0.00877354 0.08301764 -0.03044773 0 0 0 0
0.03956065 -0.03585231 -0.06481829 0 0 0 0
0.07081722 0.04588363 0.02928722 0 0 0 0
-0.02470098 -0.04964415 0.06292005 0 0 0 0
0.09609120 -0.01082507 -0.00856097 0 0 0 0
-0.06739563 -0.01766054 -0.04812915 0 0 0 0
-0.01177666 -0.03922381 -0.07601161 0 0 0 0
-0.04960966 -0.04609717 0.05029275 0 0 0 0
0.00535775 0.08732690 -0.02499499 0 0 0 0
0.06445281 0.05404918 -0.03030653 0 0 0 0
0.03484149 0.04443670 -0.06202625 0 0 0 0
-0.08901343 0.01532334 -0.02070182 0 0 0 0
0.05950765 -0.06835572 0.02018407 0 0 0 0
-0.06468304 -0.02750937 -0.04737604 0 0 0 0
0.05514263 0.07662012 -0.01333335 0 0 0 0
0.01354637 -0.08055404 -0.03299395 0 0 0 0
0.07708572 -0.04897026 -0.01848005 0 0 0 0
-0.01699477 -0.01610696 0.08854493 0 0 0 0
0.01243691 0.04397467 -0.07169602 0 0 0 0
-0.01724927 0.04884842 0.06641413 0 0 0 0
-0.03752298 0.05646153 -0.05026523 0 0 0 0
-0.06723972 -0.06585098 -0.01399140 0 0 0 0
0.05392444 -0.01826018 0.06152087 0 0 0 0
0.07148011 0.02524990 -0.04093192 0 0 0 0
0.07768126 0.06103389 -0.00304671 0 0 0 0
0.06501202 -0.04459661 -0.03684474 0 0 0 0
0.00356071 -0.09302776 0.01624853 0 0 0 0
0.02487485 -0.02739876 0.07887809 0 0 0 0
0.05850208 0.03673620 -0.04894700 0 0 0 0
0.03185388 0.02371714 -0.07682824 0 0 0 0
-0.05058017 0.08422390 -0.00414155 0 0 0 0
0.03643959 0.05323973 -0.05364386 0 0 0 0
0.02081117 0.07138553 0.04268168 0 0 0 0
0.03208940 0.01849617 0.07884398 0 0 0 0
-0.01068575 -0.07190652 0.04460984 0 0 0 0
-0.08434676 -0.05214277 -0.00194597 0 0 0 0
-0.04105929 -0.00273543 -0.07576311 0 0 0 0
0.07414540 0.02962248 -0.03542593 0 0 0 0
-0.00217548 0.05055722 -0.06730632 0 0 0 0
0.01791319 -0.09292011 0.01268953 0 0 0 0
0.04833553 0.05720394 0.04166850 0 0 0 0
-0.06032842 -0.06132794 0.02706970 0 0 0 0
0.07930224 -0.04944587 0.01497366 0 0 0 0
0.03151602 0.02342451 -0.07728176 0 0 0 0
-0.06446747 0.05211174 -0.03162948 0 0 0 0
0.08734467 0.03719530 -0.01247707 0 0 0 0
0.00240235 0.06669994 -0.05114932 0 0 0 0
-0.07604516 0.05308408 0.01620456 0 0 0 0
0.05950890 -0.04451755 0.04240588 0 0 0 0
0.01706761 -0.07390282 -0.04096624 0 0 0 0
0.00694508 -0.07209466 0.04467226 0 0 0 0
0.07080521 -0.05225988 -0.02442589 0 0 0 0
-0.00606690 -0.06468204 -0.05343763 0 0 0 0
0.06467511 -0.05880105 0.02465075 0 0 0 0
0.07310587 -0.01109714 -0.04302633 0 0 0 0
0.04512805 0.01888748 -0.06889960 0 0 0 0
-0.09167036 0.00761807 -0.01744437 0 0 0 0
-0.09261340 0.01817756 -0.01289220 0 0 0 0
-0.06608202 -0.05884094 -0.02347476 0 0 0 0
-0.06226488 -0.01252866 -0.05504123 0 0 0 0
-0.05939205 -0.02892662 -0.05219834 0 0 0 0
-0.08401820 0.02774173 -0.02354203 0 0 0 0
0.03135391 -0.07248391 0.03712323 0 0 0 0
0.06463595 -0.07142058 -0.00890004 0 0 0 0
0.07407079 -0.02581847 -0.03752922 0 0 0 0
0.01142185 -0.03776372 -0.07713360 0 0 0 0
0.08832105 -0.04434323 0.00322350 0 0 0 0
0.09258594 -0.02443966 0.01002265 0 0 0 0
0.08262356 -0.04081680 0.01747139 0 0 0 0
-0.09730945 0.00860689 -0.00603635 0 0 0 0
0.02030914 -0.00300819 0.09040651 0 0 0 0
-0.02474482 0.08131509 0.02838418 0 0 0 0
0.02353387 -0.08154197 0.02897997 0 0 0 0
0.06223879 0.01546586 -0.05430659 0 0 0 0
0.04343600 0.03524776 0.06227661 0 0 0 0
0.08760455 0.02851988 -0.01706302 0 0 0 0
-0.01532688 -0.09447183 -0.01040345 0 0 0 0
-0.03258448 0.06913247 0.04006241 0 0 0 0
0.07286599 0.04650556 0.02621856 0 0 0 0
0.08372251 0.05184362 -0.00405578 0 0 0 0
-0.06529594 -0.04274721 0.03828723 0 0 0 0
-0.05138629 0.08350167 0.00519858 0 0 0 0
0.08495055 0.03345352 -0.01841925 0 0 0 0
0.00574515 0.07749063 -0.03844667 0 0 0 0
-0.03869998 -0.03655200 0.06500174 0 0 0 0
-0.01650841 -0.05024852 0.06538481 0 0 0 0
0.07663766 -0.02909288 0.03284908 0 0 0 0
-0.05046220 0.08249295 0.00801461 0 0 0 0
0.03813940 0.01386542 -0.07615905 0 0 0 0
0.05493621 0.04173979 -0.04865232 0 0 0 0
0.04754965 -0.04754112 0.05087640 0 0 0 0
0.04763910 -0.08549988 0.00596972 0 0 0 0
-0.01550942 0.06274172 0.05376059 0 0 0 0
-0.05472900 0.01261033 0.06215927 0 0 0 0
-0.07595796 0.04002691 0.02722034 0 0 0 0
-0.07806512 -0.06147476 -0.00139386 0 0 0 0
0.00342228 -0.06453319 -0.05341610 0 0 0 0
-0.08455732 -0.05178507 -0.00170547 0 0 0 0
0.01967766 0.02081357 0.08524496 0 0 0 0
-0.03849930 0.08733542 -0.01092271 0 0 0 0
0.04974668 -0.06187744 -0.03603216 0 0 0 0
0.08112530 0.04884324 -0.01312881 0 0 0 0
-0.06300656 0.06052452 -0.02506500 0 0 0 0
-0.00080993 0.03186147 -0.08274055 0 0 0 0
-0.09567542 -0.02191945 0.00531778 0 0 0 0
0.02476231 -0.08447053 -0.02441492 0 0 0 0
0.01499671 -0.01888169 -0.08838677 0 0 0 0
0.04423696 0.06366581 -0.03873719 0 0 0 0
0.03572490 0.08344089 -0.01929108 0 0 0 0
0.05214940 0.03176148 0.05721058 0 0 0 0
0.00462478 0.00344830 -0.09824409 0 0 0 0
0.07085402 -0.03223898 0.03837665 0 0 0 0
-0.00293968 -0.09922377 -0.00215409 0 0 0 0
0.08501545 0.03628357 0.01742160 0 0 0 0
-0.08033321 0.05167137 -0.01083286 0 0 0 0
-0.03549718 -0.01089451 -0.07916226 0 0 0 0
-0.00296606 -0.02946408 0.08458266 0 0 0 0
0.07529721 -0.01916406 -0.03848244 0 0 0 0
-0.00659376 0.01744875 -0.09175242 0 0 0 0
0.02153069 0.06497219 -0.04952797 0 0 0 0
0.07794915 0.06113637 0.00125176 0 0 0 0
-0.06420333 0.07468764 0.00469441 0 0 0 0
0.03898033 0.04401943 -0.05976945 0 0 0 0
-0.07900766 0.03013555 -0.02931503 0 0 0 0
-0.06953842 -0.03682216 -0.03707863 0 0 0 0
-0.08230578 0.03108427 0.02414034 0 0 0 0
0.00441582 0.05239502 0.06564488 0 0 0 0
-0.04992339 -0.08513838 0.00209736 0 0 0 0
0.01373146 0.04986119 0.06659694 0 0 0 0
0.07782639 -0.00834271 0.03773735 0 0 0 0
-0.08320156 -0.00488960 -0.03064562 0 0 0 0
0.06701401 0.04954510 0.03131085 0 0 0 0
-0.06769285 -0.04208997 -0.03585010 0 0 0 0
0.01972162 -0.06828345 -0.04663555 0 0 0 0
0.03033140 0.04498382 0.06394655 0 0 0 0
-0.09580307 0.02581263 -0.00172887 0 0 0 0
0.05298198 0.06172822 -0.03369174 0 0 0 0
0.08844245 -0.00661528 0.02284305 0 0 0 0
0.06953972 0.06263615 0.01488619 0 0 0 0
-0.07646510 0.05521346 -0.01390484 0 0 0 0
0.03383939 0.09230660 -0.00387524 0 0 0 0
0.04936399 -0.06458398 0.03422480 0 0 0 0
-0.03157374 0.06458461 -0.04553051 0 0 0 0
0.02289198 -0.03936592 -0.07204632 0 0 0 0
-0.05865531 0.04990394 -0.03908967 0 0 0 0
-0.05823165 0.00891712 0.05933800 0 0 0 0
0.03274740 0.02437296 -0.07605062 0 0 0 0
-0.01316424 -0.06248733 -0.05458957 0 0 0 0
-0.04134258 -0.08243159 0.01731936 0 0 0 0
0.06563216 -0.05875578 -0.02401688 0 0 0 0
0.03220567 0.01886529 -0.07896734 0 0 0 0
-0.05402814 0.08047913 -0.00831334 0 0 0 0
-0.03313520 0.07008632 -0.03863094 0 0 0 0
0.02636912 0.06770286 -0.04471387 0 0 0 0
0.02659798 -0.00731599 -0.08576196 0 0 0 0
0.04664611 -0.07857190 -0.01829681 0 0 0 0
-0.00880261 0.04341435 -0.07314414 0 0 0 0
0.01734795 -0.03416815 0.07790966 0 0 0 0
0.03283676 -0.01936752 0.07795917 0 0 0 0
0.01020982 0.03599085 -0.07885958 0 0 0 0
0.02092255 -0.06212062 -0.05246288 0 0 0 0
0.06604069 0.06542256 -0.01543999 0 0 0 0
-0.04004183 0.02723071 0.06960404 0 0 0 0
0.03548101 0.07988048 -0.02488042 0 0 0 0
-0.08108570 -0.02243040 -0.03023150 0 0 0 0
-0.02281476 -0.01313729 -0.08699250 0 0 0 0
-0.05889868 0.06630309 0.02321215 0 0 0 0
-0.00405551 0.07631885 -0.04007049 0 0 0 0
-0.09416207 0.03086562 -0.00024812 0 0 0 0
0.00042027 0.01865420 -0.09150232 0 0 0 0
0.03016343 -0.07274284 -0.03715907 0 0 0 0
0.04358143 0.02782755 -0.06628529 0 0 0 0
0.01997657 0.07612226 -0.03686187 0 0 0 0
0.05110732 0.06949686 0.02658621 0 0 0 0
0.05374841 -0.04909460 -0.04431374 0 0 0 0
0.01101651 0.05211330 -0.06523494 0 0 0 0
0.05815489 -0.01104156 -0.05956091 0 0 0 0
-0.05155915 0.05008505 0.04533484 0 0 0 0
0.06744793 -0.00347303 -0.05030258 0 0 0 0
-0.01301316 0.06829794 -0.04841439 0 0 0 0
-0.00391861 0.03429975 -0.08073451 0 0 0 0
-0.08644591 0.00931689 -0.02577158 0 0 0 0
-0.05833062 -0.07597423 -0.01039787 0 0 0 0
-0.00491572 0.05962353 0.05849341 0 0 0 0
0.02184537 0.07123910 0.04219717 0 0 0 0
0.07087225 0.02007319 0.04340707 0 0 0 0
0.05376914 0.00349677 -0.06457307 0 0 0 0
0.06740659 0.04847671 -0.03129336 0 0 0 0
-0.05873629 -0.04260112 -0.04479418 0 0 0 0
-0.03202385 -0.06602971 -0.04383417 0 0 0 0
0.00204888 -0.07898499 -0.03653423 0 0 0 0
-0.03659921 0.01892366 0.07545947 0 0 0 0
-0.05381228 -0.05457973 -0.03991343 0 0 0 0
-0.09013324 -0.01668596 0.01835593 0 0 0 0
-0.03583578 0.09223654 -0.00232915 0 0 0 0
-0.00184675 0.05765611 -0.06075626 0 0 0 0
0.06645188 -0.07055912 -0.00834055 0 0 0 0
-0.05466713 -0.04804309 -0.04460315 0 0 0 0
-0.01692754 -0.00680031 -0.09193206 0 0 0 0
-0.03607829 0.09025086 0.00691123 0 0 0 0
0.03733479 0.03208970 0.06892492 0 0 0 0
0.01803334 -0.03728085 0.07535318 0 0 0 0
0.01788164 -0.01269761 0.08951391 0 0 0 0
-0.04320709 0.08527402 -0.01078759 0 0 0 0
0.00118596 -0.04626551 0.07149069 0 0 0 0
-0.08376305 -0.00955479 -0.02939718 0 0 0 0
-0.02410234 0.09619735 -0.00245723 0 0 0 0
-0.05790376 -0.02484940 -0.05532186 0 0 0 0
0.06075835 -0.05522615 0.03289352 0 0 0 0
-0.02578514 0.05890889 0.05402707 0 0 0 0
-0.00468654 -0.09096109 -0.01907231 0 0 0 0
-0.00950094 0.03786080 -0.07753773 0 0 0 0
0.00939143 0.08478800 0.02825248 0 0 0 0
0.02704001 0.08972597 -0.01445862 0 0 0 0
0.02066658 0.05585156 -0.05903052 0 0 0 0
0.07515806 -0.05054481 -0.01974721 0 0 0 0
-0.02826887 0.02054200 0.08063385 0 0 0 0
-0.07202928 -0.02875774 -0.03875086 0 0 0 0
-0.06369648 0.00330879 -0.05470205 0 0 0 0
0.01099151 -0.08976672 -0.02005504 0 0 0 0
-0.06906899 -0.03780252 0.03737779 0 0 0 0
-0.00934952 0.04186478 -0.07410423 0 0 0 0
-0.02465526 -0.09506047 0.00480075 0 0 0 0
0.05247331 -0.04230414 0.05086503 0 0 0 0
-0.01563161 -0.02434737 0.08503666 0 0 0 0
-0.02867126 0.06178722 -0.04981216 0 0 0 0
-0.05352889 -0.00469369 0.06459454 0 0 0 0
-0.03603870 0.07281830 -0.03352364 0 0 0 0
-0.03540330 0.06395283 0.04396428 0 0 0 0
0.02904808 0.06812482 -0.04316873 0 0 0 0
0.02761807 -0.02097619 0.08075684 0 0 0 0
-0.04343682 0.02452203 0.06848684 0 0 0 0
-0.08908367 -0.01374148 -0.02030538 0 0 0 0
0.06527796 -0.02871392 -0.04597948 0 0 0 0
-0.05315750 0.06672113 -0.02793728 0 0 0 0
-0.02930573 -0.00690005 -0.08412190 0 0 0 0
0.03939996 0.06000111 -0.04545502 0 0 0 0
-0.08119995 0.03747176 0.02162357 0 0 0 0
-0.00097890 0.08634199 -0.02677520 0 0 0 0
-0.03802795 -0.02886840 -0.07004087 0 0 0 0
-0.07877420 0.00673257 -0.03656147 0 0 0 0
0.03998490 -0.00436061 -0.07651459 0 0 0 0
0.02455395 0.06484471 0.04841465 0 0 0 0
-0.05931562 0.04924484 -0.03930932 0 0 0 0
0.01914747 0.02563308 -0.08269004 0 0 0 0
0.02474939 0.04540786 -0.06627069 0 0 0 0
0.03158659 0.08421405 -0.02106254 0 0 0 0
-0.02872961 0.06034017 -0.05119788 0 0 0 0
-0.05884224 0.04246732 0.04447326 0 0 0 0
-0.08533541 -0.05038801 -0.00263902 0 0 0 0
0.05920050 -0.00830291 0.05853139 0 0 0 0
-0.03775573 0.04226688 -0.06168242 0 0 0 0
-0.05726811 -0.02386692 -0.05637444 0 0 0 0
0.02682607 0.09311353 -0.00742054 0 0 0 0
0.03720910 0.01746884 -0.07567627 0 0 0 0
-0.00552164 -0.01682960 -0.09221913 0 0 0 0
-0.09662972 0.00727930 -0.00820710 0 0 0 0
-0.09171981 0.01439044 0.01599500 0 0 0 0
-0.04589462 -0.04509242 -0.05410833 0 0 0 0
-0.03910962 0.01513122 0.07497550 0 0 0 0
-0.04519249 -0.03004336 0.06393993 0 0 0 0
0.05980144 0.03749007 -0.04722219 0 0 0 0
0.02011685 -0.07843669 -0.03409020 0 0 0 0
-0.05645320 -0.00247743 -0.06213846 0 0 0 0
0.04674826 -0.04059601 -0.05680912 0 0 0 0
-0.09867134 0.00329914 -0.00247483 0 0 0 0
0.05806690 -0.01049471 0.05924986 0 0 0 0
0.03597658 0.05363294 -0.05354230 0 0 0 0
-0.02892988 0.09029917 0.01187555 0 0 0 0
0.07147331 0.06755703 -0.00468636 0 0 0 0
-0.02378072 -0.02769027 -0.07930376 0 0 0 0
0.00108121 0.06113311 0.05733108 0 0 0 0
-0.02481600 0.09314567 0.00904435 0 0 0 0
0.05171607 0.06264977 -0.03391931 0 0 0 0
0.03858919 -0.03451159 -0.06621579 0 0 0 0
0.03077219 0.01835606 -0.08006386 0 0 0 0
0.07087122 -0.01217881 -0.04586869 0 0 0 0
-0.02126880 0.08216591 -0.02848137 0 0 0 0
-0.00531352 0.07583027 -0.04056114 0 0 0 0
-0.04656716 -0.00342349 -0.07082806 0 0 0 0
0.00921424 -0.09110299 0.01896184 0 0 0 0
0.01717584 0.06328665 0.05284569 0 0 0 0
0.05570994 -0.03027597 -0.05495273 0 0 0 0
0.03557648 -0.09161835 -0.00397724 0 0 0 0
0.07469544 -0.00794302 0.04140063 0 0 0 0
-0.01099054 0.07653311 -0.03876608 0 0 0 0
0.02208289 -0.05886579 -0.05575923 0 0 0 0
-0.07011407 0.06301054 0.01335955 0 0 0 0
-0.00386056 -0.08549373 0.02753806 0 0 0 0
-0.07887788 0.02578098 -0.03158807 0 0 0 0
-0.04872309 0.03815417 0.05639797 0 0 0 0
0.06525734 0.04737660 -0.03447454 0 0 0 0
0.05144944 0.02321419 0.06186506 0 0 0 0
0.04216170 -0.01845864 0.07163354 0 0 0 0
0.06415983 0.03501648 -0.04418646 0 0 0 0
0.02316774 0.06946086 -0.04399500 0 0 0 0
0.05997528 -0.04970893 -0.03791413 0 0 0 0
-0.00178859 0.06102891 -0.05721254 0 0 0 0
-0.09661762 0.00752034 -0.00814187 0 0 0 0
0.08838209 -0.02800858 -0.01607233 0 0 0 0
0.08562806 -0.02916963 -0.02064077 0 0 0 0
0.00277350 -0.02684089 0.08632383 0 0 0 0
0.04178334 0.03870957 -0.06157966 0 0 0 0
0.04338662 -0.04623059 -0.05496202 0 0 0 0
-0.03700813 -0.01344907 -0.07712223 0 0 0 0
0.02981599 0.04631819 -0.06360517 0 0 0 0
-0.01306037 -0.00992190 -0.09288278 0 0 0 0
-0.01309772 0.04657810 -0.06940205 0 0 0 0
-0.08958837 -0.01127713 -0.02101337 0 0 0 0
-0.03002617 -0.07586735 -0.03333146 0 0 0 0
-0.07702614 0.05683636 -0.01120908 0 0 0 0
0.02653945 -0.07931007 -0.03074066 0 0 0 0
-0.04525111 0.02929019 -0.06425843 0 0 0 0
0.04313907 0.01216518 -0.07266115 0 0 0 0
-0.06424053 -0.00063151 -0.05406492 0 0 0 0
-0.00623521 0.09672903 -0.00847724 0 0 0 0
-0.05635265 0.02514312 -0.05691280 0 0 0 0
-0.06645434 -0.06136198 -0.02026679 0 0 0 0
0.06575019 0.03418335 -0.04301924 0 0 0 0
0.09509017 0.02581527 -0.00331617 0 0 0 0
0.02473761 0.05058079 -0.06213757 0 0 0 0
-0.00183611 0.08692386 -0.02604490 0 0 0 0
-0.05268383 0.00003995 -0.06539139 0 0 0 0
-0.02738415 0.00037415 0.08601500 0 0 0 0
-0.08107997 -0.00860807 0.03350889 0 0 0 0
0.05440915 0.07991198 0.00818160 0 0 0 0
-0.06659154 -0.06705156 0.01254742 0 0 0 0
0.01795797 -0.06161553 -0.05390557 0 0 0 0
-0.08687409 0.03029904 0.01787681 0 0 0 0
0.04612105 0.08416637 -0.00964475 0 0 0 0
0.06684768 -0.02166016 -0.04775412 0 0 0 0
-0.08472166 -0.04526048 0.00958682 0 0 0 0
-0.08742643 0.04407270 0.00604522 0 0 0 0
-0.06932890 0.05293959 -0.02523580 0 0 0 0
-0.04472158 -0.02353533 -0.06746583 0 0 0 0
-0.03630520 -0.01564821 -0.07701132 0 0 0 0
-0.03644396 0.00706094 -0.07911339 0 0 0 0
0.09389406 -0.03080473 -0.00231738 0 0 0 0
-0.03184480 -0.01509310 0.08031590 0 0 0 0
0.06490569 0.03464348 0.04349153 0 0 0 0
-0.04147286 0.04709775 -0.05561457 0 0 0 0
-0.01765656 0.03011225 -0.08072668 0 0 0 0
0.03573743 0.03043697 -0.07059810 0 0 0 0
0.02456141 -0.06738682 -0.04555276 0 0 0 0
-0.06699636 -0.06023377 -0.02066942 0 0 0 0
-0.05870645 0.06043765 0.02967591 0 0 0 0
0.08604849 -0.02458332 0.02188609 0 0 0 0
0.02311290 -0.03428092 -0.07544203 0 0 0 0
-0.07602014 -0.04519096 0.02345331 0 0 0 0
0.03859133 0.04365377 0.06017029 0 0 0 0
0.04364193 -0.04843765 -0.05283350 0 0 0 0
0.02289161 -0.05315965 0.06056756 0 0 0 0
0.01733096 -0.07103077 -0.04404523 0 0 0 0
-0.09347723 0.02525189 -0.00760326 0 0 0 0
-0.06397525 -0.02157161 0.05056597 0 0 0 0
-0.01169265 0.07009274 0.04662605 0 0 0 0
-0.01178384 -0.05046442 0.06636320 0 0 0 0
0.01780253 -0.07509854 0.03894209 0 0 0 0
-0.01624126 0.08701272 0.02298810 0 0 0 0
0.03656026 0.05111726 -0.05534945 0 0 0 0
-0.06379052 -0.07269627 -0.00872134 0 0 0 0
-0.02326331 0.08971035 -0.01630107 0 0 0 0
-0.04899128 0.08628728 -0.00004974 0 0 0 0
0.09234187 0.02675919 -0.00956650 0 0 0 0
-0.07083989 0.06837206 0.00401557 0 0 0 0
-0.05500715 0.07008262 0.02215509 0 0 0 0
-0.06692902 0.05119804 -0.03007225 0 0 0 0
-0.07444067 0.03807377 0.03070167 0 0 0 0
0.06314305 -0.00251635 0.05510347 0 0 0 0
0.00613656 -0.00330618 0.09752046 0 0 0 0
-0.04264454 0.05280986 -0.04986905 0 0 0 0
-0.06640849 0.06683426 -0.01402420 0 0 0 0
0.07421282 0.00329845 0.04251427 0 0 0 0
-0.02468719 -0.00204406 -0.08798520 0 0 0 0
-0.06010696 -0.07217240 -0.01411681 0 0 0 0
-0.05581214 -0.01536094 -0.06057198 0 0 0 0
0.05036759 -0.04722404 -0.04878109 0 0 0 0
-0.05819007 -0.02716409 -0.05397376 0 0 0 0
0.06642301 0.03446361 -0.04218463 0 0 0 0
0.00225806 -0.09458165 0.01236247 0 0 0 0
0.05158719 0.00724499 0.06626141 0 0 0 0
0.01420875 -0.02548734 -0.08468100 0 0 0 0
-0.02708626 0.02397947 -0.07956474 0 0 0 0
0.05366219 -0.08391927 -0.00025771 0 0 0 0
0.07684661 -0.04132144 0.02489890 0 0 0 0
-0.05066108 -0.07960866 0.01283238 0 0 0 0
-0.07056066 0.06766234 -0.00532781 0 0 0 0
0.05659597 -0.08088052 -0.00264864 0 0 0 0
-0.06224539 -0.04764739 -0.03728310 0 0 0 0
0.08932532 -0.00844722 -0.02166256 0 0 0 0
-0.00629795 0.09888887 -0.00247970 0 0 0 0
-0.03562631 -0.02281477 0.07469923 0 0 0 0
0.04660200 0.05870577 -0.04192325 0 0 0 0
0.02719986 0.01795371 0.08245292 0 0 0 0
0.00236723 -0.06645001 0.05181476 0 0 0 0
-0.07434279 -0.02244652 -0.03844254 0 0 0 0
-0.03106455 0.06929070 0.04044592 0 0 0 0
-0.08656777 -0.01303021 -0.02459426 0 0 0 0
0.03482988 0.02623830 0.07365701 0 0 0 0
-0.06337045 0.06219324 0.02261223 0 0 0 0
0.06818913 -0.01053486 -0.04880299 0 0 0 0
-0.05775927 0.00437804 0.06051532 0 0 0 0
0.03937910 -0.05201002 0.05324430 0 0 0 0
-0.02243582 -0.03378587 0.07598403 0 0 0 0
0.08034240 -0.04002392 -0.02143260 0 0 0 0
0.05291014 -0.06433479 -0.03105418 0 0 0 0
0.02236764 0.05775720 -0.05674353 0 0 0 0
0.07585658 -0.04472736 0.02384755 0 0 0 0
0.01157809 0.06246365 0.05486604 0 0 0 0
-0.06162401 0.05818702 -0.02905781 0 0 0 0
-0.06311406 -0.03121181 -0.04738014 0 0 0 0
-0.04786374 0.04756125 -0.05037209 0 0 0 0
-0.01668330 0.01671674 -0.08854903 0 0 0 0
0.00771653 -0.08995818 0.02034324 0 0 0 0
-0.06590965 0.06607978 0.01557798 0 0 0 0
-0.07879866 -0.05844765 0.00512760 0 0 0 0
-0.04536606 0.03258017 0.06236421 0 0 0 0
-0.04571439 -0.01871114 -0.06861158 0 0 0 0
0.04259070 -0.02173281 0.07009657 0 0 0 0
-0.02992125 0.05276522 -0.05771123 0 0 0 0
0.00006968 0.00302834 -0.09896626 0 0 0 0
-0.06530381 0.02545104 -0.04737223 0 0 0 0
-0.06009866 -0.07424808 -0.01081162 0 0 0 0
-0.01317821 -0.02993025 0.08236530 0 0 0 0
0.00957228 -0.07814865 -0.03682151 0 0 0 0
0.09777759 0.01728029 -0.00121643 0 0 0 0
0.03345462 0.05014555 -0.05799366 0 0 0 0
-0.06638523 -0.06276417 -0.01850585 0 0 0 0
-0.00230473 -0.08837031 -0.02376307 0 0 0 0
0.06876937 -0.06475322 -0.01268162 0 0 0 0
-0.04643784 0.07469056 -0.02423479 0 0 0 0
-0.04629038 -0.08352969 -0.01074592 0 0 0 0
0.04191946 0.03761882 0.06202958 0 0 0 0
0.06021663 0.07645620 -0.00685753 0 0 0 0
0.03563205 -0.09119486 -0.00499017 0 0 0 0
-0.03246801 -0.07956403 0.02687543 0 0 0 0
0.03835117 -0.02080123 -0.07376810 0 0 0 0
-0.01397351 0.04501877 0.07077851 0 0 0 0
0.06401442 0.04218396 -0.03989144 0 0 0 0
0.05868648 -0.04589910 -0.04239579 0 0 0 0
0.05229170 -0.07389910 -0.01999061 0 0 0 0
0.05467673 0.05449982 0.03899242 0 0 0 0
-0.02559482 0.06166823 0.05143467 0 0 0 0
-0.06371071 -0.06490090 0.01932414 0 0 0 0
0.06366480 -0.03654877 -0.04370817 0 0 0 0
0.05945265 0.07693551 0.00749923 0 0 0 0
0.00340660 0.09653724 -0.00912315 0 0 0 0
-0.00753783 -0.01298878 -0.09363425 0 0 0 0
0.05654744 0.06271275 -0.02915487 0 0 0 0
-0.04312084 0.00214953 0.07386486 0 0 0 0
0.00217652 0.09780098 0.00635499 0 0 0 0
-0.06377114 0.01403287 0.05312397 0 0 0 0
0.07948797 -0.04036642 0.02203532 0 0 0 0
-0.03887121 0.06853493 -0.03693113 0 0 0 0
0.09329041 0.01929105 -0.01142496 0 0 0 0
0.05931599 -0.01681494 -0.05704596 0 0 0 0
-0.07958604 0.03742200 -0.02467580 0 0 0 0
0.06436123 -0.07359518 -0.00552921 0 0 0 0
0.07065313 0.05121426 0.02531682 0 0 0 0
0.02742154 -0.02987221 -0.07615218 0 0 0 0
0.03301570 -0.05817191 0.05147091 0 0 0 0
0.07453128 -0.01301187 -0.04091209 0 0 0 0
0.01784334 0.00953387 -0.09061202 0 0 0 0
0.02342311 -0.02516362 0.08102198 0 0 0 0
-0.01391471 -0.00692345 -0.09333500 0 0 0 0
0.03827888 0.01557910 0.07550634 0 0 0 0
0.09943224 -0.00690029 -0.00085060 0 0 0 0
0.04533667 0.06829450 -0.03264671 0 0 0 0
0.03532851 -0.05908890 -0.04907006 0 0 0 0
0.06903454 -0.05081927 0.02728949 0 0 0 0
-0.04544113 -0.06006455 -0.04138379 0 0 0 0
-0.00635523 0.05148367 -0.06637172 0 0 0 0
-0.06046750 0.01501516 -0.05592411 0 0 0 0
0.04705567 -0.04998698 -0.04921081 0 0 0 0
0.04495601 -0.00760584 -0.07194139 0 0 0 0
0.01865184 0.06639829 -0.04907401 0 0 0 0
0.07440738 0.05089141 0.02073069 0 0 0 0
0.07039004 -0.00284488 -0.04707704 0 0 0 0
-0.07989314 -0.00962622 0.03503840 0 0 0 0
0.05277588 0.08170062 -0.00646016 0 0 0 0
-0.03989915 0.00544224 -0.07639889 0 0 0 0
0.02228165 -0.09436425 -0.00876027 0 0 0 0
-0.00447451 -0.05386379 0.06432568 0 0 0 0
0.03841244 -0.03349433 -0.06724141 0 0 0 0
0.00492758 -0.08867201 0.02289564 0 0 0 0
-0.06688507 -0.05149566 -0.02925201 0 0 0 0
-0.06330517 0.03211974 0.04636556 0 0 0 0
0.03748965 0.05080102 -0.05517675 0 0 0 0
0.04352396 0.07286246 -0.02934444 0 0 0 0
-0.09832080 0.00593672 0.00358660 0 0 0 0
0.03185917 -0.00766808 0.08230162 0 0 0 0
-0.09602042 0.01374117 0.00753272 0 0 0 0
0.01258511 -0.05513118 0.06169917 0 0 0 0
-0.07365903 0.00274608 0.04329980 0 0 0 0
-0.01102514 0.09464795 0.01090364 0 0 0 0
