ply
format ascii 1.0
comment https://github.com/mikedh/trimesh
element vertex 1119
property float x
property float y
property float z
property uchar red
property uchar green
property uchar blue
property uchar alpha
end_header
-0.00286340 -0.08894937 0.01008690 0 0 0 0
0.02358779 -0.05134292 -0.03532642 0 0 0 0
-0.05279235 0.03624129 0.02444293 0 0 0 0
0.04100221 0.02628508 -0.04295827 0 0 0 0
0.02737073 0.01448674 0.06413119 0 0 0 0
0.05349582 0.06079564 -0.00354434 0 0 0 0
-0.04563189 -0.06009688 -0.01059915 0 0 0 0
0.04755088 -0.01662494 0.04375588 0 0 0 0
0.00855619 -0.09654053 -0.00043754 0 0 0 0
-0.04536989 0.04490164 -0.02402624 0 0 0 0
-0.01303679 -0.05257006 -0.04126152 0 0 0 0
-0.08359464 0.00199193 -0.01564602 0 0 0 0
0.03056115 -0.00385227 -0.06791482 0 0 0 0
-0.02095112 -0.01844878 -0.06677394 0 0 0 0
0.03872836 0.05052409 -0.02455629 0 0 0 0
-0.00375776 0.06288017 -0.03597864 0 0 0 0
0.08026333 -0.01778814 -0.01163259 0 0 0 0
-0.07244040 0.00962054 0.02368413 0 0 0 0
-0.01144321 0.07287211 -0.02232275 0 0 0 0
0.00533934 0.07985657 0.01850773 0 0 0 0
-0.04661127 -0.02166577 -0.04119824 0 0 0 0
0.02590649 -0.01521546 -0.06496582 0 0 0 0
-0.03266757 0.01086595 -0.06171946 0 0 0 0
-0.00358122 -0.06046025 -0.03833380 0 0 0 0
0.05652984 0.06117968 -0.00065342 0 0 0 0
0.04960950 -0.00256279 -0.04952232 0 0 0 0
0.03681764 0.00773091 0.05965183 0 0 0 0
0.07373400 -0.01894866 0.01715377 0 0 0 0
-0.05479941 0.06267704 -0.00084374 0 0 0 0
0.00592996 -0.02771195 0.06958408 0 0 0 0
0.02662986 -0.03220052 0.05028922 0 0 0 0
0.00642717 -0.05422778 -0.04323806 0 0 0 0
-0.00984249 -0.07968410 -0.01645577 0 0 0 0
0.02430676 -0.03198919 -0.05244954 0 0 0 0
0.04700365 -0.05642201 0.01283490 0 0 0 0
0.01545450 0.02433345 -0.06620727 0 0 0 0
-0.00100308 0.01190546 0.08774547 0 0 0 0
-0.01336578 -0.01260256 0.07809105 0 0 0 0
0.02549170 -0.08223937 -0.00482117 0 0 0 0
-0.00022165 0.00586024 0.09406599 0 0 0 0
-0.01710084 0.06966440 -0.02234830 0 0 0 0
0.02581253 -0.03120978 -0.05181709 0 0 0 0
0.06416522 -0.01810822 0.02694174 0 0 0 0
-0.02608209 0.03577124 0.04762406 0 0 0 0
-0.05134169 -0.03976740 -0.02293534 0 0 0 0
0.07363095 -0.02302994 -0.01471604 0 0 0 0
0.02293942 0.02652603 0.05824025 0 0 0 0
0.01625290 0.06489940 -0.02744668 0 0 0 0
0.03706991 -0.03526150 0.03916764 0 0 0 0
-0.00577663 0.01751986 0.07949459 0 0 0 0
0.04424006 0.05267541 -0.01834533 0 0 0 0
-0.00194140 0.00109316 0.09741132 0 0 0 0
0.00696565 -0.05229960 0.04495646 0 0 0 0
0.09300645 0.01537597 -0.00055800 0 0 0 0
-0.00424370 0.09520476 -0.00351487 0 0 0 0
0.08553915 -0.02604727 -0.00147806 0 0 0 0
0.02256984 -0.02907451 -0.05636538 0 0 0 0
0.03043379 -0.04423419 0.03667954 0 0 0 0
0.04155556 -0.00920732 -0.05425011 0 0 0 0
-0.05598033 0.04649775 -0.01348617 0 0 0 0
0.00613539 -0.06246298 -0.03526221 0 0 0 0
0.05556873 -0.04383331 -0.01595821 0 0 0 0
-0.04210138 -0.03409824 -0.03559533 0 0 0 0
-0.01347601 0.02015894 0.07146092 0 0 0 0
0.07401578 -0.02502145 -0.01324470 0 0 0 0
0.04409233 0.03230485 -0.03535220 0 0 0 0
-0.04348052 0.04640945 -0.02427440 0 0 0 0
-0.06429798 -0.01038358 0.03137036 0 0 0 0
-0.02490285 0.00203820 0.07435526 0 0 0 0
0.09091385 -0.00737066 -0.00644747 0 0 0 0
0.04148896 -0.02319008 0.04469489 0 0 0 0
-0.02794854 -0.03408270 -0.04762093 0 0 0 0
0.08455633 -0.00210728 -0.01474947 0 0 0 0
0.06117637 0.01289880 -0.03292593 0 0 0 0
-0.06917064 -0.03702326 -0.00929316 0 0 0 0
0.00216588 -0.00668382 -0.09221090 0 0 0 0
-0.06061614 -0.03887108 -0.01566282 0 0 0 0
-0.01241571 -0.06229018 -0.03211392 0 0 0 0
0.07832123 0.02508959 -0.00887858 0 0 0 0
0.07338541 -0.00925173 -0.02295423 0 0 0 0
-0.03003844 0.01641175 -0.06024563 0 0 0 0
0.09458533 0.00945580 -0.00189880 0 0 0 0
-0.01461620 0.00839783 -0.08037770 0 0 0 0
0.01149620 -0.08986721 -0.00568511 0 0 0 0
-0.01181103 -0.01636630 -0.07612689 0 0 0 0
-0.04601433 0.03025680 -0.03521730 0 0 0 0
0.01341258 0.00380565 0.08473079 0 0 0 0
-0.00722547 -0.04238581 -0.05461453 0 0 0 0
0.05117993 -0.01702327 -0.04002648 0 0 0 0
0.03340761 -0.02837252 -0.04781224 0 0 0 0
0.00637452 -0.01098366 0.08518514 0 0 0 0
-0.04426976 -0.03584692 -0.03231631 0 0 0 0
-0.00238221 -0.07867783 -0.02076267 0 0 0 0
0.02436228 -0.01442850 0.06695197 0 0 0 0
0.07450292 0.01634095 -0.01794082 0 0 0 0
0.03386778 0.07956277 0.00182624 0 0 0 0
-0.02014881 -0.07805018 -0.01234340 0 0 0 0
0.05944570 0.05616319 -0.00275173 0 0 0 0
0.03483053 -0.01032191 0.06004803 0 0 0 0
0.02910236 -0.07087962 -0.01315206 0 0 0 0
-0.06291704 0.05496010 -0.00033017 0 0 0 0
-0.02811012 0.08484785 -0.00008652 0 0 0 0
0.01194630 0.09491883 -0.00027051 0 0 0 0
-0.02912341 -0.00717807 -0.06745558 0 0 0 0
0.03387367 -0.00200403 -0.06546614 0 0 0 0
0.05901512 -0.05787411 0.00164246 0 0 0 0
-0.03290945 0.06939973 -0.01185653 0 0 0 0
-0.03443501 0.03573522 -0.04088759 0 0 0 0
-0.00487446 0.08178116 -0.01653323 0 0 0 0
-0.04682636 -0.06313167 -0.00688823 0 0 0 0
0.05506659 -0.06302238 -0.00060198 0 0 0 0
0.07869074 0.00577794 -0.01923474 0 0 0 0
-0.02593569 0.04961867 -0.03519561 0 0 0 0
0.02336743 -0.07483745 0.01327513 0 0 0 0
0.03767529 0.05813461 -0.01866869 0 0 0 0
-0.06573464 0.04530031 -0.00597467 0 0 0 0
-0.01007454 0.06414320 0.03162608 0 0 0 0
-0.06697302 0.02101797 -0.02249305 0 0 0 0
0.00316032 0.00769344 -0.09059051 0 0 0 0
-0.05785343 0.04236338 0.01519531 0 0 0 0
-0.07913167 0.02665088 -0.00732059 0 0 0 0
0.09372117 0.00653961 -0.00412447 0 0 0 0
-0.04143804 0.03250144 -0.03767087 0 0 0 0
-0.02117928 -0.06953774 -0.01976966 0 0 0 0
-0.05698267 0.02707807 0.02767618 0 0 0 0
0.02372965 0.01853135 -0.06436829 0 0 0 0
0.03933491 0.02042231 -0.04875366 0 0 0 0
0.05992057 0.01193832 -0.03473447 0 0 0 0
-0.02810224 0.06520945 0.01930916 0 0 0 0
0.07446054 -0.03074734 0.00866014 0 0 0 0
-0.00033211 -0.07628023 0.02363284 0 0 0 0
-0.04801121 -0.04056116 0.02526092 0 0 0 0
0.07928367 -0.00186926 -0.01999913 0 0 0 0
-0.05589071 -0.05065305 -0.01027249 0 0 0 0
-0.04064774 0.04723618 -0.02579792 0 0 0 0
0.05291285 0.00479522 -0.04531042 0 0 0 0
0.08985842 -0.01963104 0.00090389 0 0 0 0
-0.01107115 -0.06442095 0.03082277 0 0 0 0
0.08735819 -0.01202798 -0.00774821 0 0 0 0
0.02766442 -0.01260932 -0.06528990 0 0 0 0
0.05961736 0.00588603 0.03819670 0 0 0 0
-0.06176727 -0.00313435 -0.03733323 0 0 0 0
-0.02363316 -0.04735088 -0.03903275 0 0 0 0
0.05472750 -0.01556069 0.03761897 0 0 0 0
-0.00854737 0.04702113 0.04932366 0 0 0 0
0.05918239 -0.02645786 -0.02596735 0 0 0 0
0.02861253 0.06422881 -0.01990519 0 0 0 0
0.00589069 -0.05335660 -0.04453100 0 0 0 0
-0.00099054 -0.07444961 -0.02511677 0 0 0 0
0.00076399 -0.04013222 0.05958800 0 0 0 0
-0.01347912 0.09168570 -0.00278757 0 0 0 0
0.06304739 0.03846504 -0.01370087 0 0 0 0
0.03170890 -0.04958176 -0.03096718 0 0 0 0
-0.01572422 0.06253941 -0.03000082 0 0 0 0
0.04673690 0.04601094 0.02195040 0 0 0 0
0.04527609 -0.06322087 0.00833671 0 0 0 0
-0.00850662 0.06077201 -0.03580642 0 0 0 0
0.02295561 0.06878977 -0.01942554 0 0 0 0
-0.04569894 -0.02680897 -0.03821123 0 0 0 0
-0.07793895 -0.01547237 0.01511534 0 0 0 0
0.00314874 -0.08876570 0.01019376 0 0 0 0
-0.06312194 0.02069972 0.02642350 0 0 0 0
-0.04398946 0.03638354 -0.03223805 0 0 0 0
-0.01189968 -0.03774566 -0.05621683 0 0 0 0
-0.05590929 0.04615144 0.01375672 0 0 0 0
-0.07703535 0.02599109 -0.00947735 0 0 0 0
-0.02212896 0.05305668 -0.03486092 0 0 0 0
0.04032672 0.01700423 0.05029126 0 0 0 0
0.04944677 0.02508048 -0.03615917 0 0 0 0
-0.05493208 0.01158093 -0.03982584 0 0 0 0
-0.01414132 -0.00437988 -0.08363418 0 0 0 0
-0.05015808 -0.01580272 -0.04178070 0 0 0 0
-0.02926106 0.02830269 -0.05157582 0 0 0 0
-0.03691698 0.00035009 0.06293152 0 0 0 0
0.05421206 0.01537308 -0.03828975 0 0 0 0
0.03265765 -0.04445913 -0.03468564 0 0 0 0
0.00409460 0.04320149 -0.05534831 0 0 0 0
-0.02967206 -0.05311920 -0.02920987 0 0 0 0
-0.08041314 -0.03501914 -0.00034674 0 0 0 0
0.05886552 -0.04621276 -0.01115410 0 0 0 0
-0.01210968 -0.02501842 -0.06804215 0 0 0 0
-0.06682871 -0.02097645 -0.02265783 0 0 0 0
-0.05891987 0.04361298 -0.01324641 0 0 0 0
-0.05244709 -0.01769522 -0.03855094 0 0 0 0
-0.05300902 -0.03378372 -0.02639807 0 0 0 0
0.05830254 0.01589784 0.03406744 0 0 0 0
-0.08238661 -0.00377668 -0.01659391 0 0 0 0
0.01838930 0.02953951 -0.05927772 0 0 0 0
0.00242833 -0.05318796 -0.04607124 0 0 0 0
0.04881279 0.04476327 -0.02121950 0 0 0 0
-0.05506808 0.02451814 0.03134861 0 0 0 0
-0.07320379 -0.03345196 0.00799953 0 0 0 0
0.07420662 0.03471578 0.00618887 0 0 0 0
0.03916574 0.01658870 0.05181830 0 0 0 0
-0.02182560 -0.05620385 -0.03219540 0 0 0 0
-0.01530402 0.06991418 0.02303161 0 0 0 0
-0.03294600 0.03388177 0.04371354 0 0 0 0
0.00791092 0.09376261 -0.00332232 0 0 0 0
-0.00505458 0.05171170 -0.04637403 0 0 0 0
-0.00165752 0.07944305 -0.01993493 0 0 0 0
0.05046201 -0.04626119 -0.01836915 0 0 0 0
-0.00942770 -0.07233819 0.02384737 0 0 0 0
0.01681207 -0.08300114 -0.00948462 0 0 0 0
-0.04508852 -0.05012106 -0.01968378 0 0 0 0
-0.01540610 0.03222002 -0.05910138 0 0 0 0
0.06433064 0.03884510 -0.01214312 0 0 0 0
-0.09245535 0.00591891 -0.00546138 0 0 0 0
-0.05728368 0.00364479 -0.04153024 0 0 0 0
-0.08285727 -0.00049497 -0.01661124 0 0 0 0
-0.01188494 -0.06064934 0.03401729 0 0 0 0
-0.05495585 0.03972534 0.01990349 0 0 0 0
0.01852047 0.02781061 -0.06068546 0 0 0 0
-0.04414148 0.02757144 0.03911591 0 0 0 0
-0.08380134 -0.02920290 -0.00114343 0 0 0 0
-0.02633981 0.06092107 -0.02451539 0 0 0 0
0.06972599 -0.01551878 0.02306888 0 0 0 0
-0.03325643 0.00327075 -0.06550438 0 0 0 0
-0.01500262 -0.06806834 -0.02502082 0 0 0 0
0.00059461 -0.02563343 -0.07418199 0 0 0 0
0.05081411 -0.01853378 0.03940500 0 0 0 0
0.04032668 0.05400450 -0.02031760 0 0 0 0
-0.01440036 -0.00782972 -0.08097991 0 0 0 0
-0.02107813 -0.03208995 -0.05481502 0 0 0 0
0.00902822 0.07642250 -0.02021794 0 0 0 0
-0.02865660 -0.01985769 0.05883948 0 0 0 0
-0.00606871 -0.07062395 -0.02713158 0 0 0 0
-0.08756594 0.00470366 -0.01103479 0 0 0 0
-0.02030187 0.04720356 -0.04159153 0 0 0 0
0.09617350 0.00745537 -0.00119810 0 0 0 0
0.00083376 -0.07704001 -0.02275643 0 0 0 0
-0.01607384 -0.02974215 -0.06080855 0 0 0 0
0.05244533 0.04536831 0.01751926 0 0 0 0
0.02368443 -0.07911489 0.00899239 0 0 0 0
0.00575806 -0.01260227 -0.08418936 0 0 0 0
-0.04941698 0.05582396 -0.01140262 0 0 0 0
0.02555287 -0.03219647 -0.05116303 0 0 0 0
0.00586109 -0.06143387 -0.03635570 0 0 0 0
-0.07404844 -0.03212953 0.00807546 0 0 0 0
0.02827176 -0.02142989 -0.05793486 0 0 0 0
-0.05741104 0.04241870 -0.01544968 0 0 0 0
0.04848216 0.00626253 -0.04913925 0 0 0 0
0.03758279 0.03802391 0.03626607 0 0 0 0
0.00156092 -0.00340150 -0.09571843 0 0 0 0
-0.00253493 0.05185677 0.04727918 0 0 0 0
0.08062688 0.00388391 0.01829788 0 0 0 0
-0.07432923 -0.03254477 0.00751474 0 0 0 0
-0.03820084 -0.03819817 -0.03558911 0 0 0 0
-0.00788226 0.06132050 -0.03562324 0 0 0 0
0.02926797 -0.04838496 -0.03398740 0 0 0 0
0.00865542 -0.02532228 -0.07019819 0 0 0 0
0.02828742 0.00244801 0.07081579 0 0 0 0
0.01780837 -0.06670476 0.02460955 0 0 0 0
-0.04374587 -0.01748336 -0.04677635 0 0 0 0
-0.03695776 0.01078814 -0.05770829 0 0 0 0
0.00850110 0.06949630 -0.02728412 0 0 0 0
-0.03931794 0.01033286 0.05568392 0 0 0 0
0.00939670 -0.07074937 0.02555353 0 0 0 0
0.05984036 0.02388702 -0.02721559 0 0 0 0
-0.01992153 -0.06517874 -0.02475267 0 0 0 0
-0.02194942 -0.02044996 -0.06423642 0 0 0 0
-0.05270135 -0.01163903 0.04198546 0 0 0 0
0.09048600 -0.01647311 -0.00233105 0 0 0 0
-0.02915938 0.06060655 0.02292896 0 0 0 0
-0.03477815 -0.02017134 -0.05315248 0 0 0 0
-0.00243420 0.04487341 -0.05433073 0 0 0 0
-0.04797148 0.01304565 0.04577452 0 0 0 0
-0.08104827 -0.02362145 0.00727619 0 0 0 0
-0.07946599 0.03419433 -0.00155673 0 0 0 0
-0.00355376 0.05848584 -0.04030792 0 0 0 0
-0.05377305 -0.00505421 -0.04435905 0 0 0 0
0.04435504 0.07099775 0.00199807 0 0 0 0
0.06164389 0.02234927 -0.02657670 0 0 0 0
-0.05181563 0.05775375 -0.00774389 0 0 0 0
-0.00025736 0.02380511 -0.07602893 0 0 0 0
0.00389896 0.07712556 0.02154191 0 0 0 0
0.02050508 -0.03681380 0.05101709 0 0 0 0
-0.05890915 -0.01323479 -0.03503101 0 0 0 0
-0.00614272 -0.00744723 -0.08851610 0 0 0 0
-0.03906230 0.06576802 -0.01060550 0 0 0 0
0.03911158 -0.05652331 0.01887052 0 0 0 0
0.03171513 -0.07395200 0.00843685 0 0 0 0
0.02572909 0.02491830 -0.05739295 0 0 0 0
0.00532843 0.06377970 -0.03426079 0 0 0 0
0.06833723 0.04925536 -0.00050899 0 0 0 0
0.04508575 0.02106541 -0.04304018 0 0 0 0
-0.02288813 0.01149507 -0.07045574 0 0 0 0
-0.07837690 0.02834533 -0.00679576 0 0 0 0
-0.00499190 0.06430805 0.03393960 0 0 0 0
-0.04619962 0.06515528 0.00561515 0 0 0 0
-0.01106590 0.02128159 -0.07228617 0 0 0 0
0.06135825 -0.04963994 -0.00642633 0 0 0 0
-0.02996219 0.01854173 0.05872414 0 0 0 0
-0.03844445 -0.03139145 0.04101533 0 0 0 0
0.03473123 -0.02175596 -0.05194592 0 0 0 0
0.05638674 0.05299286 -0.00797808 0 0 0 0
0.00603316 0.00847706 -0.08770268 0 0 0 0
0.00019363 -0.09903842 -0.00068295 0 0 0 0
0.03382515 0.00722468 -0.06285910 0 0 0 0
0.00705090 0.00011450 -0.09292729 0 0 0 0
0.02655183 0.04702448 -0.03715213 0 0 0 0
-0.02286777 -0.02459369 -0.06002089 0 0 0 0
0.03278752 0.04631456 -0.03294900 0 0 0 0
-0.04908255 0.04460325 -0.02098454 0 0 0 0
-0.00634794 0.07683966 -0.02097147 0 0 0 0
0.03758476 -0.06697800 0.01061372 0 0 0 0
-0.08338182 -0.01029069 -0.01251464 0 0 0 0
-0.01572028 -0.05146698 -0.04074527 0 0 0 0
0.02593968 0.03722306 -0.04644947 0 0 0 0
0.03946418 0.06807049 -0.00849276 0 0 0 0
-0.00738683 0.02277530 0.07342471 0 0 0 0
0.03838635 0.00775069 0.05813432 0 0 0 0
0.06384710 -0.04442352 -0.00832568 0 0 0 0
-0.06186633 -0.05427200 -0.00193189 0 0 0 0
-0.07694317 0.03306061 0.00473473 0 0 0 0
-0.05862443 0.02623253 -0.02681558 0 0 0 0
0.01435845 0.09342787 -0.00058823 0 0 0 0
-0.09407293 -0.00230412 -0.00516802 0 0 0 0
-0.04157903 0.03139163 0.03823434 0 0 0 0
-0.03528736 0.07175860 0.00797765 0 0 0 0
0.01382013 -0.01159429 -0.07855065 0 0 0 0
-0.00758057 0.03773110 -0.05884539 0 0 0 0
0.00722840 -0.06481798 -0.03238686 0 0 0 0
0.02337907 -0.03013704 0.05478285 0 0 0 0
-0.06127457 -0.05310922 0.00354585 0 0 0 0
0.07507498 0.02632440 0.01110137 0 0 0 0
0.01905639 0.03988556 0.04938275 0 0 0 0
0.02376324 -0.00043741 -0.07609267 0 0 0 0
0.01878025 -0.07384972 0.01711054 0 0 0 0
-0.05413635 -0.05887774 -0.00481548 0 0 0 0
-0.08284245 -0.02314616 0.00573237 0 0 0 0
-0.00291258 -0.09683247 -0.00248749 0 0 0 0
-0.01253894 0.00432087 -0.08524358 0 0 0 0
-0.03094598 0.08093546 -0.00243847 0 0 0 0
-0.06191389 -0.00695053 0.03536841 0 0 0 0
0.08137470 0.02898451 -0.00340697 0 0 0 0
-0.03477600 -0.07594348 0.00441856 0 0 0 0
-0.00330895 0.07052010 -0.02835583 0 0 0 0
-0.01832326 -0.09105486 -0.00077577 0 0 0 0
-0.02939104 -0.07871914 -0.00587220 0 0 0 0
0.01227190 -0.04694382 -0.04719172 0 0 0 0
-0.06180843 0.02258467 -0.02633136 0 0 0 0
-0.01782769 0.05384675 -0.03692866 0 0 0 0
-0.01927195 -0.04293612 -0.04627465 0 0 0 0
-0.08103705 -0.01079606 -0.01459586 0 0 0 0
-0.01481301 -0.07578121 -0.01757577 0 0 0 0
0.04491439 0.00075256 -0.05472512 0 0 0 0
0.00863673 -0.08497491 -0.01195793 0 0 0 0
0.03620528 -0.05034431 -0.02688006 0 0 0 0
-0.06169159 0.03046177 0.02074481 0 0 0 0
0.06555416 0.01465197 -0.02774783 0 0 0 0
0.05242544 -0.02306795 0.03485085 0 0 0 0
0.07940523 0.02033856 0.01081363 0 0 0 0
-0.00278995 -0.01787337 -0.08095015 0 0 0 0
0.07218021 0.04070731 0.00360712 0 0 0 0
0.01239093 0.09171586 -0.00337301 0 0 0 0
-0.01562480 0.01102941 -0.07742862 0 0 0 0
-0.05135178 0.00997077 0.04420751 0 0 0 0
0.00132336 -0.02913241 -0.07046480 0 0 0 0
-0.03507057 -0.00289971 -0.06388464 0 0 0 0
-0.06354494 -0.01802257 0.02766401 0 0 0 0
-0.05056601 -0.03035190 -0.03108554 0 0 0 0
0.02930472 0.00015526 0.07051025 0 0 0 0
-0.02909874 -0.01370734 -0.06315294 0 0 0 0
0.01462952 -0.07792966 -0.01568827 0 0 0 0
-0.00331737 -0.00212911 -0.09536920 0 0 0 0
-0.02284895 0.06958827 -0.01872006 0 0 0 0
0.07558271 0.00118059 0.02417644 0 0 0 0
0.03824564 0.03568902 -0.03763623 0 0 0 0
0.02715256 -0.08453923 -0.00153205 0 0 0 0
-0.00089395 -0.03929630 0.06042974 0 0 0 0
-0.05115546 0.06510285 -0.00181518 0 0 0 0
0.00637778 -0.01900626 0.07768138 0 0 0 0
-0.01246467 -0.06241941 -0.03208925 0 0 0 0
0.01630799 -0.09024865 -0.00268261 0 0 0 0
0.01160824 -0.00700134 -0.08415297 0 0 0 0
-0.01626631 0.03949607 -0.05157100 0 0 0 0
0.05337747 0.03276348 0.02679386 0 0 0 0
-0.01114042 -0.07335310 -0.02217149 0 0 0 0
0.04808988 -0.03475187 0.02991829 0 0 0 0
-0.02865606 -0.05501700 -0.02834002 0 0 0 0
-0.04471860 -0.01957974 -0.04435831 0 0 0 0
-0.00374698 -0.04937856 -0.04938368 0 0 0 0
0.00586206 0.06356879 -0.03431019 0 0 0 0
0.00430577 0.06382162 0.03467246 0 0 0 0
0.00685705 -0.04215707 -0.05506236 0 0 0 0
0.06541786 0.01604049 -0.02694691 0 0 0 0
-0.05867267 -0.04154363 -0.01516259 0 0 0 0
0.02054348 0.05710671 -0.03202716 0 0 0 0
0.01508117 -0.02375314 0.06700071 0 0 0 0
-0.01181880 -0.07281121 0.02217003 0 0 0 0
0.03241368 -0.01460409 0.05940550 0 0 0 0
0.02193169 0.05977625 0.02859433 0 0 0 0
0.07087351 0.01212022 0.02403011 0 0 0 0
0.05074871 0.04812460 -0.01658833 0 0 0 0
-0.04285731 0.02727394 0.04035067 0 0 0 0
-0.00502001 0.00641302 -0.09034303 0 0 0 0
0.06260805 0.05420601 -0.00149737 0 0 0 0
-0.02000003 0.04762366 -0.04133333 0 0 0 0
0.05851027 -0.04151145 -0.01531775 0 0 0 0
0.02095402 -0.00432565 0.07708055 0 0 0 0
0.02117578 -0.03882901 0.04863497 0 0 0 0
0.05144168 0.04612820 -0.01763282 0 0 0 0
-0.03474773 -0.01098403 -0.05974008 0 0 0 0
-0.07379507 0.04067408 -0.00213301 0 0 0 0
0.07644648 -0.00684398 0.02103701 0 0 0 0
-0.04439532 0.02588706 -0.04009819 0 0 0 0
0.07767726 -0.00122587 -0.02207708 0 0 0 0
-0.04921881 -0.00523236 0.04876045 0 0 0 0
-0.06668700 0.02178882 -0.02212308 0 0 0 0
-0.01823661 -0.02560130 -0.06296292 0 0 0 0
0.03673253 -0.01394642 0.05584619 0 0 0 0
0.02533012 -0.06160320 -0.02449263 0 0 0 0
-0.00716662 -0.06268965 -0.03451463 0 0 0 0
-0.06584744 -0.03321306 -0.01490026 0 0 0 0
0.07021146 0.02339851 -0.01793873 0 0 0 0
0.02857541 0.02756402 0.05264022 0 0 0 0
0.04377368 -0.00935162 0.05193413 0 0 0 0
0.04518747 0.02608804 -0.03923635 0 0 0 0
0.01414975 -0.03174730 -0.06034927 0 0 0 0
-0.06704815 0.01230996 -0.02753456 0 0 0 0
-0.04448922 0.06797113 0.00458155 0 0 0 0
0.03996011 -0.01707553 -0.05058330 0 0 0 0
0.06433163 -0.04043816 -0.01087970 0 0 0 0
-0.00504436 0.08012859 -0.01814099 0 0 0 0
0.00852874 -0.01630084 0.07873831 0 0 0 0
0.03638041 -0.02964013 -0.04423442 0 0 0 0
0.03197556 0.06058444 0.02064534 0 0 0 0
0.03783993 -0.07039989 0.00728171 0 0 0 0
-0.06730763 0.00917727 -0.02916796 0 0 0 0
-0.00141107 -0.04463857 0.05490165 0 0 0 0
-0.04286021 0.02642883 0.04098975 0 0 0 0
0.06912404 -0.03107377 -0.01347790 0 0 0 0
0.06842908 -0.03200576 -0.01352345 0 0 0 0
0.00012648 0.01538632 -0.08458778 0 0 0 0
0.00756454 0.05492879 0.04204879 0 0 0 0
0.02967063 0.04036104 -0.04084001 0 0 0 0
-0.04142020 0.03817205 -0.03286741 0 0 0 0
0.02189731 -0.03851914 -0.04840462 0 0 0 0
0.01163093 -0.07661591 -0.01850789 0 0 0 0
-0.01827803 -0.04970480 0.04057454 0 0 0 0
0.08518929 0.00478655 0.01316282 0 0 0 0
0.01582026 -0.00598832 -0.08099394 0 0 0 0
0.09164718 -0.01622175 -0.00127293 0 0 0 0
0.04969459 -0.04450989 -0.02063801 0 0 0 0
0.00179349 -0.03540444 0.06398251 0 0 0 0
0.06012310 -0.00165317 -0.03933229 0 0 0 0
0.04552598 0.01809488 -0.04468281 0 0 0 0
-0.02604272 0.05328451 -0.03192480 0 0 0 0
-0.04140175 -0.02837528 -0.04083692 0 0 0 0
0.00604467 -0.03134431 0.06600539 0 0 0 0
0.02838447 0.04435882 -0.03812366 0 0 0 0
0.04454054 -0.00059037 -0.05512527 0 0 0 0
0.03270831 0.06829048 -0.01302446 0 0 0 0
-0.03345975 -0.01289611 -0.05958424 0 0 0 0
-0.06007165 0.05739554 0.00042562 0 0 0 0
-0.03070295 -0.05809841 -0.02387231 0 0 0 0
-0.07611389 0.01722737 -0.01585130 0 0 0 0
0.04675008 -0.06205912 0.00809104 0 0 0 0
0.05470116 -0.03336867 0.02496164 0 0 0 0
-0.03459115 0.00071211 -0.06511139 0 0 0 0
-0.05548244 0.00111921 0.04414886 0 0 0 0
-0.05841276 -0.03320119 0.02171648 0 0 0 0
0.01412575 0.02837016 -0.06355312 0 0 0 0
0.03030811 0.03502817 -0.04501081 0 0 0 0
-0.00452041 0.00846997 -0.08888339 0 0 0 0
-0.06213598 -0.00970727 -0.03375771 0 0 0 0
0.01984197 -0.04387178 -0.04509362 0 0 0 0
0.00159812 -0.05755531 -0.04193338 0 0 0 0
-0.00375132 0.09109614 -0.00764450 0 0 0 0
0.03027573 -0.02266460 0.05521282 0 0 0 0
0.02551211 0.04437145 -0.04032897 0 0 0 0
0.01457101 0.01377917 0.07615293 0 0 0 0
-0.00327017 0.05594406 -0.04306003 0 0 0 0
-0.07055614 -0.04455503 -0.00206195 0 0 0 0
0.02170291 0.03649805 -0.05038492 0 0 0 0
-0.00308660 -0.04460794 -0.05431505 0 0 0 0
0.00392955 -0.04217801 0.05634626 0 0 0 0
0.04813154 0.03549838 -0.02931360 0 0 0 0
-0.04956787 -0.01879477 -0.04042709 0 0 0 0
-0.04005306 0.07375468 -0.00255939 0 0 0 0
0.02908209 0.06467795 0.01897373 0 0 0 0
0.06469679 0.04962622 -0.00353505 0 0 0 0
-0.02623976 0.00086187 0.07350204 0 0 0 0
-0.00649393 -0.02367323 0.07313720 0 0 0 0
-0.00103922 -0.01059016 -0.08904128 0 0 0 0
0.03623234 -0.03993642 -0.03570905 0 0 0 0
0.00657517 0.00997514 0.08595338 0 0 0 0
-0.04755241 -0.02339011 0.03897455 0 0 0 0
0.02160234 -0.07892232 -0.01055375 0 0 0 0
0.03025539 -0.00602595 -0.06704688 0 0 0 0
-0.05234196 0.03406088 -0.02678520 0 0 0 0
0.03525833 0.02200576 -0.05125526 0 0 0 0
-0.03032328 -0.01232286 -0.06295958 0 0 0 0
0.01636200 -0.01094946 0.07680666 0 0 0 0
-0.04328636 -0.07251869 -0.00129690 0 0 0 0
0.04110354 0.04373189 -0.02852973 0 0 0 0
-0.05098417 0.01722523 0.04007342 0 0 0 0
0.05657502 0.05949838 -0.00219203 0 0 0 0
0.02336050 -0.04815958 -0.03861004 0 0 0 0
-0.00310259 0.00707854 0.09118870 0 0 0 0
0.08650731 0.01529429 0.00681936 0 0 0 0
-0.04750277 -0.06636418 -0.00351146 0 0 0 0
0.03941885 0.05446750 -0.02047844 0 0 0 0
-0.03595971 -0.04697789 -0.02981217 0 0 0 0
0.01507280 0.03858941 0.05338074 0 0 0 0
0.00939695 -0.05427294 0.04165423 0 0 0 0
0.05606381 0.01335093 0.03776307 0 0 0 0
-0.04544158 0.06314599 -0.00826189 0 0 0 0
0.01345656 -0.09032548 -0.00405564 0 0 0 0
0.07365815 -0.02030120 0.01642047 0 0 0 0
0.00013621 -0.02213183 -0.07778125 0 0 0 0
0.02026209 0.09029774 -0.00060922 0 0 0 0
0.06603824 0.05089948 -0.00110529 0 0 0 0
-0.00692853 0.04907552 0.04812803 0 0 0 0
0.01315141 0.01544665 -0.07584900 0 0 0 0
0.02032517 -0.02740017 -0.05958655 0 0 0 0
-0.00995985 0.08611904 -0.00998204 0 0 0 0
0.02623909 -0.07771811 -0.00863163 0 0 0 0
-0.02889044 -0.02092074 0.05786493 0 0 0 0
-0.04097166 0.01322108 0.05236943 0 0 0 0
0.00395773 0.08171945 -0.01693254 0 0 0 0
0.08154031 0.01544418 -0.01163236 0 0 0 0
-0.00377124 -0.02781398 -0.07064504 0 0 0 0
0.02649417 0.06389746 -0.02152528 0 0 0 0
-0.05937273 0.00744313 0.03765022 0 0 0 0
0.05856934 0.00270796 -0.04053857 0 0 0 0
-0.03037469 -0.00544477 -0.06726436 0 0 0 0
-0.00191882 -0.00641827 -0.09261953 0 0 0 0
0.01710307 -0.06460740 -0.02706956 0 0 0 0
-0.07306349 0.01219361 -0.02168929 0 0 0 0
-0.04401160 0.02327161 -0.04251162 0 0 0 0
-0.06674232 0.01844068 -0.02435817 0 0 0 0
-0.09184067 0.00866266 -0.00514549 0 0 0 0
-0.04632017 0.01905614 0.04325106 0 0 0 0
-0.07873405 -0.02372028 0.00946663 0 0 0 0
-0.07839748 0.03145286 -0.00468449 0 0 0 0
0.02971550 0.05409630 -0.02828024 0 0 0 0
-0.02996331 0.00433875 -0.06824051 0 0 0 0
0.04096175 0.03286715 -0.03776281 0 0 0 0
-0.01548302 0.01762431 -0.07205187 0 0 0 0
0.00676850 -0.09695324 -0.00068387 0 0 0 0
0.05823664 0.03529127 -0.02045841 0 0 0 0
-0.00658394 0.01670353 0.07973759 0 0 0 0
-0.09168126 0.00679540 -0.00596176 0 0 0 0
-0.01770525 0.08060665 -0.01148458 0 0 0 0
-0.03762837 -0.07540817 -0.00291312 0 0 0 0
-0.06278206 0.03533328 -0.01612764 0 0 0 0
0.00186867 0.03642024 -0.06294038 0 0 0 0
0.03742493 0.04405471 -0.03120836 0 0 0 0
-0.05289290 -0.04787121 -0.01513669 0 0 0 0
-0.06753078 0.00741324 -0.02969228 0 0 0 0
-0.03503699 0.01060625 -0.05965877 0 0 0 0
-0.00683474 -0.04422120 -0.05290257 0 0 0 0
0.01452472 0.07576067 -0.01788613 0 0 0 0
0.05653826 0.01044260 -0.03888510 0 0 0 0
-0.00305363 -0.07659136 -0.02238677 0 0 0 0
-0.03626904 -0.00708938 -0.06056421 0 0 0 0
0.01761627 -0.04572559 -0.04478777 0 0 0 0
-0.04139215 0.04092590 -0.03054880 0 0 0 0
-0.08835055 -0.00385273 -0.01058568 0 0 0 0
-0.04792072 -0.02233235 0.03939759 0 0 0 0
-0.01564995 0.04834591 0.04360782 0 0 0 0
-0.06437898 -0.04466559 -0.00759050 0 0 0 0
-0.02731181 -0.00869024 -0.06824411 0 0 0 0
0.02034091 -0.03887801 -0.04920908 0 0 0 0
0.01880869 0.04194057 0.04761636 0 0 0 0
-0.06347132 -0.01218802 0.03132137 0 0 0 0
0.01324289 0.07848366 0.01582215 0 0 0 0
-0.04575098 0.04402634 0.02427522 0 0 0 0
-0.07724594 -0.01467374 -0.01624868 0 0 0 0
-0.05677763 -0.00417307 -0.04184762 0 0 0 0
0.00017847 -0.02443014 -0.07546645 0 0 0 0
0.00458157 0.05367319 0.04471131 0 0 0 0
0.04533717 0.03730713 -0.03021210 0 0 0 0
-0.01787000 0.08952762 -0.00241528 0 0 0 0
0.00970729 -0.07523847 -0.02084416 0 0 0 0
-0.05386444 -0.01536287 -0.03862508 0 0 0 0
-0.07770889 0.01862325 -0.01354893 0 0 0 0
0.03642152 0.03213888 -0.04218230 0 0 0 0
-0.07739269 0.00552737 0.02071730 0 0 0 0
0.04580050 -0.03433286 0.03215825 0 0 0 0
-0.06576060 0.00646534 0.03183930 0 0 0 0
-0.03208400 -0.06336516 -0.01809114 0 0 0 0
-0.00273338 0.09549537 -0.00362614 0 0 0 0
0.01065335 -0.05269153 0.04260625 0 0 0 0
0.01025192 -0.05015087 -0.04519922 0 0 0 0
0.04135230 -0.02039924 -0.04688879 0 0 0 0
0.03355955 0.00658040 0.06350380 0 0 0 0
0.02839970 -0.06550885 0.01877428 0 0 0 0
0.01530431 -0.01036621 0.07820724 0 0 0 0
0.01287028 -0.03160917 -0.06142493 0 0 0 0
0.04158881 -0.06512370 -0.00922288 0 0 0 0
-0.04225225 -0.02127344 0.04545671 0 0 0 0
-0.03937163 -0.06216746 -0.01359925 0 0 0 0
-0.07779031 -0.00822229 -0.01918134 0 0 0 0
-0.00568848 0.00786244 -0.08851961 0 0 0 0
-0.01840914 -0.03521963 -0.05400159 0 0 0 0
-0.01998946 -0.03949104 0.04901275 0 0 0 0
0.05004496 0.01699932 -0.04128255 0 0 0 0
0.03452685 0.02319835 0.05101432 0 0 0 0
0.05803017 -0.01601663 -0.03424357 0 0 0 0
-0.00211170 0.05213777 -0.04725516 0 0 0 0
-0.00891761 -0.04435533 -0.05167017 0 0 0 0
0.01738774 0.02934822 -0.06025451 0 0 0 0
-0.06034756 0.03018438 0.02224925 0 0 0 0
-0.03787892 0.05324042 -0.02277827 0 0 0 0
0.04176476 -0.02439750 -0.04361551 0 0 0 0
-0.01903800 0.01197200 0.07361171 0 0 0 0
-0.06890546 -0.01520009 0.02405464 0 0 0 0
0.01439682 0.07939455 -0.01427998 0 0 0 0
0.02586438 0.00951427 0.06906907 0 0 0 0
-0.01704511 0.05410261 -0.03720298 0 0 0 0
0.03447770 -0.05625894 -0.02270523 0 0 0 0
0.01303965 0.01536362 -0.07601960 0 0 0 0
0.00734890 -0.08111383 -0.01624637 0 0 0 0
0.06302165 -0.00027230 0.03667106 0 0 0 0
0.01652614 0.00546812 0.08070794 0 0 0 0
-0.04962002 -0.06041246 -0.00721974 0 0 0 0
-0.07674868 0.03138814 -0.00630749 0 0 0 0
-0.01372962 0.03247247 0.05999330 0 0 0 0
-0.02710680 -0.05519964 -0.02923916 0 0 0 0
0.06928508 -0.00520748 0.02899940 0 0 0 0
-0.05283076 0.00239135 -0.04638225 0 0 0 0
-0.00508414 -0.04505635 0.05309780 0 0 0 0
-0.05403525 0.03182323 -0.02674014 0 0 0 0
-0.04493202 -0.00528010 -0.05307687 0 0 0 0
-0.08946810 0.01852333 -0.00217608 0 0 0 0
-0.07241388 0.02998146 0.01136516 0 0 0 0
-0.04654530 -0.02682287 -0.03734230 0 0 0 0
0.04131137 0.01303772 -0.05203500 0 0 0 0
0.07777833 0.03608626 -0.00193041 0 0 0 0
-0.06736028 -0.03703804 -0.01073142 0 0 0 0
0.06632390 0.04074625 -0.00901194 0 0 0 0
0.04688989 0.03943019 -0.02707393 0 0 0 0
0.02321615 -0.07643954 -0.01208673 0 0 0 0
0.02142403 0.08069544 -0.00903783 0 0 0 0
-0.06937413 -0.02882690 -0.01479958 0 0 0 0
0.00956421 0.00389066 -0.08830783 0 0 0 0
0.04586686 -0.03234806 -0.03378466 0 0 0 0
-0.04093062 -0.05288479 -0.02076438 0 0 0 0
0.01674941 -0.08948566 -0.00321103 0 0 0 0
0.01414683 0.00858956 0.08064214 0 0 0 0
0.06915729 0.01821402 -0.02202812 0 0 0 0
0.01957349 -0.04378701 0.04526955 0 0 0 0
0.03233238 0.04367707 -0.03563319 0 0 0 0
-0.01132344 0.01789732 -0.07513490 0 0 0 0
-0.09068628 0.00834401 0.00620875 0 0 0 0
-0.02000231 -0.06494317 -0.02492352 0 0 0 0
-0.04771233 0.05850188 -0.01022590 0 0 0 0
-0.03766636 0.07521805 -0.00298525 0 0 0 0
0.05371472 0.00247478 -0.04547000 0 0 0 0
-0.06240079 0.04653402 -0.00783768 0 0 0 0
-0.01971063 0.06890372 -0.02131419 0 0 0 0
-0.03541376 -0.02314197 -0.05038425 0 0 0 0
-0.03902555 -0.04565787 -0.02849060 0 0 0 0
0.03609550 0.00269411 0.06296761 0 0 0 0
0.03431154 0.01612840 0.05650831 0 0 0 0
0.07222909 0.02548364 0.01456808 0 0 0 0
0.08770411 0.00639187 -0.01009300 0 0 0 0
0.03897006 0.00349623 -0.05974410 0 0 0 0
-0.02697817 0.01507455 -0.06411926 0 0 0 0
0.02995606 -0.03586991 -0.04452809 0 0 0 0
0.03319152 -0.04812665 -0.03104319 0 0 0 0
0.05263624 0.02442264 -0.03359586 0 0 0 0
0.04444023 0.03765880 -0.03064634 0 0 0 0
-0.09169929 -0.00068438 0.00789668 0 0 0 0
0.05225935 0.05794806 0.00703662 0 0 0 0
-0.08178544 0.03231678 0.00002122 0 0 0 0
0.03017221 0.04492940 -0.03636080 0 0 0 0
0.06829714 0.00133727 -0.03112584 0 0 0 0
0.02772459 -0.02876673 -0.05241107 0 0 0 0
-0.05942731 0.05563197 -0.00294644 0 0 0 0
0.05578119 -0.01101605 0.03928178 0 0 0 0
0.06808973 0.02628746 -0.01772476 0 0 0 0
0.01866235 0.01424938 0.07215063 0 0 0 0
0.09082936 0.01895146 0.00016196 0 0 0 0
-0.02995882 -0.02362399 -0.05483320 0 0 0 0
0.05997367 -0.02074067 -0.02936666 0 0 0 0
0.06551807 0.03204438 0.01605074 0 0 0 0
-0.05464491 0.00140655 -0.04489173 0 0 0 0
-0.05159125 -0.06370934 0.00263555 0 0 0 0
-0.01157310 -0.02330467 -0.07001403 0 0 0 0
-0.02523578 0.05690347 -0.02902401 0 0 0 0
0.04478087 0.05838528 -0.01269671 0 0 0 0
-0.04596106 -0.04676438 -0.02175921 0 0 0 0
-0.04875345 0.06352635 0.00498550 0 0 0 0
-0.01425060 -0.05922105 -0.03402847 0 0 0 0
-0.03450124 -0.00620386 -0.06287302 0 0 0 0
-0.06523265 0.00736810 -0.03199780 0 0 0 0
-0.02338816 -0.04879414 -0.03801864 0 0 0 0
-0.04160227 0.04859968 -0.02384661 0 0 0 0
-0.03179118 -0.05806072 -0.02309996 0 0 0 0
0.05547129 0.05744346 -0.00471698 0 0 0 0
0.07022823 -0.01580759 -0.02252525 0 0 0 0
-0.01273538 -0.01157452 -0.07949679 0 0 0 0
0.01584456 0.02963597 0.06108192 0 0 0 0
-0.00510976 -0.06181072 -0.03631428 0 0 0 0
-0.03676132 0.00738651 0.06001331 0 0 0 0
0.00227418 -0.04812709 -0.05115915 0 0 0 0
0.05550613 -0.00432318 -0.04296721 0 0 0 0
0.01848987 0.07201587 -0.01918994 0 0 0 0
-0.05711427 0.02375420 0.02982264 0 0 0 0
-0.03803182 -0.04304927 -0.03157749 0 0 0 0
-0.02411657 0.05820369 -0.02861783 0 0 0 0
-0.00729650 -0.05309465 0.04400602 0 0 0 0
-0.06720282 -0.02692555 0.01812660 0 0 0 0
0.01693298 0.02931665 0.06051775 0 0 0 0
-0.09372614 0.00736655 -0.00366424 0 0 0 0
-0.08337300 -0.02153686 0.00624951 0 0 0 0
0.07184818 0.02054521 0.01803507 0 0 0 0
-0.02366151 0.04074467 -0.04519904 0 0 0 0
-0.02747076 -0.07161611 -0.01361027 0 0 0 0
-0.05497875 0.03125510 0.02639884 0 0 0 0
-0.08206213 -0.02169736 -0.00740734 0 0 0 0
-0.03445077 0.05412961 -0.02473820 0 0 0 0
-0.04817225 -0.04812309 -0.01875291 0 0 0 0
0.01593756 0.04209726 -0.04936646 0 0 0 0
-0.03945665 -0.04210779 -0.03128792 0 0 0 0
-0.09373348 -0.00702624 0.00381923 0 0 0 0
-0.00559865 -0.08444468 -0.01384976 0 0 0 0
0.04428413 -0.01466829 0.04814070 0 0 0 0
-0.03195544 -0.07017955 0.01184776 0 0 0 0
-0.04397304 -0.01730176 -0.04675514 0 0 0 0
-0.05570447 0.05356800 -0.00808775 0 0 0 0
-0.05132579 -0.02096261 0.03722895 0 0 0 0
0.08980341 -0.00791213 -0.00729236 0 0 0 0
-0.04899449 -0.03797811 -0.02645184 0 0 0 0
-0.02660711 -0.07157277 -0.01425845 0 0 0 0
0.06300528 -0.05391724 0.00119858 0 0 0 0
0.04886834 -0.02234598 -0.03857367 0 0 0 0
-0.08459469 -0.01638511 -0.00811154 0 0 0 0
0.02857554 0.04244994 -0.03982204 0 0 0 0
-0.03439472 -0.01147853 0.05966683 0 0 0 0
-0.04136740 -0.00605955 -0.05621868 0 0 0 0
-0.05021313 -0.01621032 -0.04149510 0 0 0 0
0.00211393 -0.04759836 -0.05168694 0 0 0 0
-0.00473035 0.03738279 -0.06075625 0 0 0 0
0.04486080 -0.00178608 -0.05455080 0 0 0 0
0.01215018 -0.06710027 -0.02771268 0 0 0 0
0.01044486 -0.08451478 -0.01131822 0 0 0 0
0.09297720 0.00983421 0.00334717 0 0 0 0
0.09610289 -0.00147056 -0.00314663 0 0 0 0
-0.06370942 -0.01200494 -0.03099286 0 0 0 0
-0.01955740 -0.00823990 -0.07589715 0 0 0 0
0.07214911 0.01819242 0.01915766 0 0 0 0
0.05079696 0.00051700 -0.04903273 0 0 0 0
-0.04125764 -0.01650727 -0.04979040 0 0 0 0
-0.07468192 0.02583837 -0.01180469 0 0 0 0
0.01563927 -0.06683465 0.02601008 0 0 0 0
-0.00668571 0.01025056 -0.08562768 0 0 0 0
0.07482304 0.00392674 0.02384252 0 0 0 0
-0.00775910 -0.05950993 -0.03742616 0 0 0 0
-0.02610201 -0.00556353 0.07134615 0 0 0 0
-0.04297454 0.03372966 -0.03514335 0 0 0 0
-0.04886891 0.03915039 0.02561807 0 0 0 0
0.04344411 -0.06488781 -0.00799448 0 0 0 0
0.03605318 0.05715873 0.02082290 0 0 0 0
-0.03150537 -0.06455662 -0.01734582 0 0 0 0
-0.03426057 0.01130651 0.06002284 0 0 0 0
-0.01051155 0.03890756 -0.05599569 0 0 0 0
-0.04422853 0.06625029 0.00635537 0 0 0 0
0.03814658 0.05058415 -0.02495398 0 0 0 0
0.06658488 -0.01186967 -0.02822618 0 0 0 0
0.04372913 -0.04100772 -0.02852320 0 0 0 0
-0.06094008 0.00884918 -0.03542754 0 0 0 0
-0.02835694 0.07979457 -0.00547053 0 0 0 0
-0.00814972 0.00744235 -0.08684925 0 0 0 0
-0.01515819 -0.04108733 -0.05098251 0 0 0 0
0.06674460 0.04440004 0.00564276 0 0 0 0
-0.03189234 0.01942952 -0.05636601 0 0 0 0
-0.02081796 0.05837848 -0.03063453 0 0 0 0
-0.03144718 -0.00350882 0.06718269 0 0 0 0
-0.01739071 0.04531148 -0.04548808 0 0 0 0
0.02015156 -0.05234678 0.03681891 0 0 0 0
-0.05500392 -0.02993101 0.02733278 0 0 0 0
-0.02489511 -0.03860469 -0.04608291 0 0 0 0
-0.02986435 -0.04577864 -0.03569960 0 0 0 0
-0.07650720 0.02093843 0.01322122 0 0 0 0
-0.00910395 -0.03822481 -0.05757740 0 0 0 0
0.01208001 -0.04008160 -0.05396787 0 0 0 0
0.01990494 0.05019417 0.03903182 0 0 0 0
-0.04017040 0.06661960 -0.00898042 0 0 0 0
-0.04220921 -0.04646782 -0.02515169 0 0 0 0
0.01710155 0.00658375 -0.07937478 0 0 0 0
0.02548417 0.02891877 -0.05408829 0 0 0 0
0.00918196 -0.08606297 -0.01040996 0 0 0 0
-0.00459786 0.09616324 0.00240545 0 0 0 0
0.03728300 -0.07376532 0.00460378 0 0 0 0
0.02173346 -0.05552224 -0.03274830 0 0 0 0
0.01825618 0.00485160 0.07939125 0 0 0 0
-0.05328451 0.04013613 -0.02097244 0 0 0 0
-0.01874867 -0.04057517 -0.04895620 0 0 0 0
0.02587729 -0.05136183 -0.03378012 0 0 0 0
-0.02904775 0.02521555 -0.05424621 0 0 0 0
0.04439348 0.03515105 0.03294808 0 0 0 0
-0.00194899 -0.04757853 -0.05176751 0 0 0 0
-0.04615716 -0.04408235 -0.02387607 0 0 0 0
-0.00008667 -0.09283485 -0.00651794 0 0 0 0
0.00031781 0.05873368 0.04121587 0 0 0 0
-0.03049685 -0.01539761 0.06067400 0 0 0 0
-0.00027656 0.08619119 0.01353767 0 0 0 0
0.01749749 0.07271455 -0.01918145 0 0 0 0
-0.07346455 0.03548425 -0.00636483 0 0 0 0
-0.01595291 -0.03584334 0.05525018 0 0 0 0
0.01182007 0.09229396 0.00313068 0 0 0 0
-0.02152214 0.00557326 0.07579102 0 0 0 0
0.03332108 0.01118782 -0.06088263 0 0 0 0
-0.02317129 0.02112058 0.06261671 0 0 0 0
-0.05705328 0.01534013 0.03546227 0 0 0 0
0.05763949 0.05841042 -0.00207984 0 0 0 0
-0.07605737 0.00992521 -0.02017017 0 0 0 0
-0.04435272 0.05633404 -0.01483862 0 0 0 0
-0.00546070 -0.01186803 -0.08505055 0 0 0 0
0.01102253 0.01460763 -0.07832318 0 0 0 0
0.01395786 -0.06620491 -0.02746397 0 0 0 0
-0.03757647 -0.07447188 -0.00394143 0 0 0 0
0.03022699 -0.06565262 -0.01748095 0 0 0 0
0.00448625 0.02951651 0.06868110 0 0 0 0
0.09300507 0.00196571 -0.00618754 0 0 0 0
0.07138173 -0.03874644 -0.00576554 0 0 0 0
0.00918074 -0.05409886 -0.04209807 0 0 0 0
0.00474025 -0.08856042 -0.00989717 0 0 0 0
0.03260011 -0.07839005 -0.00365833 0 0 0 0
0.00357311 -0.00943868 -0.08868150 0 0 0 0
-0.03423548 0.02882841 -0.04682746 0 0 0 0
-0.03070643 -0.04002560 -0.04021308 0 0 0 0
-0.07425244 0.00153318 0.02524247 0 0 0 0
-0.00915585 0.07692367 -0.01965607 0 0 0 0
-0.02754204 -0.01517254 -0.06347953 0 0 0 0
0.01807966 -0.00617589 -0.07876225 0 0 0 0
-0.04206391 -0.02591023 -0.04224432 0 0 0 0
0.06662220 -0.04578188 -0.00481216 0 0 0 0
0.08014403 -0.02167544 -0.00926129 0 0 0 0
-0.08209978 -0.02961726 0.00242242 0 0 0 0
-0.00696023 0.01922197 -0.07714889 0 0 0 0
-0.01892522 -0.01581154 -0.07065098 0 0 0 0
-0.03463028 0.02348408 -0.05066589 0 0 0 0
-0.05506284 -0.02420252 -0.03141967 0 0 0 0
0.03434807 -0.06592350 0.01412549 0 0 0 0
-0.02721890 0.01664337 -0.06266236 0 0 0 0
-0.07994910 0.03292617 -0.00198722 0 0 0 0
-0.05473867 0.05773381 0.00508324 0 0 0 0
-0.01457804 0.03205806 -0.05972390 0 0 0 0
-0.07538966 -0.00174035 -0.02416814 0 0 0 0
0.07809891 0.00262853 -0.02103517 0 0 0 0
-0.02993301 -0.06284298 -0.02008568 0 0 0 0
-0.02767616 0.07155253 0.01355133 0 0 0 0
-0.04733480 0.03320308 -0.03178037 0 0 0 0
0.04840346 0.00921030 -0.04751183 0 0 0 0
-0.06435739 -0.00209170 -0.03495354 0 0 0 0
-0.03335033 -0.04043092 -0.03779658 0 0 0 0
-0.01084682 0.04415657 0.05067385 0 0 0 0
0.02159617 -0.03779434 -0.04928939 0 0 0 0
0.00691310 -0.00148780 0.09240258 0 0 0 0
-0.04791723 0.03404895 -0.03061495 0 0 0 0
0.02077979 -0.03135141 -0.05575972 0 0 0 0
-0.01157364 -0.03914987 -0.05506203 0 0 0 0
-0.03390776 0.07274601 -0.00804288 0 0 0 0
-0.06683753 -0.01342258 0.02714344 0 0 0 0
0.00232684 0.06207346 0.03715288 0 0 0 0
0.07094985 -0.03637838 -0.00812933 0 0 0 0
-0.01153260 0.09135294 0.00421268 0 0 0 0
0.04905152 -0.00191082 -0.05039199 0 0 0 0
0.00055583 -0.08384129 -0.01557421 0 0 0 0
0.02035421 0.05161304 0.03750288 0 0 0 0
0.03683348 0.05067426 -0.02607365 0 0 0 0
-0.06015996 -0.05620946 -0.00181080 0 0 0 0
-0.01668506 0.06430541 -0.02772626 0 0 0 0
-0.09372939 0.00357010 -0.00521939 0 0 0 0
-0.00255978 0.01194265 0.08688312 0 0 0 0
-0.06283422 0.00646974 0.03468619 0 0 0 0
0.06394021 -0.00315898 -0.03501911 0 0 0 0
-0.05537785 -0.05468370 -0.00714228 0 0 0 0
0.03722719 0.02779766 0.04498775 0 0 0 0
-0.00440576 0.05061979 0.04782448 0 0 0 0
0.03417551 0.04314842 0.03471523 0 0 0 0
-0.07530837 0.02123919 -0.01435497 0 0 0 0
0.02838990 -0.04414467 -0.03840321 0 0 0 0
0.00043559 0.06140026 -0.03817168 0 0 0 0
-0.02959558 -0.02134037 -0.05688964 0 0 0 0
0.00975982 -0.02545946 0.06937964 0 0 0 0
-0.01917144 0.06776062 -0.02295068 0 0 0 0
-0.07279925 -0.02952499 0.01128738 0 0 0 0
-0.07566004 -0.02759121 -0.00986144 0 0 0 0
0.02151531 -0.06939919 -0.01972410 0 0 0 0
0.01889906 0.05547078 0.03478723 0 0 0 0
-0.00045593 0.03277920 -0.06702463 0 0 0 0
-0.05365144 0.05301655 -0.01000514 0 0 0 0
-0.02559556 0.06271058 -0.02326891 0 0 0 0
0.03171337 0.06723507 0.01499042 0 0 0 0
0.03555315 0.07150677 -0.00817529 0 0 0 0
-0.03683859 -0.01513719 -0.05488055 0 0 0 0
-0.03499543 0.03115906 -0.04414854 0 0 0 0
-0.03385719 -0.02283446 0.05198111 0 0 0 0
0.08195228 0.02180402 0.00747217 0 0 0 0
-0.01700525 -0.00775792 0.07861523 0 0 0 0
-0.02245884 0.07733422 0.01173770 0 0 0 0
0.04251726 -0.04598040 -0.02530839 0 0 0 0
0.04971230 -0.00101179 -0.04986196 0 0 0 0
0.01536983 0.04255378 -0.04930842 0 0 0 0
0.00202812 -0.03747876 -0.06182455 0 0 0 0
-0.01352001 0.07600273 -0.01815294 0 0 0 0
0.04940119 -0.02605845 -0.03533027 0 0 0 0
0.04323100 0.02037222 -0.04516544 0 0 0 0
0.06161874 -0.01660354 0.03045290 0 0 0 0
0.01836161 0.07750084 0.01405211 0 0 0 0
-0.04736297 -0.05292284 -0.01534822 0 0 0 0
-0.02812250 -0.03816979 0.04388580 0 0 0 0
0.04105402 0.02668985 -0.04242639 0 0 0 0
0.04483460 0.05585323 -0.01502960 0 0 0 0
-0.07781115 0.00328233 -0.02110754 0 0 0 0
-0.07628701 0.02176808 -0.01290191 0 0 0 0
-0.05510008 0.02792555 0.02873224 0 0 0 0
0.00925542 0.05751811 -0.03855507 0 0 0 0
0.05126280 -0.02108399 -0.03734387 0 0 0 0
-0.00517086 -0.03244581 -0.06546681 0 0 0 0
-0.00380308 0.06233545 -0.03634746 0 0 0 0
-0.01201340 -0.07899499 0.01617823 0 0 0 0
0.07934673 0.00785473 -0.01785029 0 0 0 0
-0.00258149 0.07595016 -0.02320102 0 0 0 0
0.00132320 -0.06365260 -0.03590364 0 0 0 0
-0.03621619 -0.00771961 -0.06032323 0 0 0 0
-0.00150967 0.08967365 -0.00970118 0 0 0 0
-0.02311173 0.00143479 0.07641560 0 0 0 0
0.02252503 -0.01506322 -0.06807885 0 0 0 0
0.01986021 0.03997638 0.04859281 0 0 0 0
-0.02063292 0.00550791 -0.07674764 0 0 0 0
0.01544130 -0.01623001 -0.07331283 0 0 0 0
-0.04200370 0.05802832 -0.01549180 0 0 0 0
-0.00075828 -0.01856392 -0.08118172 0 0 0 0
-0.02334655 -0.06494562 -0.02289730 0 0 0 0
-0.04748694 -0.03700547 -0.02854400 0 0 0 0
-0.07111902 -0.02705779 0.01445985 0 0 0 0
-0.03093138 0.02345328 0.05408756 0 0 0 0
0.02179213 -0.03650015 0.05031682 0 0 0 0
0.07192025 -0.01722970 0.02010547 0 0 0 0
-0.01820837 -0.00759105 -0.07761469 0 0 0 0
0.00717497 0.06375673 0.03364222 0 0 0 0
0.01065504 -0.07719234 -0.01854638 0 0 0 0
0.05284436 -0.01041098 -0.04249336 0 0 0 0
-0.00402946 0.06363928 -0.03497613 0 0 0 0
-0.01638090 -0.03394228 -0.05669110 0 0 0 0
-0.02828098 0.05231918 0.03111043 0 0 0 0
0.01136061 0.06176952 0.03321893 0 0 0 0
-0.02406844 0.02760676 0.05637615 0 0 0 0
0.05734127 -0.05961820 0.00135583 0 0 0 0
-0.07293321 -0.00200314 -0.02636464 0 0 0 0
0.03152694 0.03053227 -0.04765870 0 0 0 0
-0.05711325 -0.01237904 -0.03729821 0 0 0 0
-0.02480538 -0.08421193 -0.00369038 0 0 0 0
0.00562628 0.08889958 -0.00916739 0 0 0 0
0.08377327 -0.01521017 -0.00978129 0 0 0 0
0.03556117 0.05417730 -0.02383083 0 0 0 0
-0.01530568 0.09267531 -0.00106943 0 0 0 0
0.03221652 0.01212762 -0.06128358 0 0 0 0
0.05416534 0.04410658 -0.01694493 0 0 0 0
0.07576971 0.00014150 -0.02418367 0 0 0 0
0.06489664 0.02396803 -0.02232546 0 0 0 0
-0.03317370 0.02277733 0.05251822 0 0 0 0
0.02563164 0.06266683 -0.02336535 0 0 0 0
0.00989549 0.07637988 -0.01976952 0 0 0 0
-0.08467067 -0.02652739 0.00189876 0 0 0 0
-0.00996386 -0.04533244 -0.05007058 0 0 0 0
0.00292674 -0.03755977 -0.06145980 0 0 0 0
-0.00989056 0.04914556 -0.04649196 0 0 0 0
0.03056312 0.00656620 -0.06648351 0 0 0 0
-0.02837237 0.05840595 -0.02531811 0 0 0 0
0.06214362 -0.05156038 0.00400612 0 0 0 0
0.07557465 -0.03189976 -0.00710652 0 0 0 0
0.01446734 0.02329680 -0.06784467 0 0 0 0
-0.06924420 0.00599162 0.02877354 0 0 0 0
0.05449920 0.00167087 0.04495036 0 0 0 0
-0.01335435 0.02584333 -0.06636153 0 0 0 0
-0.02192606 -0.04443886 0.04296064 0 0 0 0
-0.05237355 0.02412399 0.03397134 0 0 0 0
-0.07521752 -0.03312645 0.00650459 0 0 0 0
0.00530817 -0.08295818 -0.01544325 0 0 0 0
0.02116567 -0.00401974 -0.07705233 0 0 0 0
0.02727504 -0.05682677 0.02759711 0 0 0 0
0.09328733 0.00355542 0.00559468 0 0 0 0
0.00041641 0.02812633 0.07167758 0 0 0 0
0.03880242 0.04132116 -0.03238023 0 0 0 0
0.01158936 0.09055989 -0.00495558 0 0 0 0
0.00822719 -0.02888598 0.06712350 0 0 0 0
-0.02435328 0.08463956 0.00352837 0 0 0 0
0.02044040 -0.02178555 -0.06442717 0 0 0 0
-0.05635301 0.05414511 0.00679606 0 0 0 0
-0.03794778 -0.05597600 0.02032753 0 0 0 0
0.05307499 -0.03595323 0.02442049 0 0 0 0
0.02521301 0.07631195 0.01064966 0 0 0 0
-0.04232962 0.04129959 -0.02947266 0 0 0 0
0.05909346 0.01337188 0.03477632 0 0 0 0
-0.08541337 -0.01111009 -0.01014253 0 0 0 0
-0.03472913 -0.06994383 -0.01000741 0 0 0 0
0.05114274 0.06168155 -0.00473554 0 0 0 0
0.06752961 -0.00501464 -0.03081839 0 0 0 0
0.06005239 -0.04801262 0.00867306 0 0 0 0
0.07923131 -0.01700109 0.01304798 0 0 0 0
-0.00667850 -0.03247739 0.06452071 0 0 0 0
0.01326886 0.02511104 -0.06715032 0 0 0 0
0.03723671 0.05375032 -0.02281657 0 0 0 0
0.07409764 0.03620119 0.00518740 0 0 0 0
-0.01493186 0.02952085 0.06185089 0 0 0 0
0.01548785 0.01835911 -0.07141109 0 0 0 0
0.02655671 0.03336331 -0.04941834 0 0 0 0
-0.00913987 -0.06387237 -0.03247919 0 0 0 0
0.05494737 -0.03928740 -0.02011697 0 0 0 0
0.03669294 0.01780311 -0.05314294 0 0 0 0
0.02831703 0.01514590 -0.06287494 0 0 0 0
0.01853400 0.08946261 0.00210361 0 0 0 0
-0.09144993 -0.01088584 0.00433441 0 0 0 0
0.05299925 -0.03126366 -0.02810635 0 0 0 0
-0.01175965 0.03345991 0.06044214 0 0 0 0
0.02291079 -0.07499644 -0.01342596 0 0 0 0
0.06198816 -0.04145195 0.01220296 0 0 0 0
-0.03727670 0.06106970 -0.01641004 0 0 0 0
0.03706104 -0.06984793 0.00849462 0 0 0 0
-0.05053325 -0.05268338 0.01289838 0 0 0 0
-0.01570559 -0.08974640 -0.00342455 0 0 0 0
-0.02250774 -0.05425550 0.03344205 0 0 0 0
-0.03780837 -0.06448770 0.01298784 0 0 0 0
0.02394485 -0.08715650 -0.00116288 0 0 0 0
0.03913755 0.01659907 -0.05169087 0 0 0 0
-0.01698959 0.07733425 -0.01484821 0 0 0 0
0.01024379 0.00086870 -0.08947003 0 0 0 0
-0.04312775 -0.04724365 -0.02372305 0 0 0 0
-0.05602290 -0.03403055 -0.02342359 0 0 0 0
0.04235081 0.04003134 -0.03049795 0 0 0 0
0.03553413 0.01536455 0.05592634 0 0 0 0
-0.02800822 0.03351846 0.04802155 0 0 0 0
-0.06516282 0.04927702 0.00319610 0 0 0 0
-0.00249598 -0.04112350 0.05811998 0 0 0 0
0.03039518 0.02038565 -0.05690405 0 0 0 0
0.04737115 0.03219113 -0.03251574 0 0 0 0
0.04908897 -0.02773464 -0.03440808 0 0 0 0
0.02175159 0.06525399 -0.02346984 0 0 0 0
0.02462990 0.01186289 -0.06863064 0 0 0 0
-0.04354683 -0.05175265 0.01953752 0 0 0 0
0.04712699 -0.00856121 0.04914282 0 0 0 0
-0.04386187 0.03712886 0.03171096 0 0 0 0
-0.03245863 -0.04199121 -0.03708740 0 0 0 0
-0.01255965 0.08156014 -0.01315846 0 0 0 0
0.04388430 -0.02588209 -0.04055568 0 0 0 0
-0.01508859 0.05803773 -0.03475906 0 0 0 0
0.01802274 0.05115775 0.03949239 0 0 0 0
-0.05864612 0.05634389 -0.00300709 0 0 0 0
-0.01334866 0.06146228 0.03239577 0 0 0 0
-0.00093273 0.01972494 0.07998607 0 0 0 0
0.05302573 0.01485632 -0.03963507 0 0 0 0
0.01862633 0.02699837 0.06129144 0 0 0 0
0.03490077 -0.02084217 -0.05255374 0 0 0 0
-0.03353495 -0.03321072 -0.04368676 0 0 0 0
0.04462155 0.01730295 -0.04603036 0 0 0 0
-0.04295512 0.02131197 0.04474195 0 0 0 0
-0.02171760 0.03520550 -0.05156115 0 0 0 0
-0.04897032 0.06868593 -0.00029315 0 0 0 0
-0.04166484 0.04643778 -0.02563286 0 0 0 0
0.04067954 -0.01999919 -0.04791193 0 0 0 0
0.03242914 -0.07438962 -0.00752472 0 0 0 0
-0.03092594 -0.03406483 -0.04527079 0 0 0 0
0.01663641 0.00718971 -0.07936820 0 0 0 0
0.02522911 0.05672838 -0.02918976 0 0 0 0
-0.06987046 0.00585952 0.02800869 0 0 0 0
0.07384340 0.04156923 -0.00134233 0 0 0 0
0.00557092 0.01386390 -0.08311190 0 0 0 0
0.01208855 0.03497244 -0.05874622 0 0 0 0
-0.01058733 0.06646883 0.02906370 0 0 0 0
0.02983832 -0.07357399 -0.01030014 0 0 0 0
0.00580560 0.06992037 -0.02794736 0 0 0 0
0.02443495 -0.00056581 -0.07534555 0 0 0 0
0.03980236 0.04275329 -0.03045831 0 0 0 0
-0.02693057 -0.04565406 -0.03826712 0 0 0 0
-0.05246888 -0.01862663 0.03785734 0 0 0 0
0.02429884 -0.03466064 0.05014744 0 0 0 0
-0.04211806 0.03684077 0.03343754 0 0 0 0
0.00151660 -0.00107658 0.09780483 0 0 0 0
-0.04035812 -0.01880154 -0.04903374 0 0 0 0
0.02291802 0.01740501 0.06589272 0 0 0 0
0.04099320 0.01249010 -0.05269039 0 0 0 0
0.01520075 -0.02142262 -0.06896085 0 0 0 0
-0.05153764 0.03871817 -0.02359305 0 0 0 0
0.07703069 -0.01675978 -0.01523684 0 0 0 0
-0.02183572 0.07632063 -0.01284221 0 0 0 0
-0.00230169 -0.00191035 -0.09644097 0 0 0 0
-0.05061471 0.02526905 0.03482473 0 0 0 0
-0.04828783 -0.05373410 -0.01393526 0 0 0 0
0.02875740 0.06118422 -0.02248093 0 0 0 0
-0.06185621 -0.05481094 -0.00168494 0 0 0 0
0.06593609 -0.00964988 -0.03009787 0 0 0 0
-0.04276123 -0.04756619 -0.02375552 0 0 0 0
0.07801604 -0.02692737 -0.00815569 0 0 0 0
0.05545997 -0.00952144 -0.04041425 0 0 0 0
0.03965481 0.05366183 0.02097433 0 0 0 0
0.00320855 -0.09397605 -0.00496838 0 0 0 0
-0.04965932 -0.00757255 -0.04715863 0 0 0 0
0.07982170 -0.00953340 -0.01657867 0 0 0 0
0.05836795 -0.02561687 -0.02736593 0 0 0 0
0.00782212 0.09495024 -0.00218155 0 0 0 0
-0.04800886 0.05276934 -0.01500535 0 0 0 0
0.03717785 -0.01274894 -0.05629246 0 0 0 0
-0.03488379 0.01186085 -0.05906276 0 0 0 0
-0.05821447 -0.02640554 0.02705670 0 0 0 0
-0.02204220 0.08257405 0.00667567 0 0 0 0
-0.01561792 0.04915874 0.04290420 0 0 0 0
0.00259896 -0.09619171 -0.00289809 0 0 0 0
-0.09070553 -0.00800645 0.00635064 0 0 0 0
0.08499587 0.00080750 -0.01465552 0 0 0 0
0.02156217 -0.01926160 -0.06560572 0 0 0 0
-0.00219884 0.08156651 -0.01773317 0 0 0 0
-0.02709278 0.00783775 0.06903886 0 0 0 0
0.02599561 0.03166350 0.05138062 0 0 0 0
0.03295762 0.02168763 0.05358722 0 0 0 0
-0.00301994 -0.05510767 -0.04396472 0 0 0 0
-0.02966121 0.01528003 -0.06154365 0 0 0 0
-0.04296674 -0.03135087 -0.03710893 0 0 0 0
0.04403108 0.03572356 0.03262582 0 0 0 0
0.05060105 0.02745260 -0.03335222 0 0 0 0
0.06196308 0.01119861 -0.03316657 0 0 0 0
0.03787423 0.07654275 0.00160051 0 0 0 0
