ply
format ascii 1.0
comment https://github.com/mikedh/trimesh
element vertex 1120
property float x
property float y
property float z
property uchar red
property uchar green
property uchar blue
property uchar alpha
end_header
-0.05937047 -0.00835601 0.04045250 0 0 0 0
-0.04537224 -0.07229814 0.02487399 0 0 0 0
0.08132552 0.02118061 -0.01822574 0 0 0 0
-0.01042557 0.08208193 0.01785128 0 0 0 0
0.08792247 -0.07732505 0.00062312 0 0 0 0
-0.03590807 0.05845647 -0.03953011 0 0 0 0
-0.06681778 0.04734402 0.02907845 0 0 0 0
-0.05703587 0.07453796 -0.01954751 0 0 0 0
-0.03834142 -0.07420372 -0.02434004 0 0 0 0
-0.00720510 -0.07636096 -0.02339614 0 0 0 0
-0.06309099 -0.04001319 -0.03448860 0 0 0 0
0.04666968 0.01661707 -0.05299083 0 0 0 0
0.07706206 -0.00471907 -0.02278368 0 0 0 0
0.02714524 -0.07296060 -0.02643045 0 0 0 0
-0.08784534 0.06230466 -0.00695036 0 0 0 0
-0.02565477 0.02029441 -0.07206430 0 0 0 0
0.01622897 -0.06770407 -0.03210647 0 0 0 0
0.09295432 -0.05692085 -0.00378522 0 0 0 0
0.01807727 -0.05072349 -0.04897305 0 0 0 0
-0.00063782 0.04334044 -0.05657226 0 0 0 0
0.05115689 0.05638099 -0.03576554 0 0 0 0
0.02634652 -0.02815180 0.06745922 0 0 0 0
0.07807572 -0.06413548 -0.01415054 0 0 0 0
0.08562072 0.06511380 -0.00790193 0 0 0 0
-0.00010883 0.03384873 0.06607659 0 0 0 0
0.04587041 -0.05553646 -0.03872394 0 0 0 0
-0.08154472 0.02207617 -0.01828535 0 0 0 0
0.00700798 0.04267589 0.05730637 0 0 0 0
0.02108404 -0.07131142 -0.02830825 0 0 0 0
-0.03555077 0.00099066 -0.06442825 0 0 0 0
0.03384893 -0.00952679 -0.06594922 0 0 0 0
-0.08432293 0.03316271 0.01503178 0 0 0 0
0.02892769 -0.06962002 0.02962564 0 0 0 0
0.04521459 -0.03842605 0.04961232 0 0 0 0
0.00037365 -0.04091671 0.05898843 0 0 0 0
0.01972664 0.03453695 -0.06451744 0 0 0 0
0.04907791 0.07458690 0.02209679 0 0 0 0
-0.08071855 0.08547097 -0.00100092 0 0 0 0
-0.02178053 -0.04023276 -0.05880035 0 0 0 0
-0.03977203 0.00861348 -0.06009240 0 0 0 0
-0.04623410 -0.04455339 0.04591678 0 0 0 0
0.06846501 0.09153621 0.00167357 0 0 0 0
0.03566171 0.02795151 -0.06123191 0 0 0 0
-0.05213823 0.08007072 -0.01632776 0 0 0 0
-0.00733976 -0.02297289 -0.07689872 0 0 0 0
0.06625914 0.00668874 -0.03355379 0 0 0 0
0.02974433 -0.05243568 -0.04613299 0 0 0 0
0.08807082 -0.06013057 -0.00741456 0 0 0 0
-0.02543574 0.03548108 -0.06236205 0 0 0 0
-0.03220775 -0.00260812 -0.06773099 0 0 0 0
-0.07796223 -0.07441445 -0.00900640 0 0 0 0
0.04155776 -0.07268704 0.02528777 0 0 0 0
-0.07206891 -0.03813241 0.02630550 0 0 0 0
-0.05654979 0.01457320 -0.04337715 0 0 0 0
0.01189269 0.02023501 -0.07911525 0 0 0 0
0.09257074 -0.06025495 0.00327982 0 0 0 0
0.07328345 -0.04305529 -0.02441981 0 0 0 0
0.08265527 -0.02839187 -0.01674319 0 0 0 0
-0.03516840 -0.05750269 -0.04056069 0 0 0 0
-0.01613840 -0.06913599 0.03068872 0 0 0 0
0.01441817 0.08863865 0.01101467 0 0 0 0
0.05594737 0.01592830 -0.04388847 0 0 0 0
-0.05608504 0.02610019 -0.04313406 0 0 0 0
0.01764829 -0.08360448 -0.01602523 0 0 0 0
0.07523575 -0.08318792 0.00536678 0 0 0 0
-0.09275214 -0.00067443 -0.00703683 0 0 0 0
0.06585221 0.06123517 0.02406571 0 0 0 0
0.01618494 -0.03445375 -0.06502122 0 0 0 0
0.08026166 0.07046008 -0.00972329 0 0 0 0
0.02788854 0.02237562 -0.06957572 0 0 0 0
-0.04694097 -0.03054889 -0.05091528 0 0 0 0
-0.09191187 0.02959859 0.00746102 0 0 0 0
0.04981517 0.00492688 -0.05008045 0 0 0 0
-0.05786406 -0.09407392 0.00245285 0 0 0 0
0.09371492 -0.01918547 -0.00587860 0 0 0 0
0.05809069 -0.02281451 0.04142594 0 0 0 0
0.08746184 -0.06431065 -0.00650509 0 0 0 0
-0.00793677 0.04998205 -0.04990207 0 0 0 0
-0.08179331 0.08503290 -0.00068490 0 0 0 0
0.02014410 -0.07760665 -0.02211156 0 0 0 0
-0.04694844 0.00061115 -0.05293991 0 0 0 0
-0.00610020 0.05923600 -0.04057012 0 0 0 0
0.04783271 0.02886046 -0.05055420 0 0 0 0
0.01033262 -0.00709249 -0.08910476 0 0 0 0
0.08913685 0.05545319 -0.00760575 0 0 0 0
0.01472904 -0.00705809 -0.08505349 0 0 0 0
0.05812191 -0.03604218 -0.03963457 0 0 0 0
-0.00856781 0.03497808 -0.06485434 0 0 0 0
0.07749722 -0.04638942 -0.02000393 0 0 0 0
0.05934943 -0.03929818 -0.03787215 0 0 0 0
-0.06392443 -0.05057789 0.03033009 0 0 0 0
0.05256547 0.03522387 0.04484227 0 0 0 0
0.07366893 -0.06489781 -0.01683255 0 0 0 0
-0.08903065 -0.01931105 -0.01056020 0 0 0 0
-0.07207337 0.02437088 0.02748089 0 0 0 0
-0.08094942 0.04939410 -0.01608836 0 0 0 0
-0.02342815 0.05489649 -0.04451942 0 0 0 0
-0.08434051 0.05567616 -0.01160512 0 0 0 0
-0.01198555 -0.09117742 0.00849639 0 0 0 0
0.02137074 -0.06139413 0.03824401 0 0 0 0
0.08840526 -0.02882812 -0.01098396 0 0 0 0
-0.07893951 0.00351621 -0.02089578 0 0 0 0
-0.09216136 -0.04885443 0.00583505 0 0 0 0
0.04468675 0.06466081 -0.03179083 0 0 0 0
-0.03312413 -0.01505477 -0.06641360 0 0 0 0
0.04895380 -0.05807638 -0.03549295 0 0 0 0
0.03916321 0.00543431 -0.06077377 0 0 0 0
-0.05896365 -0.04717212 -0.03554264 0 0 0 0
-0.02867066 -0.01326203 -0.07096960 0 0 0 0
0.02752599 -0.02889668 -0.06631687 0 0 0 0
-0.09499545 0.03290346 -0.00436950 0 0 0 0
-0.00249039 -0.03169929 -0.06822722 0 0 0 0
-0.03286353 0.06915580 0.02975904 0 0 0 0
0.07870032 0.08450820 -0.00254289 0 0 0 0
0.00469255 -0.06856008 0.03124084 0 0 0 0
0.08452713 0.01919058 -0.01537462 0 0 0 0
0.07425681 -0.02900846 -0.02504678 0 0 0 0
0.04298991 0.00898797 0.05695621 0 0 0 0
0.08347060 -0.05470713 -0.01279888 0 0 0 0
-0.08676429 0.05239676 0.01031972 0 0 0 0
0.07062915 -0.00057278 -0.02935872 0 0 0 0
0.03450640 0.00111475 0.06541947 0 0 0 0
0.09063292 0.01944323 0.00905907 0 0 0 0
-0.01140441 0.01667388 -0.08245634 0 0 0 0
0.07961007 -0.03100166 -0.01964927 0 0 0 0
-0.05329878 -0.03659355 -0.04379641 0 0 0 0
-0.04464842 0.00968104 -0.05529738 0 0 0 0
0.09004359 -0.06408342 0.00453978 0 0 0 0
0.03203790 -0.00749002 -0.06792595 0 0 0 0
0.08627564 -0.05500313 -0.01035385 0 0 0 0
-0.07436643 -0.06145160 0.01804988 0 0 0 0
0.03937570 -0.07588337 -0.02259817 0 0 0 0
0.04755482 -0.04541603 -0.04456247 0 0 0 0
-0.07702285 0.06374279 -0.01507512 0 0 0 0
-0.00698789 -0.08371764 -0.01617526 0 0 0 0
0.09312110 -0.05078425 -0.00470813 0 0 0 0
-0.03563469 0.00870571 -0.06423883 0 0 0 0
0.08574599 0.00092497 0.01405107 0 0 0 0
0.00931217 0.07586826 -0.02395585 0 0 0 0
-0.04170808 -0.07672944 -0.02164152 0 0 0 0
-0.01172846 -0.08684085 -0.01284512 0 0 0 0
-0.07519741 0.03548797 0.02361817 0 0 0 0
-0.08185421 0.04485276 0.01606743 0 0 0 0
0.07829739 0.08526797 0.00231326 0 0 0 0
-0.04936644 -0.08835635 0.00925708 0 0 0 0
-0.04459340 0.05940682 -0.03613138 0 0 0 0
-0.05168352 -0.03676936 0.04509540 0 0 0 0
-0.02296414 -0.01413443 -0.07619555 0 0 0 0
-0.05005876 0.00153726 0.04983328 0 0 0 0
0.01565430 -0.08430915 -0.01534036 0 0 0 0
-0.08387534 -0.07610087 -0.00429359 0 0 0 0
0.00756762 0.00773647 0.09087835 0 0 0 0
-0.06567208 0.03695216 0.03255537 0 0 0 0
-0.06042680 0.05160907 -0.03272224 0 0 0 0
-0.00608096 0.00655518 -0.09245817 0 0 0 0
-0.01623707 -0.02894380 -0.07026287 0 0 0 0
0.08901956 0.01544036 0.01065330 0 0 0 0
0.06767599 0.06195795 0.02265414 0 0 0 0
0.00488507 -0.04056727 -0.05933868 0 0 0 0
-0.05218276 -0.04209822 -0.04299994 0 0 0 0
0.05040752 0.08212952 -0.01481990 0 0 0 0
0.04168615 -0.01472470 -0.05800188 0 0 0 0
0.06891808 0.04970039 -0.02669245 0 0 0 0
0.00039598 0.07763220 -0.02218782 0 0 0 0
-0.07040103 0.08148966 -0.00879369 0 0 0 0
-0.05333249 0.02971315 -0.04528781 0 0 0 0
0.00347314 -0.04961847 0.05026649 0 0 0 0
-0.00855991 0.08999036 -0.00990572 0 0 0 0
-0.00689493 0.03817368 0.06181403 0 0 0 0
-0.07598154 0.01378810 -0.02377296 0 0 0 0
-0.01467262 -0.04527899 -0.05443421 0 0 0 0
0.02996521 0.02674166 0.06605472 0 0 0 0
0.05472356 -0.02454937 -0.04457030 0 0 0 0
0.07628713 0.01209352 -0.02345665 0 0 0 0
-0.01991045 -0.01245688 -0.07935137 0 0 0 0
0.06312858 -0.06690159 -0.02236706 0 0 0 0
0.00360561 -0.08350606 -0.01635113 0 0 0 0
-0.08769046 -0.06158143 -0.00714415 0 0 0 0
0.04455969 -0.06865585 -0.02839976 0 0 0 0
0.00580590 0.01135775 0.08843038 0 0 0 0
0.01686249 -0.01863874 0.07875429 0 0 0 0
-0.03634189 -0.01409583 0.06340026 0 0 0 0
0.09530145 -0.05214099 -0.00245968 0 0 0 0
0.02037401 -0.07256931 0.02726244 0 0 0 0
-0.06562607 0.01020398 -0.03427388 0 0 0 0
0.08082572 -0.04817965 -0.01644681 0 0 0 0
0.06197451 0.02316309 -0.03750797 0 0 0 0
-0.06003217 -0.08132026 0.01299934 0 0 0 0
-0.07324691 0.01727348 0.02667121 0 0 0 0
0.01484337 0.06151593 0.03830783 0 0 0 0
0.07297058 0.00213682 -0.02684989 0 0 0 0
0.01392114 -0.03776030 0.06200883 0 0 0 0
-0.01499338 0.06190717 -0.03794930 0 0 0 0
-0.04502556 0.06740408 -0.02923983 0 0 0 0
0.07524408 0.08299025 -0.00532658 0 0 0 0
0.01780870 -0.03449111 -0.06485289 0 0 0 0
-0.02959280 -0.02254239 -0.06809430 0 0 0 0
0.00469511 0.00564068 -0.09375878 0 0 0 0
0.02601553 -0.00781901 -0.07381881 0 0 0 0
-0.03089615 -0.02425212 -0.06643867 0 0 0 0
-0.08376355 0.03267611 -0.01554414 0 0 0 0
0.06338702 -0.09511141 -0.00050050 0 0 0 0
-0.07377695 0.08135802 0.00711422 0 0 0 0
0.05662478 -0.05825699 -0.03143569 0 0 0 0
0.00537213 -0.08151074 -0.01836968 0 0 0 0
0.03224471 0.09687758 -0.00247310 0 0 0 0
-0.09894377 0.02946303 0.00005176 0 0 0 0
-0.01257565 0.09209003 -0.00757549 0 0 0 0
-0.03763141 0.00461274 -0.06225822 0 0 0 0
-0.01931566 -0.05309435 0.04655324 0 0 0 0
-0.01793313 0.00000286 -0.08202539 0 0 0 0
-0.02707453 -0.07231785 -0.02707150 0 0 0 0
0.01854177 0.07759146 0.02204175 0 0 0 0
-0.01087007 0.04026806 -0.05963858 0 0 0 0
-0.03337553 0.04504635 -0.05177236 0 0 0 0
-0.06509252 -0.03333867 0.03381504 0 0 0 0
0.02193253 0.04061931 -0.05841174 0 0 0 0
-0.02323925 0.06294117 0.03654098 0 0 0 0
0.08878551 -0.06992104 -0.00345660 0 0 0 0
0.00305535 0.04040783 -0.05953708 0 0 0 0
-0.00059578 -0.04130929 0.05859493 0 0 0 0
-0.01522086 -0.03112184 -0.06833541 0 0 0 0
0.08392994 -0.05130644 -0.01313943 0 0 0 0
-0.02843159 0.07178734 0.02754821 0 0 0 0
-0.08203340 0.00010340 0.01777746 0 0 0 0
0.09448822 -0.05386544 0.00279833 0 0 0 0
0.08313070 -0.05453406 0.01296142 0 0 0 0
0.02947736 0.09457363 -0.00490577 0 0 0 0
-0.05253474 0.00432920 0.04736572 0 0 0 0
-0.05001673 0.07662685 -0.01989196 0 0 0 0
0.04631231 0.09170391 -0.00651244 0 0 0 0
-0.02182677 -0.04852889 -0.05086529 0 0 0 0
0.00378493 -0.00225344 -0.09609617 0 0 0 0
0.04948815 0.01963561 -0.05011535 0 0 0 0
-0.03968994 -0.01744767 0.05981966 0 0 0 0
0.05895783 0.08865721 -0.00700788 0 0 0 0
0.00348977 -0.02321145 0.07673474 0 0 0 0
-0.09381885 0.02441747 -0.00584059 0 0 0 0
0.00669313 0.02934678 -0.07058518 0 0 0 0
0.03590249 0.01803432 -0.06341969 0 0 0 0
0.08457373 -0.02091672 -0.01512481 0 0 0 0
-0.01967890 0.00211249 -0.08027634 0 0 0 0
-0.01937233 0.09850910 -0.00106980 0 0 0 0
0.09822207 -0.03399520 -0.00112289 0 0 0 0
0.02352566 0.00901628 -0.07631861 0 0 0 0
0.00545725 -0.01224066 -0.08761932 0 0 0 0
0.04363457 0.05950829 -0.03653707 0 0 0 0
0.06974113 0.04358497 0.02749862 0 0 0 0
0.02647229 0.05173131 -0.04730412 0 0 0 0
0.06414367 0.02059982 -0.03552593 0 0 0 0
-0.04196381 0.06404826 -0.03299701 0 0 0 0
0.09079025 -0.05935611 -0.00499392 0 0 0 0
-0.06879482 0.00701252 -0.03101061 0 0 0 0
0.04447784 -0.06234220 -0.03391716 0 0 0 0
-0.04102023 -0.00609501 -0.05891580 0 0 0 0
-0.05800190 -0.09327810 -0.00330802 0 0 0 0
0.07346743 -0.04939162 0.02292187 0 0 0 0
0.07636302 -0.03351422 -0.02292691 0 0 0 0
-0.06715335 -0.03427110 -0.03152334 0 0 0 0
0.08640098 0.05162091 0.01076199 0 0 0 0
0.06524727 0.02650412 -0.03416657 0 0 0 0
-0.02810877 -0.04887643 -0.04974137 0 0 0 0
0.01807246 0.00340319 -0.08190299 0 0 0 0
0.09020917 0.01067755 -0.00956460 0 0 0 0
0.01316478 -0.05113756 -0.04868133 0 0 0 0
0.00731336 0.02618619 -0.07367873 0 0 0 0
0.04218523 0.08005454 -0.01816697 0 0 0 0
-0.03093973 0.07838181 -0.02088948 0 0 0 0
0.04170234 -0.07151643 -0.02638837 0 0 0 0
-0.07650740 0.02119082 -0.02320839 0 0 0 0
-0.08600522 0.06750337 -0.00646847 0 0 0 0
-0.05943454 0.04838676 -0.03486296 0 0 0 0
0.09398865 -0.03403473 -0.00529026 0 0 0 0
0.01938251 -0.00869569 0.08035869 0 0 0 0
0.05027512 -0.00509587 0.04958283 0 0 0 0
-0.04499380 -0.06399581 -0.03231654 0 0 0 0
0.01054201 -0.07942612 0.02028865 0 0 0 0
-0.02179790 -0.08992370 0.00986781 0 0 0 0
-0.09140638 -0.01621723 -0.00825003 0 0 0 0
0.06900194 0.06530493 0.01987051 0 0 0 0
0.08748581 -0.06687607 0.00552716 0 0 0 0
0.03551472 0.09889522 -0.00051023 0 0 0 0
0.00204420 0.08988500 -0.00990660 0 0 0 0
0.06873809 0.00828478 0.03106103 0 0 0 0
0.06078544 0.06017648 0.02786130 0 0 0 0
0.08362061 -0.06936342 0.00755053 0 0 0 0
0.05781111 0.03462644 0.04027758 0 0 0 0
-0.00444519 -0.01009270 -0.08977751 0 0 0 0
0.03367466 0.06800041 -0.03082284 0 0 0 0
0.01091088 -0.05320983 0.04671856 0 0 0 0
0.03657988 0.03069919 -0.05947572 0 0 0 0
0.04892799 -0.08958118 0.00819654 0 0 0 0
0.00768200 -0.09906235 -0.00002657 0 0 0 0
-0.07568839 0.08086071 -0.00644528 0 0 0 0
-0.03710789 0.01446788 -0.06258558 0 0 0 0
-0.01702061 -0.02722409 -0.07175320 0 0 0 0
-0.06369622 0.06434337 -0.02369606 0 0 0 0
-0.07359315 0.06703191 -0.01588225 0 0 0 0
0.05275739 0.06403659 0.02936544 0 0 0 0
0.05266141 0.02957447 -0.04589345 0 0 0 0
-0.05285341 -0.07662052 -0.01922871 0 0 0 0
0.07534571 -0.05475814 0.01974133 0 0 0 0
0.00768369 0.03221450 -0.06771080 0 0 0 0
0.04587822 -0.07883998 -0.01870902 0 0 0 0
0.03811894 0.03617496 0.05570271 0 0 0 0
0.07318711 -0.05143485 -0.02265396 0 0 0 0
-0.04615021 0.03199368 0.05123761 0 0 0 0
-0.02990807 0.06853922 -0.03070396 0 0 0 0
-0.00446534 -0.09718846 0.00258621 0 0 0 0
-0.05035876 0.09152348 0.00641021 0 0 0 0
-0.07691678 0.06321125 -0.01521863 0 0 0 0
0.04980362 0.04862676 -0.04129135 0 0 0 0
-0.00403386 -0.02878625 -0.07119437 0 0 0 0
-0.00808585 0.07797192 0.02184731 0 0 0 0
0.07025523 0.07504690 -0.01316719 0 0 0 0
-0.09815101 -0.04826444 -0.00018681 0 0 0 0
0.08991649 -0.07598989 -0.00008033 0 0 0 0
0.05172832 0.02075925 -0.04775300 0 0 0 0
0.09635685 -0.00617510 0.00338910 0 0 0 0
0.00570274 -0.05037989 0.04944970 0 0 0 0
0.07541835 -0.03135333 -0.02391736 0 0 0 0
-0.04559290 0.02726729 0.05294326 0 0 0 0
-0.06913095 -0.04746966 -0.02727067 0 0 0 0
-0.01935603 0.09519868 -0.00468010 0 0 0 0
-0.03976488 -0.06285586 0.03462963 0 0 0 0
-0.02259388 0.02318500 0.07267888 0 0 0 0
0.06453904 0.06472569 -0.02287534 0 0 0 0
0.01687342 -0.01828563 0.07900357 0 0 0 0
-0.04476573 0.09436150 -0.00444608 0 0 0 0
-0.06673727 -0.04762767 -0.02905670 0 0 0 0
-0.03573176 0.08854974 0.01057698 0 0 0 0
-0.01469239 0.00367435 -0.08529224 0 0 0 0
-0.01010167 0.05058893 -0.04935437 0 0 0 0
-0.09088962 0.02355047 -0.00898519 0 0 0 0
0.03550605 -0.08293923 -0.01625201 0 0 0 0
-0.03035864 0.03013778 -0.06400620 0 0 0 0
0.03320537 0.00932545 -0.06659706 0 0 0 0
-0.00598334 0.03554814 0.06431067 0 0 0 0
0.05500359 -0.07812622 -0.01717944 0 0 0 0
-0.01043576 0.00484548 0.08940805 0 0 0 0
-0.04482678 -0.01254856 -0.05505469 0 0 0 0
-0.07789495 0.06487576 -0.01391052 0 0 0 0
-0.04859855 -0.08411752 -0.01332906 0 0 0 0
0.09374598 0.05307149 -0.00361766 0 0 0 0
-0.08426972 -0.05108168 0.01285283 0 0 0 0
-0.07644951 -0.06287779 -0.01590008 0 0 0 0
-0.06710713 -0.06777488 -0.01961779 0 0 0 0
-0.05291842 0.07236163 -0.02268511 0 0 0 0
-0.00424537 -0.08909641 -0.01066469 0 0 0 0
-0.02694608 0.03103588 0.06519365 0 0 0 0
0.03885350 0.01127119 -0.06090769 0 0 0 0
-0.06989372 0.05551596 -0.02374389 0 0 0 0
0.01014436 -0.03763967 -0.06217011 0 0 0 0
-0.07128431 -0.06638863 -0.01793195 0 0 0 0
0.05206097 -0.07588571 -0.02010158 0 0 0 0
-0.02982002 0.06455099 -0.03450618 0 0 0 0
-0.05186091 -0.07352085 0.02203305 0 0 0 0
-0.02584523 0.06100509 -0.03835379 0 0 0 0
-0.04591761 -0.07889352 -0.01865237 0 0 0 0
0.08141898 0.05735730 0.01368511 0 0 0 0
0.03070619 -0.07965881 0.01963153 0 0 0 0
-0.02993193 -0.01819401 -0.06903172 0 0 0 0
0.02612721 0.00050694 0.07381494 0 0 0 0
0.02144521 0.01423786 0.07750303 0 0 0 0
-0.06040285 0.01598553 -0.03925846 0 0 0 0
0.06231340 0.01618904 0.03746055 0 0 0 0
-0.08022695 -0.01346569 -0.01965575 0 0 0 0
0.08668508 -0.01840719 0.01302128 0 0 0 0
-0.07805137 0.03118900 -0.02128782 0 0 0 0
-0.07863336 0.00186811 0.02119430 0 0 0 0
0.08581629 -0.07463682 -0.00362581 0 0 0 0
0.03002563 0.06798650 0.03113264 0 0 0 0
-0.02949375 0.04655227 -0.05158777 0 0 0 0
0.07439657 0.03510285 -0.02456622 0 0 0 0
-0.03911380 0.07718726 0.02143317 0 0 0 0
-0.03232589 0.09841543 0.00093100 0 0 0 0
-0.07571058 -0.01643419 -0.02419760 0 0 0 0
0.00976052 0.07619084 -0.02374806 0 0 0 0
0.06601569 0.03980223 0.03178223 0 0 0 0
0.06419631 -0.04462143 -0.03213317 0 0 0 0
-0.01419941 0.06424247 -0.03546618 0 0 0 0
-0.04210812 0.03975476 0.05109529 0 0 0 0
0.09281433 0.02288891 0.00685517 0 0 0 0
-0.05826909 -0.00903883 -0.04164197 0 0 0 0
0.06382252 -0.00810702 -0.03600572 0 0 0 0
0.03064911 0.09647061 0.00294401 0 0 0 0
-0.01800178 0.03833324 0.06109231 0 0 0 0
-0.05990895 -0.03713403 -0.03778185 0 0 0 0
0.09596448 0.01863523 0.00371928 0 0 0 0
0.06182196 -0.08708627 -0.00759414 0 0 0 0
-0.06305390 -0.01142391 -0.03670406 0 0 0 0
0.00506467 -0.01520217 0.08471066 0 0 0 0
-0.04382676 0.03881881 -0.05047704 0 0 0 0
-0.01220515 -0.09558033 0.00408157 0 0 0 0
-0.01392133 0.02212846 0.07697169 0 0 0 0
-0.09111892 0.03333886 -0.00816379 0 0 0 0
0.05576992 0.02345851 -0.04364625 0 0 0 0
-0.08758967 -0.00345437 -0.01222531 0 0 0 0
0.00622148 -0.03282647 -0.06703571 0 0 0 0
0.07002839 -0.02626157 0.02956745 0 0 0 0
0.09726330 0.03838450 0.00180088 0 0 0 0
0.00411699 -0.01198085 -0.08793343 0 0 0 0
-0.03147141 0.03635684 0.05928420 0 0 0 0
-0.09812191 0.00222067 -0.00183104 0 0 0 0
-0.07051243 -0.04110046 -0.02729640 0 0 0 0
0.06397743 0.05501573 -0.02862920 0 0 0 0
0.04204733 0.07457405 -0.02334462 0 0 0 0
0.06862489 -0.01475859 0.03129119 0 0 0 0
0.03171619 -0.05978045 0.03901358 0 0 0 0
-0.06271458 -0.06788452 0.02201801 0 0 0 0
0.03458069 -0.04460993 0.05180294 0 0 0 0
0.04035163 0.03691850 -0.05389304 0 0 0 0
-0.02133922 -0.00062991 0.07861463 0 0 0 0
0.03044499 0.07353990 0.02571703 0 0 0 0
-0.02968739 -0.08854367 -0.01085380 0 0 0 0
0.00684962 -0.00941275 0.08995805 0 0 0 0
0.00067377 0.01911399 0.08085170 0 0 0 0
0.00684367 0.04507559 0.05475333 0 0 0 0
0.04373622 0.08607264 -0.01236792 0 0 0 0
-0.06824247 0.03363345 0.03069329 0 0 0 0
0.00798952 0.00096248 -0.09199009 0 0 0 0
0.04276357 0.02536961 -0.05585931 0 0 0 0
0.01180083 0.00884063 -0.08732405 0 0 0 0
0.05051873 -0.05451269 -0.03727864 0 0 0 0
-0.00207874 0.01606278 -0.08388010 0 0 0 0
0.04514460 0.01513307 -0.05458424 0 0 0 0
-0.01836096 0.03050814 0.06852605 0 0 0 0
-0.04086873 -0.06748415 -0.03034743 0 0 0 0
0.07428546 -0.00945102 -0.02549493 0 0 0 0
0.05349845 -0.07441971 -0.02102236 0 0 0 0
0.08047041 -0.01322307 -0.01927658 0 0 0 0
0.01490342 -0.08941004 -0.01023641 0 0 0 0
-0.04609854 -0.00277018 0.05380891 0 0 0 0
0.06843655 -0.06510945 -0.02024197 0 0 0 0
-0.05035132 0.05350859 0.03798962 0 0 0 0
-0.06058669 -0.01960935 0.03899784 0 0 0 0
-0.06346614 0.03567436 -0.03494497 0 0 0 0
0.04043571 0.09565634 0.00325123 0 0 0 0
-0.03916137 0.08273847 0.01598301 0 0 0 0
0.04153687 -0.07093992 -0.02688439 0 0 0 0
0.04773455 0.07455691 -0.02236078 0 0 0 0
0.07426234 0.02555871 0.02525115 0 0 0 0
0.09453399 0.05067050 0.00335335 0 0 0 0
0.05729555 -0.04341429 -0.03843867 0 0 0 0
0.04857310 -0.06973893 -0.02622083 0 0 0 0
-0.05048984 -0.03698872 -0.04607840 0 0 0 0
-0.02225349 -0.08851601 0.01127876 0 0 0 0
0.05462081 -0.07097528 -0.02326731 0 0 0 0
-0.04870167 -0.08786029 0.00983468 0 0 0 0
-0.05912764 0.08548805 -0.00967777 0 0 0 0
-0.06279895 0.00959166 -0.03710442 0 0 0 0
-0.05068985 0.08295966 -0.01403685 0 0 0 0
0.07142756 0.03931480 -0.02682157 0 0 0 0
-0.06840657 -0.02639363 -0.03103422 0 0 0 0
-0.06209392 -0.09231959 -0.00322586 0 0 0 0
0.03746136 0.07251663 0.02606170 0 0 0 0
-0.00561965 -0.02292969 -0.07696041 0 0 0 0
0.03111121 0.03763612 0.05844400 0 0 0 0
-0.09676405 0.02172795 0.00277560 0 0 0 0
-0.08468158 0.01551151 -0.01498978 0 0 0 0
-0.06266604 -0.04596289 -0.03305445 0 0 0 0
-0.02897860 -0.00672608 -0.07087889 0 0 0 0
-0.05993025 -0.03871661 0.03740625 0 0 0 0
0.01839454 0.00758739 0.08144470 0 0 0 0
0.00953715 -0.07254012 -0.02720035 0 0 0 0
0.06383018 -0.04469109 -0.03241823 0 0 0 0
-0.05101977 0.00001031 -0.04886223 0 0 0 0
0.05889643 -0.00793085 0.04093554 0 0 0 0
-0.06146603 0.08475531 0.00963915 0 0 0 0
-0.06197224 0.00588895 -0.03790299 0 0 0 0
-0.04137380 0.03218684 -0.05518287 0 0 0 0
0.06542700 -0.06778549 -0.02068600 0 0 0 0
0.00958900 0.01382631 0.08540695 0 0 0 0
-0.01011497 -0.09256551 0.00734162 0 0 0 0
0.01806699 0.00274057 0.08190511 0 0 0 0
0.09475203 -0.02947706 -0.00462344 0 0 0 0
0.01941787 -0.00595572 -0.08045594 0 0 0 0
-0.02834558 -0.04173312 -0.05609043 0 0 0 0
0.09051910 0.03837752 -0.00866779 0 0 0 0
0.01683178 0.08631033 0.01332223 0 0 0 0
-0.05769114 -0.04204741 -0.03851625 0 0 0 0
0.06554047 -0.04057775 0.03209389 0 0 0 0
-0.07045110 -0.03842660 0.02778682 0 0 0 0
0.00901222 0.04043064 -0.05938519 0 0 0 0
-0.05905510 -0.06359026 0.02680830 0 0 0 0
0.06284620 -0.01950766 -0.03690971 0 0 0 0
0.08121245 0.06456955 0.01142573 0 0 0 0
-0.04135238 0.01098207 -0.05841494 0 0 0 0
0.01744111 0.09356587 0.00621719 0 0 0 0
-0.08288418 -0.01220765 -0.01686237 0 0 0 0
-0.08544324 -0.07339576 -0.00444230 0 0 0 0
-0.07868010 0.07147708 0.01010653 0 0 0 0
-0.03429744 -0.08357070 0.01559747 0 0 0 0
0.07508112 0.08298306 0.00534762 0 0 0 0
0.09661890 0.05443373 0.00048969 0 0 0 0
0.06427155 -0.05922216 -0.02616045 0 0 0 0
0.09918030 0.02717980 -0.00024385 0 0 0 0
0.02775091 0.08009550 -0.01948553 0 0 0 0
-0.03687623 0.08100475 -0.01785632 0 0 0 0
-0.01530881 0.03777929 -0.06185287 0 0 0 0
-0.03020505 0.03623367 -0.05989032 0 0 0 0
0.00045229 -0.09357134 -0.00623027 0 0 0 0
-0.03734679 0.07153349 -0.02699498 0 0 0 0
-0.01749604 0.02290685 -0.07528847 0 0 0 0
0.03737476 -0.05350745 -0.04343392 0 0 0 0
-0.05386017 -0.09089044 -0.00633827 0 0 0 0
-0.05149267 -0.07219957 0.02347244 0 0 0 0
0.09397554 0.00498449 -0.00578195 0 0 0 0
-0.03304138 0.04487915 0.05197275 0 0 0 0
0.00671490 0.02731099 -0.07260553 0 0 0 0
-0.00009289 -0.01729965 -0.08266179 0 0 0 0
0.02666413 0.01542496 -0.07261395 0 0 0 0
-0.01712746 0.09035834 0.00926227 0 0 0 0
-0.09416687 -0.00171355 -0.00560673 0 0 0 0
-0.07911517 -0.00633751 0.02075055 0 0 0 0
-0.05427559 -0.07474227 -0.02027356 0 0 0 0
0.00520316 -0.00851204 -0.09120207 0 0 0 0
0.01020046 0.04686219 -0.05304995 0 0 0 0
-0.04607359 0.03369134 -0.05076764 0 0 0 0
-0.02985409 0.02078805 -0.06843295 0 0 0 0
0.04786994 0.00073701 -0.05201565 0 0 0 0
-0.06162379 -0.03794410 -0.03611750 0 0 0 0
-0.04989716 -0.06802668 -0.02744595 0 0 0 0
-0.02669921 0.03712383 0.06059976 0 0 0 0
0.01928043 0.03866692 -0.06069712 0 0 0 0
-0.01278937 0.02568638 0.07389442 0 0 0 0
-0.03594461 -0.01909497 -0.06323315 0 0 0 0
-0.07451978 -0.03710746 -0.02429495 0 0 0 0
0.05695608 -0.02071923 0.04260494 0 0 0 0
0.02135928 -0.02109219 -0.07475053 0 0 0 0
0.07460486 -0.04010835 -0.02375948 0 0 0 0
0.04915313 0.06524687 -0.02979217 0 0 0 0
0.05386311 0.07426864 -0.02103584 0 0 0 0
0.04086306 0.00989385 -0.05899236 0 0 0 0
0.00689302 0.07539196 -0.02451800 0 0 0 0
0.04786381 -0.01930915 0.05165013 0 0 0 0
0.03064780 -0.07137278 -0.02785994 0 0 0 0
-0.01340515 -0.00845200 -0.08605260 0 0 0 0
0.06638540 -0.01691092 -0.03354082 0 0 0 0
-0.08673249 0.03552026 -0.01251494 0 0 0 0
0.04770159 -0.07798904 -0.01938328 0 0 0 0
0.08387920 0.04653879 -0.01408364 0 0 0 0
-0.00457476 -0.00414620 -0.09477806 0 0 0 0
0.08000897 0.05135334 -0.01675665 0 0 0 0
-0.02393051 0.03041868 -0.06699123 0 0 0 0
0.09916127 0.01492847 0.00004812 0 0 0 0
0.06186488 0.03855336 -0.03574906 0 0 0 0
0.06147837 -0.00481537 0.03841961 0 0 0 0
0.00219468 0.05413697 -0.04573751 0 0 0 0
0.06680040 0.05904235 -0.02457171 0 0 0 0
0.01794659 0.04823544 -0.05141205 0 0 0 0
-0.03531545 0.02456326 -0.06266022 0 0 0 0
-0.05735437 -0.02941183 -0.04150084 0 0 0 0
-0.05495623 -0.01804716 -0.04482531 0 0 0 0
-0.08408339 -0.07582538 -0.00431293 0 0 0 0
0.09408764 0.03291072 -0.00552817 0 0 0 0
-0.09717536 0.00873013 0.00263967 0 0 0 0
-0.01491023 0.09367745 -0.00610537 0 0 0 0
0.04829132 0.02727812 0.05048594 0 0 0 0
0.07403062 -0.00557907 -0.02582647 0 0 0 0
0.02342390 0.04716387 -0.05207682 0 0 0 0
0.07269652 0.06879778 0.01563770 0 0 0 0
0.07104526 0.06500306 -0.01860145 0 0 0 0
-0.02205433 -0.09587957 -0.00367636 0 0 0 0
-0.05368800 -0.06919937 0.02522308 0 0 0 0
-0.07899497 -0.06301722 0.01393647 0 0 0 0
-0.02852882 -0.00651599 0.07133313 0 0 0 0
0.01309100 -0.08251630 -0.01716451 0 0 0 0
0.06682743 -0.04723382 -0.02927468 0 0 0 0
-0.06194693 -0.05580511 -0.02959554 0 0 0 0
0.07290950 0.06051967 -0.01947864 0 0 0 0
-0.05403204 -0.06213933 -0.03026899 0 0 0 0
-0.05838944 -0.01826618 0.04122355 0 0 0 0
0.03203280 0.02075093 0.06661221 0 0 0 0
-0.00189857 -0.02285325 -0.07707682 0 0 0 0
-0.09867547 0.01494047 0.00086154 0 0 0 0
-0.05194306 -0.08233768 0.01428122 0 0 0 0
-0.08429715 -0.00451724 -0.01548508 0 0 0 0
-0.03125316 -0.04214830 -0.05481866 0 0 0 0
-0.00608033 -0.08809416 -0.01164949 0 0 0 0
0.02740034 -0.01858795 0.07115389 0 0 0 0
0.00571812 -0.02323330 0.07671283 0 0 0 0
-0.00689582 0.09153374 -0.00819372 0 0 0 0
-0.00541226 -0.03101644 -0.06891164 0 0 0 0
0.04926618 0.05786503 -0.03552967 0 0 0 0
0.05536421 -0.05430124 0.03457620 0 0 0 0
-0.01564818 -0.00051815 -0.08431302 0 0 0 0
-0.00284910 0.08585784 0.01394310 0 0 0 0
0.09202950 -0.03585192 0.00721090 0 0 0 0
-0.06791564 -0.08597954 0.00657188 0 0 0 0
0.04184175 0.08489682 -0.01358217 0 0 0 0
-0.08297457 0.00115797 0.01683945 0 0 0 0
0.03181365 -0.07610177 -0.02311637 0 0 0 0
-0.03115802 -0.03783912 -0.05826870 0 0 0 0
-0.01952228 0.04357601 -0.05592155 0 0 0 0
0.03346848 -0.09447490 -0.00480706 0 0 0 0
0.04922481 -0.05016074 0.04077501 0 0 0 0
0.09092013 0.00226806 -0.00903182 0 0 0 0
-0.06747811 0.05479742 0.02590734 0 0 0 0
0.06902081 -0.03961241 -0.02895719 0 0 0 0
-0.02995338 0.08578177 0.01371163 0 0 0 0
-0.02618843 -0.09214968 -0.00737015 0 0 0 0
-0.04038415 -0.00815362 0.05948119 0 0 0 0
-0.07757996 0.01611659 -0.02207858 0 0 0 0
0.05079306 0.02845991 -0.04786028 0 0 0 0
0.08159441 0.01483232 -0.01829206 0 0 0 0
-0.03743941 0.08388320 -0.01515552 0 0 0 0
-0.04616287 0.03337723 0.05079163 0 0 0 0
-0.03040553 0.02382480 0.06700932 0 0 0 0
-0.01480899 0.05221786 -0.04751037 0 0 0 0
-0.09527338 0.00219583 0.00451747 0 0 0 0
0.09551448 -0.01227014 -0.00422555 0 0 0 0
-0.00221257 -0.08770507 -0.01209159 0 0 0 0
-0.09232614 -0.06737228 0.00122309 0 0 0 0
-0.04930275 0.06242467 0.03200196 0 0 0 0
0.00905033 -0.05749426 -0.04228410 0 0 0 0
-0.01386949 0.01976527 -0.07906023 0 0 0 0
0.00821797 0.00807943 -0.09027863 0 0 0 0
-0.04094452 -0.06117009 -0.03577802 0 0 0 0
-0.06869731 -0.08625074 -0.00591095 0 0 0 0
0.04344575 -0.08369455 -0.01452902 0 0 0 0
0.00909304 -0.02975089 -0.07008363 0 0 0 0
0.03825834 0.06722982 0.03091964 0 0 0 0
-0.02497175 -0.02420068 -0.07067382 0 0 0 0
-0.03523181 0.09215702 0.00703422 0 0 0 0
0.07819261 0.04155398 -0.02001639 0 0 0 0
-0.01887264 0.00508307 0.08101965 0 0 0 0
-0.07285374 -0.00012293 -0.02714365 0 0 0 0
-0.08743908 -0.01914323 -0.01215533 0 0 0 0
-0.00647240 0.05877541 -0.04116615 0 0 0 0
0.07816221 0.08817315 -0.00027301 0 0 0 0
-0.06708695 -0.08182661 -0.00994761 0 0 0 0
0.06854686 -0.03927018 -0.02966085 0 0 0 0
0.05716413 0.04265744 -0.03882223 0 0 0 0
0.04837856 0.00417432 -0.05153299 0 0 0 0
0.02946631 0.01233357 0.07027238 0 0 0 0
0.05733862 0.05877119 -0.03084197 0 0 0 0
0.05424114 -0.00207913 0.04571481 0 0 0 0
0.08643578 -0.02596754 -0.01301404 0 0 0 0
0.03219866 -0.04159015 -0.05494925 0 0 0 0
-0.00644454 -0.04178457 0.05805577 0 0 0 0
0.04097788 0.04337029 0.04975633 0 0 0 0
0.02435275 0.08089703 -0.01866862 0 0 0 0
-0.01735988 0.04031709 0.05927714 0 0 0 0
0.05930684 0.05073819 -0.03379067 0 0 0 0
0.07528560 -0.04537588 0.02218280 0 0 0 0
0.02290910 -0.06912810 -0.03047680 0 0 0 0
0.00595268 -0.03533845 0.06464845 0 0 0 0
-0.00984629 0.03219172 -0.06762892 0 0 0 0
0.08697068 0.06105440 -0.00811229 0 0 0 0
-0.00049021 0.08436908 0.01543531 0 0 0 0
-0.01472848 -0.07580926 0.02412293 0 0 0 0
-0.03039839 0.09768536 -0.00208346 0 0 0 0
0.08810943 -0.04768552 0.00974286 0 0 0 0
0.03914611 -0.08420239 -0.01454764 0 0 0 0
0.01099015 0.09236332 -0.00755360 0 0 0 0
-0.05336691 0.09251292 -0.00484973 0 0 0 0
0.02873207 -0.04561182 -0.05258523 0 0 0 0
-0.04669927 0.01107465 -0.05313668 0 0 0 0
-0.03933676 0.04021759 -0.05252357 0 0 0 0
-0.05368630 -0.08648729 -0.01037393 0 0 0 0
-0.00166776 0.06167295 -0.03818407 0 0 0 0
0.09767057 0.03881348 0.00119784 0 0 0 0
-0.04201452 0.01126214 -0.05774687 0 0 0 0
-0.00349082 0.08477321 -0.01508000 0 0 0 0
0.07182354 0.00661865 -0.02803623 0 0 0 0
-0.07736322 0.08064182 -0.00594539 0 0 0 0
0.02883126 0.05430307 0.04449543 0 0 0 0
-0.07588290 -0.04753055 -0.02129551 0 0 0 0
-0.04574746 0.00314532 -0.05416270 0 0 0 0
-0.08257867 -0.07029927 -0.00814453 0 0 0 0
-0.05367051 0.09202245 0.00520357 0 0 0 0
0.03298748 0.06808873 -0.03079233 0 0 0 0
-0.06561106 0.06642114 -0.02135158 0 0 0 0
-0.08866971 -0.06141574 -0.00632863 0 0 0 0
0.04925941 0.09392300 0.00422860 0 0 0 0
-0.04602464 -0.02470162 0.05294348 0 0 0 0
-0.03263842 -0.07772500 -0.02147033 0 0 0 0
-0.06363694 -0.04107433 -0.03354432 0 0 0 0
-0.00286517 0.03680843 0.06310623 0 0 0 0
-0.01499185 -0.08965246 -0.00999252 0 0 0 0
-0.06447820 0.03488402 0.03404752 0 0 0 0
0.03514745 -0.09304702 -0.00637506 0 0 0 0
-0.03408926 0.02191891 -0.06452043 0 0 0 0
0.03290682 0.07466842 -0.02449350 0 0 0 0
0.00551946 0.08607163 0.01368242 0 0 0 0
0.07705448 -0.00578354 -0.02279666 0 0 0 0
-0.08659126 -0.01480597 -0.01313356 0 0 0 0
0.06004194 -0.03536364 -0.03817047 0 0 0 0
-0.04824147 0.00384361 -0.05167709 0 0 0 0
-0.00875074 -0.00603997 -0.09076089 0 0 0 0
0.06245858 -0.04598986 0.03320911 0 0 0 0
0.08944364 0.00314401 0.01048975 0 0 0 0
-0.09166984 0.01556687 0.00803939 0 0 0 0
0.05122834 -0.03483422 0.04617435 0 0 0 0
-0.07067222 0.05694932 -0.02259181 0 0 0 0
0.05650854 0.00849187 -0.04331780 0 0 0 0
-0.05788843 0.06705900 -0.02496547 0 0 0 0
0.00593759 -0.05056018 -0.04926652 0 0 0 0
0.01506178 0.08053108 0.01942138 0 0 0 0
0.04867929 -0.02885933 0.04982304 0 0 0 0
0.07753488 0.08627625 -0.00189728 0 0 0 0
-0.04311725 -0.01601419 -0.05664990 0 0 0 0
-0.00981101 0.00768894 -0.08934799 0 0 0 0
-0.07476065 0.03217614 0.02455763 0 0 0 0
0.02662812 0.04453960 -0.05396847 0 0 0 0
0.04689358 0.02561406 0.05200912 0 0 0 0
0.09820826 0.03706815 -0.00120035 0 0 0 0
0.00068211 0.04295160 0.05694782 0 0 0 0
0.03277627 0.04197958 0.05443240 0 0 0 0
0.04585385 0.07187103 -0.02518602 0 0 0 0
0.04921142 -0.07038745 -0.02548142 0 0 0 0
-0.09134440 0.05113455 -0.00639040 0 0 0 0
0.04852339 0.08654213 -0.01129640 0 0 0 0
-0.06658237 0.03624473 0.03187235 0 0 0 0
0.03215173 0.04753787 -0.05010716 0 0 0 0
-0.09912501 -0.02179555 -0.00053544 0 0 0 0
-0.02623008 -0.04498503 -0.05360722 0 0 0 0
-0.05389068 -0.07632144 0.01922769 0 0 0 0
0.05602585 0.01612860 0.04363243 0 0 0 0
-0.03141408 -0.01592631 -0.06797774 0 0 0 0
-0.00878573 -0.09777723 -0.00199607 0 0 0 0
0.02700799 0.08817367 -0.01162189 0 0 0 0
-0.08425146 -0.03415171 0.01502497 0 0 0 0
-0.01746530 0.03581404 -0.06358813 0 0 0 0
-0.00620917 -0.03323979 -0.06674090 0 0 0 0
-0.00521261 0.00025850 0.09477402 0 0 0 0
-0.03260741 0.05768211 0.04069319 0 0 0 0
0.09436634 0.00957528 0.00546397 0 0 0 0
0.06066346 -0.08906346 0.00616789 0 0 0 0
-0.09852223 -0.00076187 0.00134524 0 0 0 0
-0.04803310 0.05109951 0.04081134 0 0 0 0
0.03374910 0.06561442 -0.03314815 0 0 0 0
0.01060112 0.03665186 -0.06326316 0 0 0 0
-0.05775962 0.05673983 -0.03170196 0 0 0 0
0.01000464 -0.09058879 -0.00920119 0 0 0 0
-0.09783691 0.03089319 0.00169119 0 0 0 0
-0.06721492 0.04648753 -0.02900963 0 0 0 0
0.03730191 -0.07951962 -0.01949323 0 0 0 0
0.04364420 0.01345122 -0.05607080 0 0 0 0
0.03375256 -0.07312795 -0.02585047 0 0 0 0
-0.08134773 0.06264825 -0.01198190 0 0 0 0
-0.05617742 0.05726074 -0.03241963 0 0 0 0
0.07930999 0.05269132 -0.01692167 0 0 0 0
0.04477581 -0.00719825 -0.05508421 0 0 0 0
-0.07678080 -0.01428453 -0.02291655 0 0 0 0
0.07259862 -0.07836976 -0.00984614 0 0 0 0
-0.04983637 0.03757223 -0.04653563 0 0 0 0
-0.04940175 -0.07004952 -0.02578371 0 0 0 0
-0.00254360 -0.02970957 -0.07025310 0 0 0 0
0.04884906 0.01569251 0.05095853 0 0 0 0
-0.00948315 0.03171552 0.06811688 0 0 0 0
0.09025128 -0.06741111 -0.00313100 0 0 0 0
0.09847055 0.00076359 -0.00151328 0 0 0 0
0.05207264 -0.00875376 -0.04774190 0 0 0 0
-0.05186505 -0.00444983 -0.04803757 0 0 0 0
0.03223392 0.08978491 0.00967541 0 0 0 0
0.02272525 -0.04995894 -0.04934009 0 0 0 0
-0.01314483 0.01396733 0.08380286 0 0 0 0
0.09502423 0.02997944 0.00451900 0 0 0 0
0.07433614 -0.08396232 0.00504744 0 0 0 0
-0.06614015 -0.07542834 0.01499547 0 0 0 0
0.01227371 -0.01132396 -0.08593471 0 0 0 0
-0.03572955 -0.05192878 -0.04518814 0 0 0 0
0.03289174 -0.08956853 0.00988523 0 0 0 0
-0.02088589 -0.07060768 -0.02922862 0 0 0 0
0.01547905 0.00625295 -0.08438548 0 0 0 0
0.01593550 0.00406705 0.08397834 0 0 0 0
0.02876340 0.05216930 0.04651127 0 0 0 0
-0.03834929 -0.01983511 -0.06086783 0 0 0 0
-0.07551026 -0.04552466 -0.02183784 0 0 0 0
-0.03065575 0.03577881 -0.06001144 0 0 0 0
0.09622493 0.03741773 0.00298230 0 0 0 0
-0.05444443 -0.06970044 -0.02454521 0 0 0 0
-0.09710530 -0.03143971 0.00251098 0 0 0 0
0.05829578 0.08663462 -0.00893055 0 0 0 0
0.04461049 -0.05466453 0.03993629 0 0 0 0
-0.06837941 -0.06473701 -0.02048448 0 0 0 0
-0.07800875 0.05370654 0.01767284 0 0 0 0
-0.01876964 0.00360641 -0.08115395 0 0 0 0
-0.02614209 -0.00614807 -0.07372765 0 0 0 0
-0.07353839 -0.03598581 0.02524267 0 0 0 0
-0.01817777 0.09027864 -0.00961386 0 0 0 0
0.07465218 0.02967011 -0.02461684 0 0 0 0
0.01218741 -0.00461545 -0.08771481 0 0 0 0
-0.03166113 -0.09017012 -0.00932414 0 0 0 0
0.08315994 -0.01812332 -0.01645608 0 0 0 0
-0.06654911 -0.02022231 -0.03319461 0 0 0 0
-0.00455372 0.04163520 -0.05822567 0 0 0 0
0.09459690 0.01813267 -0.00527622 0 0 0 0
0.08907665 -0.06657918 -0.00464134 0 0 0 0
0.03823192 -0.04205063 0.05193899 0 0 0 0
-0.05369571 0.09540907 -0.00216199 0 0 0 0
-0.07188259 -0.05357773 0.02288894 0 0 0 0
-0.08249661 0.02959614 -0.01687633 0 0 0 0
0.04638511 -0.06476030 -0.03112233 0 0 0 0
-0.08653293 -0.03481457 0.01272946 0 0 0 0
0.04543911 0.05784867 -0.03711312 0 0 0 0
-0.03048062 0.04982052 -0.04849855 0 0 0 0
0.02470844 -0.05615009 -0.04312970 0 0 0 0
0.02728347 0.07846899 -0.02106884 0 0 0 0
-0.04012083 0.01991954 0.05914579 0 0 0 0
0.02548381 0.07477667 -0.02469719 0 0 0 0
0.04837380 0.02213673 -0.05093557 0 0 0 0
0.03171442 -0.07742091 0.02177713 0 0 0 0
-0.03180283 -0.01825698 -0.06726478 0 0 0 0
-0.06360860 0.04645704 0.03212121 0 0 0 0
-0.01856252 0.07569037 -0.02394676 0 0 0 0
-0.05227328 -0.07767420 0.01856766 0 0 0 0
-0.00779835 0.07599168 -0.02383214 0 0 0 0
-0.05501474 0.06526224 -0.02747765 0 0 0 0
0.07382237 -0.08409784 -0.00526304 0 0 0 0
-0.01419633 0.00293121 -0.08578569 0 0 0 0
-0.03551387 -0.08554841 -0.01352728 0 0 0 0
-0.08941390 0.02448778 -0.01006728 0 0 0 0
0.00133808 -0.02338662 0.07655916 0 0 0 0
-0.02827330 0.09790481 0.00154334 0 0 0 0
-0.02939259 -0.09887995 -0.00059100 0 0 0 0
0.05845823 -0.09362356 -0.00276670 0 0 0 0
-0.04388174 -0.04559047 -0.04673411 0 0 0 0
0.03473536 0.06443693 -0.03403321 0 0 0 0
0.01811090 -0.03967713 -0.05979409 0 0 0 0
-0.09829433 0.01971793 0.00120647 0 0 0 0
-0.02538806 -0.06341533 0.03617546 0 0 0 0
0.07483695 -0.02699732 -0.02459731 0 0 0 0
0.08147635 -0.00523107 -0.01841283 0 0 0 0
0.03655454 0.08123039 0.01766196 0 0 0 0
-0.04341583 -0.03193253 -0.05358605 0 0 0 0
-0.01118466 -0.03383329 -0.06597362 0 0 0 0
-0.00808603 -0.08453775 -0.01519218 0 0 0 0
-0.01703305 -0.07252377 -0.02728800 0 0 0 0
0.05481423 0.03254892 0.04336142 0 0 0 0
-0.07770163 -0.05265037 -0.01828309 0 0 0 0
0.03786989 -0.02669041 -0.05994970 0 0 0 0
0.02002322 -0.03354231 -0.06541649 0 0 0 0
-0.00931692 -0.05048763 0.04930309 0 0 0 0
-0.00704477 0.09359474 -0.00612666 0 0 0 0
-0.08944774 0.03942472 -0.00944075 0 0 0 0
-0.05637247 -0.01204131 -0.04343621 0 0 0 0
0.03783569 -0.05874877 0.03872836 0 0 0 0
0.02188815 -0.06363869 -0.03590516 0 0 0 0
0.02959308 -0.06589312 0.03321321 0 0 0 0
-0.04931924 0.01730671 -0.05047908 0 0 0 0
0.05689857 0.03208124 0.04166681 0 0 0 0
0.07941361 0.02038835 -0.02048848 0 0 0 0
0.01197311 -0.00752379 -0.08754908 0 0 0 0
-0.05469172 0.07604126 -0.01929517 0 0 0 0
0.04035236 0.07543405 -0.02284381 0 0 0 0
0.04173200 -0.07943133 -0.01881977 0 0 0 0
-0.08789755 -0.04771657 -0.01007598 0 0 0 0
0.03684979 -0.07218082 -0.02636520 0 0 0 0
-0.03426697 -0.08127578 0.01780332 0 0 0 0
0.00382159 0.07272945 -0.02715345 0 0 0 0
0.04099796 0.07274269 -0.02523005 0 0 0 0
-0.09488802 0.01498726 -0.00481669 0 0 0 0
0.03483318 0.04528824 0.05104592 0 0 0 0
-0.03222694 -0.03842930 -0.05737361 0 0 0 0
0.07247710 -0.03448840 0.02635206 0 0 0 0
-0.03858761 -0.06863715 -0.02962487 0 0 0 0
0.06482923 -0.07677703 -0.01463192 0 0 0 0
0.04878493 -0.03481346 -0.04824541 0 0 0 0
-0.07290512 -0.05816541 -0.02036210 0 0 0 0
-0.04241348 0.07430822 0.02366401 0 0 0 0
-0.03863873 0.06872864 0.02943914 0 0 0 0
0.00535536 -0.06075301 -0.03917231 0 0 0 0
-0.03405039 0.05679743 0.04142121 0 0 0 0
0.04973654 0.08405559 0.01339077 0 0 0 0
0.03822749 0.06473492 -0.03330809 0 0 0 0
0.00423391 0.05995417 0.03996089 0 0 0 0
-0.02026409 -0.08387752 -0.01588112 0 0 0 0
-0.03260232 0.07508636 -0.02398616 0 0 0 0
0.01570218 -0.01522234 -0.08155670 0 0 0 0
0.06953845 0.07087986 0.01632174 0 0 0 0
0.02463221 -0.01307578 0.07483040 0 0 0 0
-0.04584183 -0.03024032 0.05196002 0 0 0 0
0.02598098 -0.06535108 -0.03403361 0 0 0 0
0.05211476 0.04494778 -0.04181301 0 0 0 0
-0.02755647 -0.02967665 -0.06584421 0 0 0 0
0.07757871 0.05919384 0.01646735 0 0 0 0
-0.09139146 -0.00160261 -0.00857458 0 0 0 0
-0.04365630 -0.03441840 -0.05256563 0 0 0 0
0.00528929 0.00959962 -0.09018198 0 0 0 0
-0.02152184 0.03495280 0.06375276 0 0 0 0
0.02868639 0.07147607 0.02783962 0 0 0 0
-0.05958123 -0.02143507 -0.03996463 0 0 0 0
0.04268413 -0.00986084 -0.05726712 0 0 0 0
-0.06640564 0.07800387 -0.01321020 0 0 0 0
-0.01026223 0.07179673 -0.02803681 0 0 0 0
-0.01304675 0.04789238 -0.05199658 0 0 0 0
0.06180491 0.04694833 -0.03354275 0 0 0 0
-0.09062780 -0.00544739 -0.00913507 0 0 0 0
-0.06100298 -0.07461001 0.01806683 0 0 0 0
-0.06701853 -0.08414003 -0.00831294 0 0 0 0
-0.03788109 -0.03377280 -0.05709994 0 0 0 0
0.01065814 0.06680100 -0.03304412 0 0 0 0
0.01212005 -0.09758170 -0.00207677 0 0 0 0
-0.03980059 0.01405135 -0.05991718 0 0 0 0
0.02308930 0.01844458 -0.07476966 0 0 0 0
-0.02799076 -0.05747188 -0.04170000 0 0 0 0
0.04950518 -0.07520180 -0.02126216 0 0 0 0
0.02020930 -0.03587594 0.06320648 0 0 0 0
0.02257201 -0.06929699 -0.03031114 0 0 0 0
0.05667042 -0.08404513 0.01166669 0 0 0 0
0.09292877 -0.05028780 -0.00480694 0 0 0 0
-0.01944081 -0.01762469 -0.07780646 0 0 0 0
-0.04106316 -0.02410625 0.05762619 0 0 0 0
-0.04634749 -0.03918241 0.04854802 0 0 0 0
0.02278574 -0.07604912 -0.02354207 0 0 0 0
0.00123397 -0.06108319 0.03877095 0 0 0 0
0.06937077 -0.07675734 0.01248937 0 0 0 0
-0.03095146 -0.05619147 -0.04236878 0 0 0 0
0.00428065 -0.09525972 0.00451942 0 0 0 0
0.01959397 -0.01124044 -0.07989214 0 0 0 0
-0.00534898 0.06855486 -0.03123905 0 0 0 0
-0.07388757 0.02752245 -0.02550109 0 0 0 0
-0.03053719 0.01145055 -0.06922020 0 0 0 0
0.06339146 -0.00068523 -0.03645851 0 0 0 0
-0.02431202 -0.06658375 -0.03287983 0 0 0 0
-0.00760117 0.02508945 -0.07477479 0 0 0 0
0.03555883 -0.06416423 0.03419002 0 0 0 0
-0.03838662 0.07300885 -0.02554656 0 0 0 0
0.05683287 0.05834683 0.03133230 0 0 0 0
-0.05694373 -0.09649757 -0.00035872 0 0 0 0
0.01420238 0.03596023 -0.06370512 0 0 0 0
0.02959136 -0.04877272 0.04949836 0 0 0 0
0.01854060 -0.03312366 0.06600355 0 0 0 0
-0.02341365 -0.00059775 0.07652919 0 0 0 0
0.03864385 -0.01679205 0.06100038 0 0 0 0
0.01910683 0.07392583 0.02580918 0 0 0 0
0.00466571 0.09067293 -0.00908025 0 0 0 0
-0.07677092 0.08281966 -0.00469797 0 0 0 0
0.05926600 0.01483929 -0.04067212 0 0 0 0
-0.09666224 0.02441926 0.00299061 0 0 0 0
-0.05566012 0.04257297 0.03993496 0 0 0 0
0.08676173 0.00597600 0.01306794 0 0 0 0
0.06045717 -0.02130431 -0.03911654 0 0 0 0
0.04208724 -0.00700838 -0.05776427 0 0 0 0
-0.08514792 0.06169229 0.00919445 0 0 0 0
0.00279005 -0.03132574 0.06857639 0 0 0 0
-0.00288111 -0.03458630 0.06536939 0 0 0 0
0.01977546 -0.01991409 0.07636541 0 0 0 0
-0.00186422 -0.00843273 -0.09155025 0 0 0 0
-0.00279145 -0.04975574 -0.05012890 0 0 0 0
-0.04446110 -0.01419156 -0.05536424 0 0 0 0
0.00906804 -0.04789501 0.05199394 0 0 0 0
0.04626635 0.07909115 -0.01840751 0 0 0 0
-0.04620961 -0.05729963 -0.03719920 0 0 0 0
0.04020888 -0.03468855 -0.05510264 0 0 0 0
0.09311307 -0.04461979 -0.00535063 0 0 0 0
0.03475489 0.01777075 0.06455675 0 0 0 0
-0.00710489 -0.05010589 0.04977794 0 0 0 0
0.00473814 -0.09935209 -0.00041756 0 0 0 0
0.03010142 -0.02537303 0.06661133 0 0 0 0
0.03323111 0.05527162 0.04298284 0 0 0 0
-0.06989896 0.08408759 0.00726439 0 0 0 0
-0.04265651 0.02228306 -0.05642448 0 0 0 0
-0.04259779 0.03733604 -0.05203672 0 0 0 0
0.04716479 -0.06681833 -0.02919272 0 0 0 0
0.04873310 -0.01293626 0.05118098 0 0 0 0
-0.09509537 0.02963605 -0.00446976 0 0 0 0
0.04877770 -0.00227105 0.05112103 0 0 0 0
0.09329809 -0.00092722 -0.00668226 0 0 0 0
-0.01827189 -0.05071403 0.04896379 0 0 0 0
-0.03939607 -0.05429154 -0.04209796 0 0 0 0
0.00768618 0.00815771 0.09053531 0 0 0 0
-0.04564297 0.05670290 -0.03798920 0 0 0 0
0.02428398 -0.06126525 0.03834201 0 0 0 0
0.01011548 -0.04948149 -0.05040378 0 0 0 0
-0.06118105 -0.04525799 0.03462537 0 0 0 0
0.02365341 -0.09430776 -0.00523449 0 0 0 0
-0.07741994 -0.02207403 -0.02228928 0 0 0 0
0.02252273 -0.09034188 -0.00944866 0 0 0 0
-0.08221211 -0.05933139 -0.01253444 0 0 0 0
0.02286273 0.08157527 -0.01805774 0 0 0 0
0.09089679 0.06533117 0.00322923 0 0 0 0
0.09215693 -0.04392212 -0.00649697 0 0 0 0
-0.04110708 0.01854314 -0.05835627 0 0 0 0
-0.09168316 -0.06136609 -0.00381763 0 0 0 0
-0.03044483 -0.04373892 -0.05379754 0 0 0 0
-0.07756929 0.04572028 -0.02011271 0 0 0 0
-0.04373124 0.06520871 0.03151877 0 0 0 0
0.02180564 0.06866098 0.03095673 0 0 0 0
0.04149484 -0.02703358 -0.05660268 0 0 0 0
0.07272079 -0.01694130 -0.02719687 0 0 0 0
-0.04385094 0.09710721 0.00165846 0 0 0 0
-0.05705552 -0.05241869 -0.03471237 0 0 0 0
-0.00924451 -0.03892801 -0.06098174 0 0 0 0
0.01208205 -0.09404568 -0.00573628 0 0 0 0
-0.00475806 -0.02544814 -0.07444571 0 0 0 0
-0.00100353 0.08138092 0.01843161 0 0 0 0
-0.00832889 -0.02470476 0.07512520 0 0 0 0
-0.04363184 -0.01790752 0.05595726 0 0 0 0
-0.02256979 -0.09558651 0.00419187 0 0 0 0
-0.01000681 0.07277525 -0.02705602 0 0 0 0
-0.07434316 0.04890025 0.02227908 0 0 0 0
-0.00828399 -0.09807686 -0.00179872 0 0 0 0
0.09310724 -0.06654570 -0.00110990 0 0 0 0
0.02249722 0.04404113 0.05514010 0 0 0 0
0.01062523 0.04455376 0.05532385 0 0 0 0
0.03531853 0.05603875 -0.04174294 0 0 0 0
0.01418499 0.06586595 -0.03401694 0 0 0 0
-0.07850266 -0.03059520 0.02076547 0 0 0 0
-0.03531104 0.06469704 -0.03370249 0 0 0 0
-0.03815898 0.06434438 0.03357125 0 0 0 0
0.07310683 0.05387148 0.02193577 0 0 0 0
0.02100815 0.02802633 -0.06987894 0 0 0 0
0.07365547 0.06988929 -0.01441245 0 0 0 0
-0.03980576 -0.07103164 0.02719911 0 0 0 0
-0.02591385 -0.02633321 -0.06882230 0 0 0 0
0.02026493 -0.01866491 -0.07679086 0 0 0 0
0.05599939 0.05803921 0.03197379 0 0 0 0
0.00321472 0.02585470 -0.07412352 0 0 0 0
-0.09231868 -0.04796356 -0.00599442 0 0 0 0
0.04060475 -0.04958763 -0.04545091 0 0 0 0
0.07388921 0.03075769 0.02537047 0 0 0 0
0.00010099 -0.02241015 -0.07753789 0 0 0 0
0.08391838 -0.00707200 0.01593179 0 0 0 0
-0.04200875 0.07496291 -0.02305568 0 0 0 0
0.00442211 -0.05138440 -0.04845672 0 0 0 0
-0.03912381 0.03164886 -0.05710053 0 0 0 0
0.02210711 -0.07335443 0.02625067 0 0 0 0
-0.07883220 -0.08772964 -0.00021809 0 0 0 0
0.06679216 -0.09294512 -0.00108287 0 0 0 0
0.01589697 -0.09796249 -0.00165476 0 0 0 0
-0.01549011 -0.02079817 -0.07771004 0 0 0 0
0.01798523 -0.06472139 -0.03494573 0 0 0 0
0.05205200 0.02628878 -0.04696229 0 0 0 0
-0.02850752 -0.05987231 -0.03936676 0 0 0 0
-0.07487619 -0.00989149 0.02491424 0 0 0 0
0.07015061 0.03343081 -0.02882154 0 0 0 0
-0.04754086 -0.07774366 -0.01940876 0 0 0 0
-0.05856675 -0.07322899 -0.02003315 0 0 0 0
-0.04260517 -0.09390312 0.00487791 0 0 0 0
-0.03315258 0.00545098 -0.06674317 0 0 0 0
0.06972795 -0.05639364 0.02376617 0 0 0 0
0.02695880 0.01422845 -0.07246153 0 0 0 0
0.02380844 0.01572042 -0.07504612 0 0 0 0
0.05596698 -0.04086409 -0.04021541 0 0 0 0
-0.04532181 -0.05053499 -0.04273486 0 0 0 0
0.04342155 -0.09527738 -0.00359318 0 0 0 0
0.03107869 0.03628713 -0.05944915 0 0 0 0
0.09289685 -0.00355241 -0.00702789 0 0 0 0
-0.07611631 0.08309095 0.00491334 0 0 0 0
0.05232707 -0.07336959 -0.02223229 0 0 0 0
0.04777785 0.00844741 -0.05204318 0 0 0 0
-0.06771558 0.00547690 -0.03215560 0 0 0 0
-0.05444098 -0.06530385 -0.02770944 0 0 0 0
0.03265522 -0.05123527 0.04666211 0 0 0 0
0.08180013 0.06073263 -0.01233867 0 0 0 0
0.03934736 0.09494956 -0.00428852 0 0 0 0
-0.00707559 -0.06155026 -0.03824040 0 0 0 0
0.01242027 -0.05081178 0.04894505 0 0 0 0
-0.08746427 0.05465005 -0.00930375 0 0 0 0
0.08726590 -0.01629758 -0.01238880 0 0 0 0
-0.02994238 -0.02573331 0.06650759 0 0 0 0
0.01702521 -0.03696331 -0.06250090 0 0 0 0
0.03195421 -0.05885389 -0.03989960 0 0 0 0
-0.08090336 -0.04576492 -0.01682688 0 0 0 0
-0.02958961 -0.08210181 -0.01740348 0 0 0 0
-0.00723625 -0.00893370 -0.09019584 0 0 0 0
0.08704743 -0.01306951 0.01281750 0 0 0 0
-0.05121646 0.09707686 -0.00075878 0 0 0 0
-0.07877748 -0.05279057 -0.01733693 0 0 0 0
0.09638449 0.04895006 0.00202438 0 0 0 0
-0.06143447 0.05873415 -0.02836644 0 0 0 0
0.08526968 0.07546212 -0.00356585 0 0 0 0
-0.06620929 0.03446542 0.03238251 0 0 0 0
0.01950611 0.06144494 -0.03837837 0 0 0 0
0.08477465 -0.02303064 -0.01491272 0 0 0 0
0.01413439 -0.01725373 -0.08104338 0 0 0 0
-0.09409574 -0.02789481 -0.00554544 0 0 0 0
-0.00597309 0.01667367 -0.08322319 0 0 0 0
0.02009499 0.03256240 -0.06620299 0 0 0 0
-0.01238286 0.04286232 0.05692935 0 0 0 0
-0.05918953 0.00533267 0.04070063 0 0 0 0
0.08548706 0.04184201 -0.01319743 0 0 0 0
0.02388205 0.05588572 -0.04351833 0 0 0 0
0.06094455 0.08204687 -0.01211457 0 0 0 0
-0.03623267 0.07093469 0.02774698 0 0 0 0
-0.01914432 0.09456895 0.00521180 0 0 0 0
-0.07529931 -0.06121169 -0.01752090 0 0 0 0
0.00992461 -0.08599420 -0.01380642 0 0 0 0
0.03452742 0.02506096 0.06321314 0 0 0 0
-0.01258273 0.00244918 -0.08736538 0 0 0 0
-0.05460316 -0.07304291 -0.02166020 0 0 0 0
0.00477765 -0.01529150 0.08467076 0 0 0 0
0.05392851 0.00241202 -0.04595903 0 0 0 0
-0.06452446 -0.02329199 0.03498206 0 0 0 0
0.06442230 -0.08119040 -0.01151530 0 0 0 0
-0.07040230 -0.08194649 -0.00832378 0 0 0 0
-0.00365754 0.07389624 -0.02593244 0 0 0 0
0.05697428 0.01387356 -0.04282373 0 0 0 0
0.01341663 0.05738134 0.04247224 0 0 0 0
0.07028992 0.05625438 -0.02315325 0 0 0 0
-0.08375692 -0.01753936 -0.01613824 0 0 0 0
-0.02474439 -0.06430312 -0.03529263 0 0 0 0
0.00408129 -0.09769882 -0.00207467 0 0 0 0
0.07847185 0.01299755 -0.02128090 0 0 0 0
-0.05669264 -0.07936548 0.01585650 0 0 0 0
-0.07394135 0.04955197 0.02241090 0 0 0 0
0.07789563 0.08364482 -0.00362544 0 0 0 0
-0.00865638 0.01329961 -0.08609320 0 0 0 0
0.06884164 0.06754322 0.01887671 0 0 0 0
-0.00650313 0.00798421 -0.09123304 0 0 0 0
0.01796896 0.09783386 -0.00212216 0 0 0 0
0.09566236 0.05950346 -0.00008014 0 0 0 0
0.07138929 -0.03717264 -0.02709072 0 0 0 0
0.03918151 0.00289466 0.06075717 0 0 0 0
-0.09089430 0.05647807 -0.00579438 0 0 0 0
0.09874327 -0.04358030 -0.00001237 0 0 0 0
0.08331444 0.05991387 -0.01144215 0 0 0 0
0.02751698 0.05224028 0.04660059 0 0 0 0
0.00213804 0.03165901 0.06824937 0 0 0 0
-0.00091601 0.02381217 -0.07613263 0 0 0 0
-0.01300992 0.01562539 -0.08276035 0 0 0 0
-0.08197664 0.03514703 0.01727870 0 0 0 0
-0.09726126 0.04128876 -0.00162623 0 0 0 0
-0.06206364 0.07801812 -0.01502047 0 0 0 0
0.03975668 0.05302156 -0.04301123 0 0 0 0
0.07444439 0.00880899 -0.02536898 0 0 0 0
