ply
format ascii 1.0
comment https://github.com/mikedh/trimesh
element vertex 1119
property float x
property float y
property float z
property uchar red
property uchar green
property uchar blue
property uchar alpha
end_header
0.04941626 -0.01708657 -0.05058374 0 0 0 0
-0.01096136 -0.09347110 0.00652890 0 0 0 0
0.03744125 0.02540415 -0.06255876 0 0 0 0
-0.01642777 -0.05328380 -0.04671620 0 0 0 0
-0.00529556 -0.00176234 0.09470444 0 0 0 0
0.06126849 -0.02109425 0.03873151 0 0 0 0
-0.09155123 0.06426553 0.00844877 0 0 0 0
0.05629773 0.05823555 0.04176445 0 0 0 0
-0.07747350 -0.07163522 -0.02252650 0 0 0 0
0.04160409 -0.09692742 0.00307258 0 0 0 0
0.00665469 -0.03681187 -0.06318813 0 0 0 0
0.07057200 0.07614143 0.02385857 0 0 0 0
0.02979849 -0.07981794 -0.02018206 0 0 0 0
0.05088713 -0.09035994 -0.00964007 0 0 0 0
0.03447019 -0.05874846 -0.04125154 0 0 0 0
-0.03703916 0.09107690 0.00892310 0 0 0 0
0.02553483 -0.05965475 -0.04034525 0 0 0 0
0.03914950 -0.05991255 -0.04008745 0 0 0 0
0.01915604 -0.00398038 -0.08084396 0 0 0 0
-0.05687740 -0.09317005 -0.00682995 0 0 0 0
-0.09947248 0.06037769 -0.00052752 0 0 0 0
-0.04256358 0.05289152 -0.04710848 0 0 0 0
-0.08869994 -0.03314912 0.01130006 0 0 0 0
0.06605934 -0.01037072 -0.03394067 0 0 0 0
0.01460268 -0.07638662 0.02361337 0 0 0 0
-0.07980664 -0.06916303 0.02019336 0 0 0 0
-0.05670121 -0.07609485 -0.02390515 0 0 0 0
-0.00225876 0.09525930 -0.00474070 0 0 0 0
0.01192485 -0.05388968 0.04611032 0 0 0 0
0.07565562 -0.08373830 -0.01626170 0 0 0 0
0.01432131 0.06260657 0.03739343 0 0 0 0
-0.03956517 -0.04138353 -0.05861647 0 0 0 0
-0.08579805 0.05341718 -0.01420195 0 0 0 0
-0.07479808 0.07947970 -0.02052030 0 0 0 0
-0.07321344 -0.05419151 -0.02678656 0 0 0 0
-0.01419849 0.04135796 0.05864204 0 0 0 0
0.01051676 -0.06418564 -0.03581435 0 0 0 0
0.01278955 -0.02765223 -0.07234777 0 0 0 0
-0.02542729 -0.00646461 0.07457270 0 0 0 0
0.03546614 -0.03059964 -0.06453385 0 0 0 0
0.00980532 -0.05120996 0.04879003 0 0 0 0
0.04042023 -0.03798162 -0.05957977 0 0 0 0
0.05197168 0.09800470 0.00199530 0 0 0 0
0.08174185 0.00712473 0.01825816 0 0 0 0
-0.01658414 -0.03619776 -0.06380224 0 0 0 0
0.00278128 -0.04157595 -0.05842406 0 0 0 0
-0.08614073 -0.06393658 -0.01385927 0 0 0 0
0.05106612 0.07071805 -0.02928195 0 0 0 0
0.04681670 0.02014414 -0.05318331 0 0 0 0
0.04111732 -0.05882589 -0.04117411 0 0 0 0
0.04442563 0.07967106 0.02032894 0 0 0 0
-0.02310834 -0.02664136 0.07335864 0 0 0 0
-0.02063188 -0.04663281 0.05336719 0 0 0 0
-0.06592403 0.04349854 0.03407598 0 0 0 0
0.05235103 -0.04674589 -0.04764897 0 0 0 0
0.02129624 -0.05906224 -0.04093776 0 0 0 0
0.04003386 -0.09041875 -0.00958125 0 0 0 0
-0.06394022 -0.07858945 0.02141055 0 0 0 0
0.05988824 -0.08002897 -0.01997104 0 0 0 0
-0.08986017 0.04910269 0.01013983 0 0 0 0
0.06673960 -0.07507909 -0.02492091 0 0 0 0
0.03556344 0.05356245 0.04643754 0 0 0 0
-0.04651755 0.09167478 0.00832522 0 0 0 0
0.00893127 0.07398443 -0.02601557 0 0 0 0
-0.06402314 -0.04192344 -0.03597686 0 0 0 0
0.01263931 0.05749699 0.04250301 0 0 0 0
0.00545940 -0.05910362 0.04089638 0 0 0 0
0.00828486 -0.05315251 -0.04684749 0 0 0 0
0.03077734 0.00710096 -0.06922267 0 0 0 0
0.09673461 0.07250469 -0.00326539 0 0 0 0
0.01213921 0.08148398 -0.01851603 0 0 0 0
-0.06524901 0.00686474 -0.03475099 0 0 0 0
-0.02581122 -0.09945987 -0.00054013 0 0 0 0
0.01895416 -0.05635353 -0.04364647 0 0 0 0
-0.02788554 0.01158320 -0.07211446 0 0 0 0
-0.06182351 0.07279979 0.02720022 0 0 0 0
0.05404419 -0.09586922 0.00413078 0 0 0 0
-0.03460061 0.03373542 -0.06539939 0 0 0 0
-0.00579690 0.08177285 -0.01822715 0 0 0 0
-0.01420540 -0.04324905 -0.05675095 0 0 0 0
0.00916931 -0.02040480 -0.07959520 0 0 0 0
-0.07690359 0.03550977 -0.02309641 0 0 0 0
0.06869584 -0.05876337 -0.03130416 0 0 0 0
-0.00061505 -0.09835234 -0.00164766 0 0 0 0
-0.03938450 0.05384069 0.04615930 0 0 0 0
0.08373102 0.00588966 -0.01626898 0 0 0 0
0.00932387 -0.06079648 -0.03920352 0 0 0 0
-0.08813077 0.00817509 0.01186923 0 0 0 0
-0.09445771 -0.08470844 0.00554229 0 0 0 0
-0.07088070 -0.02739574 0.02911930 0 0 0 0
0.06239491 0.06510480 -0.03489520 0 0 0 0
-0.00454872 -0.00104702 0.09545128 0 0 0 0
-0.09787875 0.07622293 0.00212125 0 0 0 0
-0.04538047 0.02894140 -0.05461953 0 0 0 0
-0.09430543 -0.00489652 0.00569457 0 0 0 0
-0.02803243 -0.03660413 0.06339587 0 0 0 0
0.06105561 -0.08864000 -0.01136000 0 0 0 0
-0.00542523 0.07826291 -0.02173709 0 0 0 0
0.02587217 0.07475142 -0.02524858 0 0 0 0
-0.05640190 0.05413678 -0.04359809 0 0 0 0
-0.09726108 -0.06596318 -0.00273892 0 0 0 0
-0.09605077 -0.01884236 -0.00394923 0 0 0 0
-0.06411780 -0.04069787 -0.03588220 0 0 0 0
0.01153298 0.05414311 -0.04585690 0 0 0 0
-0.04063051 0.05480398 -0.04519602 0 0 0 0
-0.03741188 -0.00880949 0.06258813 0 0 0 0
0.00958298 0.09530281 -0.00469720 0 0 0 0
0.04691663 0.03427416 -0.05308337 0 0 0 0
0.09531213 -0.03412299 -0.00468787 0 0 0 0
0.09001081 -0.02124759 0.00998919 0 0 0 0
-0.01102823 -0.06397457 -0.03602543 0 0 0 0
-0.00770104 0.00637599 0.09229896 0 0 0 0
-0.07129637 0.06522034 -0.02870363 0 0 0 0
0.00474314 0.03202852 0.06797148 0 0 0 0
0.03494653 -0.09907842 -0.00092158 0 0 0 0
0.09888682 -0.09837168 -0.00111318 0 0 0 0
-0.07361288 0.02253383 -0.02638712 0 0 0 0
0.00661579 -0.09699133 -0.00300867 0 0 0 0
-0.07757268 -0.05066998 0.02242732 0 0 0 0
-0.09057882 0.03458539 -0.00942118 0 0 0 0
0.09046532 0.02391172 -0.00953468 0 0 0 0
0.06096548 0.08914844 0.01085156 0 0 0 0
-0.04081392 0.01729913 -0.05918608 0 0 0 0
-0.03370050 0.06814595 0.03185406 0 0 0 0
0.07687642 0.05955672 0.02312359 0 0 0 0
0.01136588 0.02524471 -0.07475530 0 0 0 0
-0.03468436 0.01155634 -0.06531565 0 0 0 0
0.09547739 0.08435863 -0.00452261 0 0 0 0
0.09685681 -0.03029629 -0.00314319 0 0 0 0
-0.01966777 -0.02837974 0.07162026 0 0 0 0
0.00831340 -0.01501212 -0.08498789 0 0 0 0
0.05223728 0.09630712 -0.00369288 0 0 0 0
0.02570467 -0.09080465 0.00919535 0 0 0 0
0.03427878 -0.09891541 -0.00108458 0 0 0 0
0.06853618 0.08606400 0.01393600 0 0 0 0
0.01815316 -0.08027698 -0.01972302 0 0 0 0
0.08245558 -0.03168181 -0.01754442 0 0 0 0
0.07915004 -0.07097491 -0.02084997 0 0 0 0
-0.03948224 0.07032932 -0.02967068 0 0 0 0
-0.07502332 -0.08010987 -0.01989013 0 0 0 0
0.05276083 -0.01831618 -0.04723917 0 0 0 0
0.01725775 0.07312746 0.02687254 0 0 0 0
0.05230552 0.06483640 -0.03516360 0 0 0 0
0.06149908 0.00546497 0.03850092 0 0 0 0
-0.02196200 -0.02605649 -0.07394351 0 0 0 0
0.00625775 -0.05679306 -0.04320694 0 0 0 0
-0.08680018 -0.07467040 -0.01319982 0 0 0 0
-0.00030595 -0.05555858 -0.04444142 0 0 0 0
0.02639328 -0.04926600 0.05073401 0 0 0 0
-0.02056843 0.06779234 -0.03220765 0 0 0 0
0.01887897 0.06463887 0.03536113 0 0 0 0
-0.04462832 0.00246284 -0.05537168 0 0 0 0
0.01677598 0.02503387 -0.07496613 0 0 0 0
0.00933246 -0.00600915 -0.09066754 0 0 0 0
-0.04037538 -0.03940073 0.05962462 0 0 0 0
0.02113116 0.05312222 -0.04687778 0 0 0 0
0.05562223 0.07383344 -0.02616656 0 0 0 0
-0.01159648 0.04497938 0.05502062 0 0 0 0
-0.05081115 0.06249766 -0.03750234 0 0 0 0
-0.08169115 -0.07295272 0.01830885 0 0 0 0
-0.06773164 0.01663707 -0.03226836 0 0 0 0
-0.01682789 -0.01463806 -0.08317211 0 0 0 0
-0.03236061 -0.03716473 -0.06283527 0 0 0 0
-0.04696341 0.09729394 0.00270606 0 0 0 0
0.06819041 -0.05763053 -0.03180959 0 0 0 0
-0.06358299 -0.04216002 0.03641701 0 0 0 0
-0.04382532 -0.03604860 0.05617468 0 0 0 0
0.07518464 -0.01344386 -0.02481536 0 0 0 0
0.09592644 -0.04083465 0.00407356 0 0 0 0
-0.08839269 -0.05296701 -0.01160731 0 0 0 0
0.01439954 0.04971416 0.05028584 0 0 0 0
0.01585147 0.07473285 -0.02526714 0 0 0 0
-0.07049881 0.05650843 -0.02950119 0 0 0 0
-0.01076435 0.08591108 -0.01408892 0 0 0 0
-0.08993942 0.08118740 -0.01006059 0 0 0 0
-0.08421914 0.03841333 0.01578085 0 0 0 0
-0.02921408 0.04838476 -0.05161524 0 0 0 0
0.03470559 -0.08018672 0.01981328 0 0 0 0
0.05036567 0.05588373 -0.04411627 0 0 0 0
-0.08474537 -0.01520026 -0.01525463 0 0 0 0
0.00015759 -0.08641838 -0.01358162 0 0 0 0
0.03713881 0.08417423 0.01582577 0 0 0 0
-0.00768097 0.07836799 -0.02163201 0 0 0 0
-0.08221271 -0.00242179 -0.01778729 0 0 0 0
-0.04209270 0.07183236 -0.02816764 0 0 0 0
0.06678222 -0.03749779 -0.03321778 0 0 0 0
-0.06437175 0.03784407 -0.03562826 0 0 0 0
-0.04058731 -0.08252831 -0.01747170 0 0 0 0
0.01312437 -0.05974667 -0.04025333 0 0 0 0
0.01253069 -0.06532679 0.03467321 0 0 0 0
-0.00259080 0.01643426 -0.08356573 0 0 0 0
0.02799637 -0.08195308 -0.01804692 0 0 0 0
-0.08243551 -0.09593568 -0.00406432 0 0 0 0
0.09811188 0.08950146 -0.00188812 0 0 0 0
-0.06989366 -0.08039051 0.01960950 0 0 0 0
0.05172034 -0.04646783 0.04827966 0 0 0 0
0.06630280 -0.07989241 -0.02010759 0 0 0 0
-0.06936953 0.06328457 0.03063047 0 0 0 0
0.02733875 0.09501277 -0.00498723 0 0 0 0
0.06716506 -0.05463232 -0.03283494 0 0 0 0
0.03622424 0.05981792 -0.04018208 0 0 0 0
0.08423908 -0.09301069 -0.00698931 0 0 0 0
-0.07878017 -0.08295647 0.01704353 0 0 0 0
-0.01161621 0.07696523 0.02303478 0 0 0 0
0.02288585 0.03843992 -0.06156008 0 0 0 0
0.02681265 0.06719367 -0.03280633 0 0 0 0
0.06329320 -0.02794391 0.03670680 0 0 0 0
-0.03372760 -0.04894657 -0.05105343 0 0 0 0
0.01054084 -0.07492568 -0.02507432 0 0 0 0
0.04842156 -0.02784969 -0.05157844 0 0 0 0
0.07997055 0.08468194 -0.01531807 0 0 0 0
-0.06734013 0.08379570 0.01620430 0 0 0 0
0.05752441 -0.08784379 0.01215621 0 0 0 0
0.02486056 -0.03849841 -0.06150159 0 0 0 0
0.06939445 0.05458555 -0.03060554 0 0 0 0
0.01536339 0.01044137 0.08463661 0 0 0 0
0.00284310 -0.08372776 -0.01627224 0 0 0 0
0.06818879 0.09722675 -0.00277324 0 0 0 0
0.08987321 0.04100760 -0.01012679 0 0 0 0
0.00576758 0.05304841 -0.04695159 0 0 0 0
-0.04388513 0.03373608 -0.05611487 0 0 0 0
0.01306052 0.00996130 0.08693948 0 0 0 0
0.05030525 0.04071793 -0.04969475 0 0 0 0
-0.08410467 0.08157270 -0.01589533 0 0 0 0
0.06128190 -0.03034326 -0.03871810 0 0 0 0
0.03328175 0.06620967 -0.03379033 0 0 0 0
0.01704689 -0.03142305 0.06857695 0 0 0 0
0.00074010 -0.09525229 -0.00474771 0 0 0 0
-0.00747460 -0.01289064 0.08710936 0 0 0 0
-0.09785642 -0.05325948 0.00214357 0 0 0 0
-0.00983445 -0.07950306 0.02049694 0 0 0 0
0.02854767 0.01668425 0.07145233 0 0 0 0
-0.09982191 -0.03947624 -0.00017809 0 0 0 0
-0.01270804 0.05850973 -0.04149027 0 0 0 0
0.01224580 -0.08504019 0.01495981 0 0 0 0
0.02740240 0.02763412 0.07236587 0 0 0 0
-0.02132346 -0.05146433 0.04853567 0 0 0 0
0.04122781 0.08200046 -0.01799954 0 0 0 0
-0.08582208 -0.05355794 -0.01417792 0 0 0 0
-0.09573809 -0.09316223 0.00426191 0 0 0 0
-0.08707513 0.00135589 0.01292487 0 0 0 0
-0.01416053 -0.08708249 -0.01291751 0 0 0 0
-0.02429609 -0.07431924 -0.02568076 0 0 0 0
0.04982185 0.08527000 0.01473000 0 0 0 0
-0.07837263 0.07850870 -0.02149130 0 0 0 0
-0.01246542 -0.03298167 -0.06701833 0 0 0 0
-0.09833404 -0.09208833 0.00166595 0 0 0 0
-0.07599501 -0.03030247 -0.02400498 0 0 0 0
0.00031312 -0.02442993 -0.07557007 0 0 0 0
0.09497267 -0.01585064 -0.00502733 0 0 0 0
0.05915845 0.05388199 0.04084155 0 0 0 0
-0.02424633 0.08075498 -0.01924502 0 0 0 0
0.04186833 0.02680471 -0.05813167 0 0 0 0
0.05604335 -0.04343851 -0.04395666 0 0 0 0
0.09419011 -0.00670844 -0.00580989 0 0 0 0
-0.03001703 0.03769154 0.06230845 0 0 0 0
0.02685622 0.09871800 -0.00128199 0 0 0 0
0.03029558 0.07021561 0.02978439 0 0 0 0
-0.07922221 0.01622145 -0.02077779 0 0 0 0
0.06937839 -0.09500948 -0.00499053 0 0 0 0
-0.04186421 -0.02175110 0.05813579 0 0 0 0
-0.04645092 -0.07659475 0.02340525 0 0 0 0
0.07918231 -0.06609849 -0.02081769 0 0 0 0
0.04041244 -0.04784476 -0.05215525 0 0 0 0
0.00543224 -0.05879821 -0.04120179 0 0 0 0
0.09044912 -0.09731080 0.00268920 0 0 0 0
-0.08527125 -0.02000637 0.01472874 0 0 0 0
0.08211774 -0.01154592 0.01788226 0 0 0 0
-0.07839728 0.09356232 -0.00643769 0 0 0 0
-0.06410761 0.03069350 -0.03589239 0 0 0 0
-0.06484395 0.04942181 -0.03515606 0 0 0 0
0.00323246 0.04948889 -0.05051110 0 0 0 0
0.02177087 -0.03843071 0.06156929 0 0 0 0
-0.05583429 -0.04931516 -0.04416570 0 0 0 0
-0.00712823 -0.08721390 0.01278610 0 0 0 0
0.04402361 0.03572778 -0.05597638 0 0 0 0
-0.07632390 -0.05918412 0.02367611 0 0 0 0
-0.09180268 0.08312733 -0.00819732 0 0 0 0
-0.07092496 -0.03770894 0.02907504 0 0 0 0
-0.00365113 0.09838376 -0.00161624 0 0 0 0
0.02183012 0.05088755 -0.04911245 0 0 0 0
-0.02323622 -0.05768077 0.04231923 0 0 0 0
-0.03776826 0.03532265 0.06223174 0 0 0 0
0.05968242 -0.06095675 0.03904326 0 0 0 0
0.00582398 -0.09558100 -0.00441901 0 0 0 0
-0.04729870 -0.04216157 0.05270130 0 0 0 0
0.06059448 0.09452662 -0.00547338 0 0 0 0
0.02230294 -0.00813745 -0.07769705 0 0 0 0
0.03757735 0.09081499 0.00918501 0 0 0 0
0.00891303 -0.00464368 -0.09108697 0 0 0 0
-0.01932372 0.07241191 0.02758809 0 0 0 0
0.04265115 -0.07805403 -0.02194596 0 0 0 0
-0.03475141 -0.08565506 -0.01434494 0 0 0 0
0.09503137 -0.09044849 0.00496862 0 0 0 0
-0.08993945 -0.05834737 -0.01006055 0 0 0 0
0.08196556 -0.09855320 -0.00144681 0 0 0 0
0.09836960 -0.04262169 0.00162714 0 0 0 0
0.06078104 -0.02719173 0.03921896 0 0 0 0
0.08161189 0.03169766 -0.01838812 0 0 0 0
-0.04313023 0.02749409 -0.05686977 0 0 0 0
0.05311250 -0.09018224 -0.00981776 0 0 0 0
0.01645545 0.01344252 -0.08354455 0 0 0 0
0.09377204 0.03869579 -0.00622796 0 0 0 0
-0.04627857 -0.09275360 -0.00724639 0 0 0 0
-0.08055737 0.04198081 -0.01944263 0 0 0 0
0.01604861 -0.00066091 -0.08395139 0 0 0 0
0.00846268 -0.00954313 -0.09045687 0 0 0 0
-0.07096933 -0.05566160 -0.02903067 0 0 0 0
0.00871840 -0.05352902 -0.04647098 0 0 0 0
-0.08823457 -0.01765373 -0.01176543 0 0 0 0
0.01342209 -0.02110271 0.07889729 0 0 0 0
-0.07051203 0.07465450 -0.02534550 0 0 0 0
-0.02811079 0.03457712 -0.06542288 0 0 0 0
-0.03480337 -0.05614287 0.04385713 0 0 0 0
0.03268248 -0.09499355 -0.00500644 0 0 0 0
0.04773129 0.03904042 -0.05226871 0 0 0 0
-0.06388393 -0.04258258 -0.03611607 0 0 0 0
-0.06014755 0.08677611 -0.01322389 0 0 0 0
-0.04668010 0.04617246 -0.05331990 0 0 0 0
0.00850226 -0.01903204 -0.08096796 0 0 0 0
0.02906871 -0.07238619 -0.02761381 0 0 0 0
0.07798079 -0.06893811 -0.02201922 0 0 0 0
0.03131586 -0.00852201 0.06868414 0 0 0 0
0.00381613 0.07891984 -0.02108016 0 0 0 0
0.07948195 0.08389967 -0.01610033 0 0 0 0
0.03587399 0.01317887 -0.06412601 0 0 0 0
-0.01121009 0.01722826 -0.08277174 0 0 0 0
0.02261825 0.02720163 -0.07279838 0 0 0 0
-0.06832001 -0.01481613 -0.03168000 0 0 0 0
0.05770572 0.03733975 -0.04229429 0 0 0 0
-0.00007414 -0.09187548 -0.00812452 0 0 0 0
0.09322760 -0.09639707 0.00360293 0 0 0 0
0.01594628 -0.03978180 -0.06021820 0 0 0 0
0.08785444 0.08804913 -0.01195087 0 0 0 0
0.01256709 -0.02382616 -0.07617384 0 0 0 0
-0.03850371 0.02832516 -0.06149629 0 0 0 0
-0.01303143 0.04353477 -0.05646523 0 0 0 0
0.01399501 0.09933601 -0.00066399 0 0 0 0
-0.08836134 -0.00942539 -0.01163866 0 0 0 0
-0.01746772 0.01753873 0.08246127 0 0 0 0
-0.05240073 -0.02688830 -0.04759928 0 0 0 0
-0.08359344 -0.06011830 -0.01640657 0 0 0 0
-0.03462253 -0.05330396 -0.04669604 0 0 0 0
-0.00644507 -0.05685095 -0.04314905 0 0 0 0
0.00359869 0.04584916 -0.05415084 0 0 0 0
0.09111626 -0.06114624 0.00888374 0 0 0 0
-0.05143281 -0.07621100 -0.02378900 0 0 0 0
0.00823125 0.07888357 -0.02111644 0 0 0 0
-0.01761927 -0.05805679 -0.04194320 0 0 0 0
-0.01965429 0.02415415 0.07584585 0 0 0 0
0.01979955 0.07263920 -0.02736080 0 0 0 0
-0.02683961 -0.07245312 -0.02754688 0 0 0 0
0.04123522 -0.09125899 -0.00874102 0 0 0 0
-0.01365739 0.00275015 -0.08634261 0 0 0 0
-0.03689343 -0.05453920 -0.04546080 0 0 0 0
-0.08682190 -0.06243219 -0.01317810 0 0 0 0
-0.04103305 0.07885540 -0.02114460 0 0 0 0
-0.00187052 -0.04744925 -0.05255075 0 0 0 0
0.06025288 -0.06540827 -0.03459174 0 0 0 0
0.02154551 -0.06273159 0.03726841 0 0 0 0
0.07254524 -0.04490350 -0.02745476 0 0 0 0
-0.00816015 0.01054266 0.08945734 0 0 0 0
0.01536568 -0.04053246 -0.05946754 0 0 0 0
-0.09115928 0.04320398 -0.00884072 0 0 0 0
-0.06056678 0.04480918 -0.03943322 0 0 0 0
-0.00658014 0.07314155 -0.02685845 0 0 0 0
0.04540979 -0.05154440 0.04845560 0 0 0 0
0.06285521 -0.03316016 0.03714479 0 0 0 0
-0.08871603 -0.00974260 -0.01128397 0 0 0 0
-0.06141511 0.08277275 -0.01722725 0 0 0 0
-0.00680347 0.05408283 -0.04591717 0 0 0 0
0.06912539 -0.05778232 -0.03087461 0 0 0 0
-0.09895357 0.00566529 -0.00104643 0 0 0 0
-0.09206804 0.02213876 -0.00793196 0 0 0 0
0.08562215 -0.09168995 -0.00831005 0 0 0 0
-0.06803194 0.09050117 -0.00949884 0 0 0 0
0.00281938 0.08094044 -0.01905956 0 0 0 0
-0.00801963 -0.08545347 0.01454654 0 0 0 0
-0.09954628 0.01917008 -0.00033831 0 0 0 0
-0.08363967 0.09526457 0.00473543 0 0 0 0
-0.00517400 -0.04509554 -0.05490446 0 0 0 0
0.08745427 0.01160340 -0.01254572 0 0 0 0
0.00726807 0.03933272 0.06066728 0 0 0 0
0.05112654 0.04122026 -0.04887346 0 0 0 0
-0.00710811 -0.08107977 -0.01892024 0 0 0 0
-0.02743241 -0.02588344 -0.07256759 0 0 0 0
-0.07271065 -0.06250297 -0.02728936 0 0 0 0
0.08653374 -0.09894905 0.00065927 0 0 0 0
-0.02054451 -0.08990975 -0.01009025 0 0 0 0
0.01285083 -0.02425606 -0.07574394 0 0 0 0
-0.07123607 0.04937868 -0.02876393 0 0 0 0
0.05638162 -0.05644688 0.04355312 0 0 0 0
-0.03800461 0.00774850 -0.06199539 0 0 0 0
0.05590349 0.06077483 0.03922516 0 0 0 0
-0.09859370 0.01466132 0.00125284 0 0 0 0
0.08256431 -0.00861447 -0.01743569 0 0 0 0
0.07131828 -0.09351961 -0.00648038 0 0 0 0
0.05428633 0.05754802 -0.04245198 0 0 0 0
0.02439787 -0.00231226 0.07560213 0 0 0 0
-0.09752510 0.01387109 -0.00247489 0 0 0 0
-0.03014912 -0.08787499 -0.01212502 0 0 0 0
-0.03989431 0.01410670 -0.06010569 0 0 0 0
0.02479122 -0.00909397 -0.07520878 0 0 0 0
-0.02409285 -0.04521880 0.05478121 0 0 0 0
0.06509464 -0.08690597 -0.01309403 0 0 0 0
-0.01814299 0.01904181 -0.08095819 0 0 0 0
-0.00470614 -0.06573080 0.03426921 0 0 0 0
-0.03586582 0.09243535 0.00756465 0 0 0 0
-0.08192991 -0.07630292 -0.01807009 0 0 0 0
-0.06452139 -0.08653987 -0.01346013 0 0 0 0
-0.05824580 -0.08352382 0.01647618 0 0 0 0
0.06028232 -0.00302121 0.03971768 0 0 0 0
0.06244380 0.08524545 -0.01475455 0 0 0 0
0.01489209 0.03299286 -0.06700714 0 0 0 0
-0.03270556 0.09144582 0.00855418 0 0 0 0
-0.02166858 -0.02500870 -0.07499130 0 0 0 0
0.03281193 -0.00643193 -0.06718807 0 0 0 0
-0.03087282 0.07796468 -0.02203532 0 0 0 0
-0.08471540 0.05509285 0.01528460 0 0 0 0
0.02171758 0.07580705 -0.02419295 0 0 0 0
0.03699405 -0.04229177 -0.05770823 0 0 0 0
-0.05161358 0.08095454 0.01904547 0 0 0 0
-0.04823671 0.09862714 0.00119698 0 0 0 0
-0.07211253 0.09867212 0.00112183 0 0 0 0
-0.03298514 0.05535964 0.04464037 0 0 0 0
0.08640037 0.01803836 -0.01359964 0 0 0 0
0.04782750 -0.08328959 0.01671041 0 0 0 0
0.03751073 0.06819312 -0.03180688 0 0 0 0
0.00953460 -0.09856442 -0.00143558 0 0 0 0
-0.04944815 -0.06903034 -0.03096966 0 0 0 0
-0.00641207 -0.02232059 -0.07767941 0 0 0 0
-0.00321790 -0.00321217 -0.09678210 0 0 0 0
0.07755989 0.00581484 -0.02244011 0 0 0 0
-0.00522254 -0.04017252 -0.05982747 0 0 0 0
-0.01063729 -0.09867996 -0.00132004 0 0 0 0
0.08395449 0.06176921 -0.01604551 0 0 0 0
0.09624101 -0.05678220 -0.00375899 0 0 0 0
0.02282606 0.05096637 -0.04903362 0 0 0 0
0.07137607 0.07359973 -0.02640027 0 0 0 0
-0.04917104 -0.09542586 0.00457415 0 0 0 0
0.09224188 -0.08224358 -0.00775812 0 0 0 0
-0.08434237 0.07810151 -0.01565764 0 0 0 0
-0.02277025 -0.09749752 0.00250248 0 0 0 0
0.07318662 0.04098850 -0.02681337 0 0 0 0
-0.03643876 0.03658926 -0.06341074 0 0 0 0
0.05176282 0.09617314 0.00382686 0 0 0 0
-0.05584081 0.01889124 -0.04415919 0 0 0 0
-0.05413599 0.02038538 -0.04586401 0 0 0 0
-0.07983704 0.08850875 -0.01149125 0 0 0 0
-0.09346502 0.09050330 0.00653498 0 0 0 0
0.04389372 -0.05542999 0.04457001 0 0 0 0
-0.02313124 -0.02136507 0.07686876 0 0 0 0
-0.05939710 0.06809938 -0.03190062 0 0 0 0
-0.07922634 -0.02617270 -0.02077366 0 0 0 0
-0.08281387 0.05998267 -0.01718612 0 0 0 0
0.04777477 -0.06205156 0.03794844 0 0 0 0
-0.01674242 0.02611720 -0.07388280 0 0 0 0
-0.09176588 -0.07976856 -0.00823412 0 0 0 0
-0.02732141 0.08496693 0.01503307 0 0 0 0
-0.07238376 0.07432663 0.02567337 0 0 0 0
0.05439926 -0.08958817 0.01041183 0 0 0 0
-0.01895694 -0.04615375 0.05384625 0 0 0 0
0.05384246 -0.05331516 0.04615754 0 0 0 0
0.06023670 0.00355959 -0.03976329 0 0 0 0
-0.07405119 -0.08708649 0.01291351 0 0 0 0
-0.02908204 -0.09007262 -0.00992738 0 0 0 0
0.07838779 0.01529855 -0.02161221 0 0 0 0
-0.03084199 -0.08568536 0.01431464 0 0 0 0
-0.01077313 -0.08942176 -0.01057824 0 0 0 0
-0.02238003 -0.04016013 -0.05983987 0 0 0 0
-0.05481966 -0.07424354 0.02575646 0 0 0 0
-0.06912798 0.00901970 0.03087202 0 0 0 0
-0.03825639 -0.06366666 -0.03633334 0 0 0 0
0.09938645 -0.00872820 -0.00007134 0 0 0 0
0.04126320 0.04364906 0.05635095 0 0 0 0
-0.09350284 -0.03106921 -0.00649716 0 0 0 0
-0.04456747 -0.09827994 -0.00172007 0 0 0 0
-0.01379564 0.00797163 -0.08620436 0 0 0 0
0.01536388 0.09580205 -0.00419795 0 0 0 0
0.00465583 -0.06204246 -0.03795753 0 0 0 0
-0.02626261 0.00203633 0.07373739 0 0 0 0
-0.09040464 -0.09823085 0.00176915 0 0 0 0
0.03809275 0.07916426 0.02083574 0 0 0 0
-0.02659043 -0.01947918 0.07340957 0 0 0 0
-0.01596622 0.07912090 -0.02087909 0 0 0 0
0.08077665 -0.01133825 0.01922335 0 0 0 0
0.06463973 0.01929197 -0.03536027 0 0 0 0
-0.02829026 -0.07066876 -0.02933124 0 0 0 0
-0.07472025 -0.09877442 -0.00122558 0 0 0 0
-0.06941839 -0.06548063 -0.03058160 0 0 0 0
-0.01748370 0.08361132 0.01638868 0 0 0 0
-0.01003545 0.01251730 0.08748270 0 0 0 0
-0.00957317 0.04630840 0.05369160 0 0 0 0
0.07810570 0.07049984 -0.02189429 0 0 0 0
-0.04644714 -0.02080594 0.05355286 0 0 0 0
-0.04316061 0.05596850 -0.04403150 0 0 0 0
0.05162097 -0.00545555 0.04837903 0 0 0 0
-0.00453852 0.05309485 0.04690515 0 0 0 0
-0.05900921 0.06052161 -0.03947839 0 0 0 0
-0.08953147 0.05303841 0.01046853 0 0 0 0
-0.06391664 -0.07286747 0.02713253 0 0 0 0
0.07687934 0.00537957 -0.02312066 0 0 0 0
0.04607753 0.00600932 -0.05392247 0 0 0 0
-0.06473376 0.04740847 -0.03526624 0 0 0 0
-0.03677331 0.03506672 -0.06322668 0 0 0 0
0.02479971 -0.08132312 -0.01867688 0 0 0 0
-0.08903664 -0.07800484 -0.01096336 0 0 0 0
0.01437963 0.01448073 -0.08551927 0 0 0 0
-0.03320620 0.09503560 -0.00496440 0 0 0 0
-0.00973824 0.03378762 0.06621238 0 0 0 0
-0.07722645 0.03092631 -0.02277356 0 0 0 0
0.04436246 0.06233401 -0.03766599 0 0 0 0
-0.05925060 -0.08046699 0.01953302 0 0 0 0
-0.00396315 0.04871511 -0.05128489 0 0 0 0
-0.08528855 0.03374701 -0.01471145 0 0 0 0
-0.00783632 0.09306390 -0.00693610 0 0 0 0
0.06586814 -0.06918534 0.03081466 0 0 0 0
-0.04070708 -0.02438528 0.05929292 0 0 0 0
-0.02465632 -0.01453938 -0.07534368 0 0 0 0
-0.02375316 0.07705325 -0.02294675 0 0 0 0
0.01736446 0.09169842 0.00830158 0 0 0 0
-0.00483556 -0.01962044 -0.08037956 0 0 0 0
0.01282405 -0.06101508 -0.03898492 0 0 0 0
-0.00518328 0.08181299 -0.01818701 0 0 0 0
0.07559922 -0.02251476 -0.02440077 0 0 0 0
0.02863095 -0.04571633 -0.05428367 0 0 0 0
0.09286059 -0.08868292 -0.00713941 0 0 0 0
0.05496936 0.09442011 -0.00557990 0 0 0 0
-0.01968705 -0.08655627 -0.01344373 0 0 0 0
0.07573268 -0.03532215 -0.02426732 0 0 0 0
0.09138924 0.09797880 -0.00202120 0 0 0 0
-0.07497133 0.05724948 0.02502868 0 0 0 0
0.09637804 0.00902774 -0.00362196 0 0 0 0
0.05554304 0.09382593 -0.00617407 0 0 0 0
0.03202174 -0.06395821 -0.03604179 0 0 0 0
-0.09513406 -0.03910812 -0.00486594 0 0 0 0
-0.07248162 -0.08244212 0.01755787 0 0 0 0
-0.06018151 -0.09624095 -0.00375906 0 0 0 0
0.00344898 0.02092650 0.07907350 0 0 0 0
0.08378340 -0.04174349 0.01621659 0 0 0 0
0.06224405 -0.01242422 -0.03775594 0 0 0 0
0.01648363 0.09013595 -0.00986406 0 0 0 0
0.03586924 0.07779683 0.02220317 0 0 0 0
-0.06354950 -0.08818694 -0.01181306 0 0 0 0
-0.03252830 -0.04353667 0.05646333 0 0 0 0
0.00644452 -0.01275208 -0.08724792 0 0 0 0
0.07087294 -0.07745580 -0.02254420 0 0 0 0
-0.00481778 -0.06903262 -0.03096738 0 0 0 0
0.08300807 0.07014855 -0.01699194 0 0 0 0
-0.00683989 0.02459724 -0.07540277 0 0 0 0
-0.00316764 0.08743025 -0.01256976 0 0 0 0
-0.01102133 -0.09909572 0.00041428 0 0 0 0
0.08658410 -0.00594687 -0.01341591 0 0 0 0
-0.06320365 -0.05638457 -0.03679635 0 0 0 0
0.06844402 -0.06339885 -0.03155598 0 0 0 0
-0.03194365 -0.09290837 -0.00709163 0 0 0 0
-0.01622329 -0.07464317 -0.02535683 0 0 0 0
-0.01258095 -0.01300507 -0.08699493 0 0 0 0
-0.06112112 0.06942946 -0.03057054 0 0 0 0
-0.06400319 -0.08062832 -0.01937168 0 0 0 0
-0.07788899 -0.02564589 -0.02211101 0 0 0 0
0.03998725 -0.07318776 0.02681224 0 0 0 0
0.00846728 0.03477316 -0.06522684 0 0 0 0
-0.07600255 0.04739522 -0.02399745 0 0 0 0
0.04853902 -0.06498005 -0.03501995 0 0 0 0
-0.04754757 -0.04917631 0.05082370 0 0 0 0
0.06121920 0.06817634 -0.03182365 0 0 0 0
-0.06003835 -0.09199281 0.00800719 0 0 0 0
-0.08763011 -0.01883653 -0.01236989 0 0 0 0
-0.09091974 0.03830139 -0.00908026 0 0 0 0
-0.08860854 -0.06032117 -0.01139146 0 0 0 0
0.00241259 0.02889819 0.07110181 0 0 0 0
-0.00364911 -0.04220412 -0.05779588 0 0 0 0
-0.09748217 -0.05770208 -0.00251783 0 0 0 0
0.07817186 0.00489618 -0.02182814 0 0 0 0
-0.02718635 0.06464603 -0.03535397 0 0 0 0
-0.09087341 0.09550260 0.00449741 0 0 0 0
0.01644910 0.04376074 -0.05623926 0 0 0 0
0.04171311 -0.04129767 -0.05828689 0 0 0 0
0.04445264 -0.05542510 -0.04457491 0 0 0 0
-0.03088599 0.05706693 0.04293307 0 0 0 0
-0.08153518 -0.06545420 0.01846482 0 0 0 0
-0.00635843 0.09722150 -0.00277850 0 0 0 0
-0.06452221 0.02334303 -0.03547779 0 0 0 0
-0.02429675 -0.03867776 -0.06132224 0 0 0 0
-0.02366984 0.00614919 -0.07633017 0 0 0 0
0.06684013 0.03396418 0.03315986 0 0 0 0
0.07459002 -0.05552421 -0.02540998 0 0 0 0
-0.06153659 0.06820253 -0.03179748 0 0 0 0
-0.09107149 0.00122884 -0.00892851 0 0 0 0
-0.01033759 0.06000610 -0.03999390 0 0 0 0
-0.00968343 0.07382302 0.02617698 0 0 0 0
-0.05614207 -0.03445616 -0.04385794 0 0 0 0
-0.07766756 -0.01298010 0.02233244 0 0 0 0
-0.03224749 0.06548229 -0.03451771 0 0 0 0
0.01846460 -0.09169746 -0.00830254 0 0 0 0
0.08799596 0.05088293 -0.01200404 0 0 0 0
-0.04346622 -0.07354326 -0.02645674 0 0 0 0
-0.09693704 0.00114488 0.00306297 0 0 0 0
0.03852104 -0.02453472 0.06147896 0 0 0 0
0.01375740 0.02915698 -0.07084303 0 0 0 0
0.02351134 0.06031602 -0.03968398 0 0 0 0
0.04208585 -0.03537142 -0.05791415 0 0 0 0
0.00876075 0.02699879 -0.07300121 0 0 0 0
0.08845750 -0.02034994 -0.01154250 0 0 0 0
0.03736690 -0.00939537 -0.06263310 0 0 0 0
0.02965644 -0.08987492 0.01012508 0 0 0 0
-0.00361827 0.07665510 0.02334490 0 0 0 0
0.08076524 -0.09550864 -0.00449136 0 0 0 0
0.08673151 0.02676147 -0.01326849 0 0 0 0
-0.03332267 0.03030356 -0.06667732 0 0 0 0
0.02950966 -0.06536718 0.03463283 0 0 0 0
-0.09494956 -0.07741781 0.00505045 0 0 0 0
0.05496687 0.07494932 -0.02505068 0 0 0 0
-0.05552075 -0.02653348 -0.04447925 0 0 0 0
0.00790187 -0.07659239 -0.02340762 0 0 0 0
-0.02529168 -0.07265201 0.02734799 0 0 0 0
-0.05140916 -0.04764675 0.04859084 0 0 0 0
0.08533871 -0.00953289 -0.01466129 0 0 0 0
-0.03186785 0.03276805 -0.06723195 0 0 0 0
-0.03013977 0.05846794 0.04153206 0 0 0 0
0.06829560 0.06539548 0.03170440 0 0 0 0
-0.06507582 0.03464559 0.03492418 0 0 0 0
-0.03688197 -0.02249549 0.06311803 0 0 0 0
-0.02310406 -0.07217030 0.02782970 0 0 0 0
0.01677841 0.03857639 0.06142362 0 0 0 0
0.03463805 -0.06319182 0.03680819 0 0 0 0
-0.05636886 0.05651787 -0.04348213 0 0 0 0
-0.08286186 -0.09213241 0.00786758 0 0 0 0
-0.07691987 -0.03227383 -0.02308013 0 0 0 0
-0.07258186 -0.09872814 -0.00127186 0 0 0 0
-0.03263247 0.07083657 0.02916342 0 0 0 0
0.05189559 -0.08907052 0.01092948 0 0 0 0
-0.04636902 0.00991991 0.05363099 0 0 0 0
0.07513414 -0.08160959 0.01839041 0 0 0 0
-0.00022683 -0.08543232 0.01456768 0 0 0 0
0.02531759 0.08585405 0.01414595 0 0 0 0
-0.00385219 -0.07710336 0.02289664 0 0 0 0
-0.01819578 0.03727072 0.06272928 0 0 0 0
0.08272506 0.02030439 -0.01727494 0 0 0 0
0.01969773 0.01837789 0.08030227 0 0 0 0
0.02282546 0.06074997 -0.03925002 0 0 0 0
-0.04177463 0.08528648 0.01471352 0 0 0 0
0.02280656 0.07446824 -0.02553176 0 0 0 0
0.03083024 0.00501677 -0.06916976 0 0 0 0
0.07452156 -0.01510617 -0.02547845 0 0 0 0
-0.02477382 -0.02359466 0.07522618 0 0 0 0
-0.09779295 -0.01135633 0.00220705 0 0 0 0
0.00032189 0.07018978 -0.02981022 0 0 0 0
0.05806052 0.01642977 0.04193949 0 0 0 0
0.06054002 0.07568425 0.02431575 0 0 0 0
0.01735214 0.07857977 0.02142023 0 0 0 0
0.06384368 -0.04201324 -0.03615632 0 0 0 0
-0.03860282 0.08582297 -0.01417703 0 0 0 0
0.06545813 -0.04330256 0.03454187 0 0 0 0
0.03444107 -0.09668662 -0.00331338 0 0 0 0
-0.09919472 0.01739866 -0.00080529 0 0 0 0
-0.02630452 0.00257652 0.07369547 0 0 0 0
0.03172099 0.09636907 -0.00363093 0 0 0 0
0.06968631 -0.06311001 0.03031369 0 0 0 0
0.00749531 0.00073948 0.09250470 0 0 0 0
0.08247850 -0.05190108 -0.01752150 0 0 0 0
0.00597044 -0.08829446 0.01170553 0 0 0 0
0.09596535 0.07868199 0.00403465 0 0 0 0
0.06439762 -0.02192514 0.03560238 0 0 0 0
-0.04964284 -0.04948419 -0.05035716 0 0 0 0
0.09124224 -0.02665172 0.00875777 0 0 0 0
-0.04991937 -0.03127316 -0.05008063 0 0 0 0
-0.05222799 0.09404275 -0.00595725 0 0 0 0
0.05051225 -0.08234771 -0.01765230 0 0 0 0
-0.07766025 -0.07046507 -0.02233975 0 0 0 0
-0.07439636 -0.09784698 0.00215302 0 0 0 0
0.05793099 -0.06013743 -0.03986257 0 0 0 0
-0.07550670 -0.01412769 -0.02449330 0 0 0 0
-0.01996453 0.05487364 0.04512636 0 0 0 0
-0.06331428 0.09581088 -0.00418912 0 0 0 0
0.04823065 -0.02069855 0.05176935 0 0 0 0
-0.01433589 0.09530047 -0.00469953 0 0 0 0
-0.09308238 0.06357956 -0.00691762 0 0 0 0
-0.06517514 0.00664578 -0.03482486 0 0 0 0
-0.04354837 -0.09549998 -0.00450002 0 0 0 0
0.04745549 -0.02134444 -0.05254451 0 0 0 0
0.00679993 0.07757091 0.02242909 0 0 0 0
-0.08677472 -0.06477641 0.01322528 0 0 0 0
-0.06659404 0.06957825 0.03042175 0 0 0 0
-0.03165939 -0.06538279 0.03461721 0 0 0 0
0.03526607 0.07071085 -0.02928916 0 0 0 0
-0.01653691 0.08454199 -0.01545801 0 0 0 0
-0.08771788 -0.04709247 -0.01228212 0 0 0 0
-0.06803174 -0.07260026 0.02739974 0 0 0 0
-0.02041720 -0.05610777 -0.04389223 0 0 0 0
0.01480587 0.03651608 -0.06348392 0 0 0 0
-0.05788253 0.06739550 -0.03260450 0 0 0 0
0.03743545 0.06845021 0.03154979 0 0 0 0
0.05705364 -0.09406979 0.00593022 0 0 0 0
0.06684764 -0.00343150 -0.03315236 0 0 0 0
0.05506820 0.00329309 0.04493180 0 0 0 0
-0.04585607 0.04485290 0.05414393 0 0 0 0
0.09367795 -0.09508274 -0.00491725 0 0 0 0
-0.08891628 -0.08787739 -0.01108372 0 0 0 0
-0.09014064 0.01334689 -0.00985936 0 0 0 0
0.06914791 -0.09494640 -0.00505360 0 0 0 0
0.00743824 0.02191885 0.07808115 0 0 0 0
-0.00631388 -0.07247471 0.02752529 0 0 0 0
0.09895919 0.08122734 0.00064234 0 0 0 0
-0.00528625 -0.00937347 -0.09062653 0 0 0 0
0.06322708 -0.06394119 -0.03605881 0 0 0 0
-0.08900209 -0.04682346 -0.01099791 0 0 0 0
0.06391613 0.06553962 -0.03446037 0 0 0 0
0.08807708 -0.00192619 0.01192291 0 0 0 0
0.01144877 0.03903383 0.06096617 0 0 0 0
0.02165795 -0.06283876 -0.03716124 0 0 0 0
-0.06620039 0.03107020 0.03379961 0 0 0 0
-0.00792575 0.07051601 0.02948399 0 0 0 0
0.03636391 -0.06894566 -0.03105434 0 0 0 0
-0.07010178 -0.09803148 -0.00196851 0 0 0 0
0.09053864 -0.06031648 0.00946137 0 0 0 0
-0.09475959 0.08006640 -0.00524041 0 0 0 0
0.05642225 -0.09950131 -0.00049869 0 0 0 0
0.01673843 0.03590635 0.06409366 0 0 0 0
-0.05822394 0.05252330 -0.04177606 0 0 0 0
-0.05872480 -0.08490238 0.01509762 0 0 0 0
0.02402124 0.04183265 0.05816735 0 0 0 0
-0.00046607 -0.06321494 0.03678506 0 0 0 0
-0.00413459 -0.02389446 0.07610554 0 0 0 0
-0.05210445 0.02685304 -0.04789554 0 0 0 0
0.06711816 -0.07022247 0.02977752 0 0 0 0
-0.00423237 0.08957364 -0.01042635 0 0 0 0
0.00021220 0.03364194 -0.06635806 0 0 0 0
0.07449981 0.02215605 0.02550019 0 0 0 0
0.06910494 -0.03862620 0.03089506 0 0 0 0
0.08671717 -0.07284953 -0.01328284 0 0 0 0
0.02943525 -0.07700310 -0.02299690 0 0 0 0
-0.02920314 -0.05009832 -0.04990168 0 0 0 0
-0.03308313 0.04062212 0.05937788 0 0 0 0
0.00738870 -0.01990454 -0.08009546 0 0 0 0
-0.05417062 0.09881702 0.00087981 0 0 0 0
0.05177730 0.08394687 0.01605313 0 0 0 0
-0.06505960 -0.02189492 -0.03494040 0 0 0 0
0.02774747 -0.08716188 0.01283811 0 0 0 0
0.02282145 0.06681468 -0.03318531 0 0 0 0
0.01224109 0.02592896 -0.07407104 0 0 0 0
-0.04193965 0.01913637 -0.05806035 0 0 0 0
-0.07427718 0.05757285 -0.02572282 0 0 0 0
0.01995447 0.09749112 0.00250889 0 0 0 0
0.09848037 -0.02283820 0.00144213 0 0 0 0
0.04316908 0.05976040 -0.04023960 0 0 0 0
0.08329251 -0.03437895 -0.01670749 0 0 0 0
-0.02242906 -0.01747003 0.07757095 0 0 0 0
0.09645099 -0.07156421 -0.00354901 0 0 0 0
0.02631989 0.06156704 -0.03843296 0 0 0 0
-0.06615128 -0.01401986 0.03384872 0 0 0 0
0.00105404 -0.01141189 -0.08858811 0 0 0 0
-0.06512678 -0.07174587 -0.02825414 0 0 0 0
-0.03129763 0.01700431 -0.06870237 0 0 0 0
0.04338872 -0.04305593 -0.05661128 0 0 0 0
-0.08924346 0.00373558 -0.01075653 0 0 0 0
-0.02249711 -0.03909162 -0.06090838 0 0 0 0
-0.01201199 0.03251485 -0.06748515 0 0 0 0
-0.02408853 -0.02781520 -0.07218479 0 0 0 0
0.03949980 -0.04524368 -0.05475632 0 0 0 0
-0.08366106 0.09302558 0.00697442 0 0 0 0
0.03150495 0.00796964 0.06849505 0 0 0 0
0.00356225 0.07141289 0.02858711 0 0 0 0
0.08257600 -0.02951204 -0.01742400 0 0 0 0
-0.00678564 -0.04442263 -0.05557737 0 0 0 0
0.09478034 0.02952727 -0.00521966 0 0 0 0
-0.09625033 -0.04169130 -0.00374967 0 0 0 0
0.05133833 0.01027616 0.04866166 0 0 0 0
0.05910572 0.04354620 -0.04089428 0 0 0 0
0.04783756 0.07632496 -0.02367504 0 0 0 0
-0.06186365 0.05493163 0.03813634 0 0 0 0
-0.00119680 0.05501458 -0.04498542 0 0 0 0
-0.07750202 -0.09144862 0.00855139 0 0 0 0
-0.06050736 -0.07785191 0.02214809 0 0 0 0
-0.03593878 -0.06818644 0.03181357 0 0 0 0
-0.03908502 -0.00659546 -0.06091497 0 0 0 0
-0.01750294 0.05708078 -0.04291923 0 0 0 0
-0.05692036 -0.00651027 0.04307964 0 0 0 0
-0.04956774 0.05789844 -0.04210157 0 0 0 0
-0.07761385 0.06783358 -0.02238616 0 0 0 0
0.03348524 -0.00288262 -0.06651475 0 0 0 0
-0.04085176 -0.07324670 0.02675330 0 0 0 0
-0.00427095 -0.05915946 -0.04084054 0 0 0 0
0.08615374 0.01640182 0.01384626 0 0 0 0
-0.02818453 -0.06132774 -0.03867226 0 0 0 0
-0.03416541 0.06798796 -0.03201204 0 0 0 0
-0.09448122 0.08230023 0.00551878 0 0 0 0
0.06091334 -0.01263656 -0.03908666 0 0 0 0
-0.01387741 -0.08645053 0.01354947 0 0 0 0
-0.00851110 0.05845743 0.04154257 0 0 0 0
-0.03201523 -0.04871206 -0.05128794 0 0 0 0
0.02750720 -0.06904049 0.03095951 0 0 0 0
-0.00925149 0.03075225 -0.06924776 0 0 0 0
-0.01260940 0.02848825 -0.07151175 0 0 0 0
-0.09057706 0.02791117 -0.00942294 0 0 0 0
-0.05521096 -0.08630137 0.01369863 0 0 0 0
-0.06279479 0.09554408 0.00445592 0 0 0 0
0.01998159 -0.06939033 -0.03060966 0 0 0 0
0.05318618 -0.09031187 0.00968813 0 0 0 0
-0.06178534 0.09176610 -0.00823391 0 0 0 0
0.08372427 0.03971245 -0.01627573 0 0 0 0
0.08931071 0.08801733 0.01068930 0 0 0 0
-0.03668643 -0.01436679 0.06331357 0 0 0 0
0.08713429 -0.05317423 -0.01286572 0 0 0 0
0.04389102 0.06891997 -0.03108002 0 0 0 0
-0.05749262 -0.02870362 0.04250737 0 0 0 0
0.00728816 -0.08359917 -0.01640083 0 0 0 0
-0.03924342 -0.05761881 -0.04238119 0 0 0 0
0.03752742 -0.04448260 -0.05551741 0 0 0 0
0.05241792 -0.03985228 -0.04758209 0 0 0 0
-0.00737976 -0.03512380 -0.06487620 0 0 0 0
0.02699810 -0.02963831 0.07036170 0 0 0 0
-0.03615313 -0.09943935 -0.00056065 0 0 0 0
-0.07948399 0.03151707 0.02051601 0 0 0 0
0.00807865 0.05274428 0.04725572 0 0 0 0
-0.06852809 0.03869930 -0.03147191 0 0 0 0
-0.04608776 0.04951002 0.05048998 0 0 0 0
0.01616261 -0.09755918 -0.00244082 0 0 0 0
-0.04984890 -0.07893200 -0.02106799 0 0 0 0
0.03294622 -0.08168088 0.01831912 0 0 0 0
0.06168389 -0.03880133 0.03831611 0 0 0 0
0.05546168 -0.04011203 -0.04453832 0 0 0 0
0.00435474 -0.09363534 0.00636467 0 0 0 0
0.02574920 -0.05419218 -0.04580782 0 0 0 0
-0.06555163 0.02974096 -0.03444837 0 0 0 0
0.03307331 -0.07039548 0.02960452 0 0 0 0
-0.00325424 -0.04353068 0.05646931 0 0 0 0
0.01050199 -0.04545746 -0.05454253 0 0 0 0
0.01178351 0.04089957 -0.05910043 0 0 0 0
0.00352012 0.05666646 -0.04333354 0 0 0 0
0.00300680 -0.01267985 -0.08732015 0 0 0 0
-0.08083940 0.05713319 -0.01916060 0 0 0 0
0.05514073 -0.08994169 -0.01005832 0 0 0 0
-0.09442539 -0.01642412 -0.00557461 0 0 0 0
0.01451117 -0.05152325 0.04847675 0 0 0 0
0.00529449 0.05559953 -0.04440046 0 0 0 0
-0.04419949 0.05299150 0.04700849 0 0 0 0
-0.02902586 0.09462143 -0.00537857 0 0 0 0
-0.07728029 -0.03592009 -0.02271971 0 0 0 0
-0.05475219 0.06827116 -0.03172884 0 0 0 0
0.07197629 -0.01190366 -0.02802371 0 0 0 0
0.01336244 0.02311572 -0.07688428 0 0 0 0
0.05082304 0.06864395 -0.03135605 0 0 0 0
-0.08276359 0.09916846 -0.00083153 0 0 0 0
-0.07121669 -0.07518445 0.02481555 0 0 0 0
-0.02837287 0.03801461 0.06198539 0 0 0 0
-0.03283304 -0.02904958 -0.06716696 0 0 0 0
0.05554049 0.00037910 0.04445950 0 0 0 0
0.07530384 -0.00410319 -0.02469616 0 0 0 0
-0.02914235 0.07883427 -0.02116573 0 0 0 0
0.07997268 0.05486699 -0.02002732 0 0 0 0
0.08094763 -0.00914585 -0.01905237 0 0 0 0
-0.09045209 0.09707876 -0.00292123 0 0 0 0
0.05027813 -0.08233514 0.01766486 0 0 0 0
0.09525109 0.02833932 -0.00474891 0 0 0 0
0.04663531 0.02220027 -0.05336468 0 0 0 0
0.03360602 0.03200756 -0.06639398 0 0 0 0
0.05252631 0.08352311 -0.01647689 0 0 0 0
0.01262562 0.06004725 0.03995275 0 0 0 0
-0.05627356 -0.03072062 0.04372644 0 0 0 0
0.08364885 0.08347984 -0.01635115 0 0 0 0
0.01110133 0.08059452 -0.01940547 0 0 0 0
0.04983725 -0.07008893 -0.02991107 0 0 0 0
0.05333150 0.08213279 -0.01786721 0 0 0 0
0.01253382 -0.04437680 -0.05562320 0 0 0 0
0.09677604 0.08975704 0.00322396 0 0 0 0
0.08275734 -0.06486191 -0.01724266 0 0 0 0
0.08324509 0.04088917 -0.01675491 0 0 0 0
0.01686412 0.03776503 -0.06223498 0 0 0 0
-0.03895188 -0.04321035 -0.05678966 0 0 0 0
-0.00073757 0.08949801 -0.01050199 0 0 0 0
0.00790533 -0.02856885 -0.07143115 0 0 0 0
-0.02642671 -0.09077938 -0.00922062 0 0 0 0
-0.04521384 -0.00020439 -0.05478615 0 0 0 0
-0.09272350 -0.03416162 -0.00727650 0 0 0 0
-0.03796269 -0.04733286 0.05266714 0 0 0 0
-0.03645331 0.08634107 -0.01365893 0 0 0 0
0.00957498 0.06031003 -0.03968997 0 0 0 0
0.06108613 0.08765034 -0.01234966 0 0 0 0
-0.06289960 -0.09858768 0.00126287 0 0 0 0
0.06521200 0.03761281 0.03478799 0 0 0 0
-0.04191373 0.07509168 -0.02490832 0 0 0 0
-0.07330747 -0.06186848 -0.02669252 0 0 0 0
-0.00408395 -0.03112042 -0.06887958 0 0 0 0
0.06016669 -0.06617777 0.03382223 0 0 0 0
0.03120250 0.04570181 -0.05429819 0 0 0 0
0.03633131 -0.04172888 -0.05827112 0 0 0 0
-0.04042663 0.08494247 -0.01505753 0 0 0 0
0.07506620 0.01928375 0.02493380 0 0 0 0
0.08552979 0.06776850 -0.01447021 0 0 0 0
-0.03289627 0.09327796 -0.00672204 0 0 0 0
0.06840444 -0.08989381 -0.01010619 0 0 0 0
0.03931245 -0.06175620 0.03824379 0 0 0 0
-0.00889052 -0.07741179 0.02258821 0 0 0 0
0.00309279 0.05260627 -0.04739372 0 0 0 0
0.08978496 -0.08759166 0.01021504 0 0 0 0
-0.04728729 0.02578653 -0.05271270 0 0 0 0
-0.00886105 -0.02837449 0.07162552 0 0 0 0
-0.01512378 0.06946667 -0.03053332 0 0 0 0
0.05397227 0.07209329 0.02790670 0 0 0 0
0.09201963 -0.06568103 -0.00798037 0 0 0 0
0.03851327 0.05451082 -0.04548918 0 0 0 0
-0.04496350 0.08693552 -0.01306448 0 0 0 0
0.04611868 -0.05999197 -0.04000803 0 0 0 0
-0.08689140 -0.00242772 -0.01310861 0 0 0 0
-0.01156812 -0.07148877 -0.02851123 0 0 0 0
-0.05906486 -0.02915850 -0.04093514 0 0 0 0
-0.08603756 -0.05838036 -0.01396243 0 0 0 0
0.01205696 0.05814582 -0.04185418 0 0 0 0
-0.05451153 0.04825553 0.04548847 0 0 0 0
0.00944252 -0.06391490 -0.03608510 0 0 0 0
0.06155240 0.06251677 0.03748323 0 0 0 0
-0.01613306 0.07257963 0.02742037 0 0 0 0
-0.05622502 -0.05885953 -0.04114047 0 0 0 0
0.05332664 -0.07743766 0.02256234 0 0 0 0
0.03982177 -0.01378260 0.06017823 0 0 0 0
0.00795069 -0.03204817 -0.06795183 0 0 0 0
-0.02276530 0.01553382 -0.07723470 0 0 0 0
-0.04653219 0.00174832 -0.05346780 0 0 0 0
0.01891081 0.03487037 -0.06512963 0 0 0 0
0.04809574 0.09535783 -0.00464217 0 0 0 0
0.09374899 -0.01698318 -0.00625101 0 0 0 0
0.00728584 -0.07495066 0.02504934 0 0 0 0
-0.04425632 0.06070179 -0.03929821 0 0 0 0
0.08854614 0.08853023 0.01145385 0 0 0 0
0.01839184 0.04918068 0.05081933 0 0 0 0
0.05384784 -0.01725962 -0.04615216 0 0 0 0
0.06061172 -0.08594202 -0.01405799 0 0 0 0
0.07896756 0.05413353 0.02103245 0 0 0 0
-0.08249704 -0.02223561 0.01750297 0 0 0 0
-0.00852643 -0.08234628 0.01765372 0 0 0 0
-0.04520254 -0.02057516 -0.05479746 0 0 0 0
-0.00685446 -0.04370522 0.05629478 0 0 0 0
-0.05321591 0.04015126 0.04678408 0 0 0 0
-0.02881793 -0.02207635 -0.07118206 0 0 0 0
-0.01740386 -0.02489633 0.07510367 0 0 0 0
0.01585090 -0.08639041 0.01360959 0 0 0 0
0.05146198 -0.05729162 -0.04270839 0 0 0 0
0.00484593 0.04503778 -0.05496223 0 0 0 0
0.04230443 -0.08666834 -0.01333166 0 0 0 0
0.05538104 0.01701399 -0.04461896 0 0 0 0
-0.04886505 -0.09710390 0.00289610 0 0 0 0
-0.06146386 0.02758642 0.03853614 0 0 0 0
0.03262110 0.01441826 -0.06737890 0 0 0 0
-0.07408702 -0.09694551 -0.00305449 0 0 0 0
-0.09038968 0.07044082 -0.00961033 0 0 0 0
-0.05631717 0.03449860 0.04368283 0 0 0 0
-0.09592245 -0.08440893 -0.00407755 0 0 0 0
0.07069756 0.08209177 -0.01790823 0 0 0 0
0.06303914 0.08822724 0.01177275 0 0 0 0
0.01814598 0.09172484 -0.00827515 0 0 0 0
0.08358931 -0.01907145 0.01641069 0 0 0 0
0.06891136 0.06410461 -0.03108865 0 0 0 0
0.04130547 -0.05497324 -0.04502676 0 0 0 0
0.04867268 -0.05756553 0.04243446 0 0 0 0
0.05526116 0.06601878 -0.03398123 0 0 0 0
0.00213890 0.07307527 0.02692473 0 0 0 0
0.06067897 0.08491195 -0.01508805 0 0 0 0
0.01120001 0.06505325 0.03494675 0 0 0 0
0.00756418 -0.09001516 -0.00998484 0 0 0 0
-0.09064445 0.00540235 -0.00935555 0 0 0 0
-0.02420096 -0.03990205 -0.06009794 0 0 0 0
-0.07984767 -0.06512178 -0.02015233 0 0 0 0
0.01925118 -0.02050693 0.07949307 0 0 0 0
0.03754256 -0.07692493 0.02307506 0 0 0 0
-0.03922831 0.06048109 0.03951890 0 0 0 0
0.05283812 -0.09199107 -0.00800894 0 0 0 0
0.00346447 -0.08475208 0.01524792 0 0 0 0
0.08533382 0.07727055 -0.01466618 0 0 0 0
-0.00564460 0.03214669 -0.06785332 0 0 0 0
0.06966726 -0.05408959 0.03033274 0 0 0 0
0.02603174 0.03308158 0.06691842 0 0 0 0
-0.02874457 -0.04583684 0.05416317 0 0 0 0
0.08454965 0.03444571 -0.01545035 0 0 0 0
0.07265173 -0.08129635 -0.01870365 0 0 0 0
-0.06619363 -0.09935404 -0.00064596 0 0 0 0
0.09484772 -0.05911023 -0.00515229 0 0 0 0
0.00772238 -0.09673218 0.00326782 0 0 0 0
0.02548176 -0.05185873 -0.04814126 0 0 0 0
-0.04731491 -0.02892175 0.05268509 0 0 0 0
0.09513713 0.08084385 0.00486287 0 0 0 0
-0.06236476 -0.04997716 -0.03763524 0 0 0 0
-0.01627468 -0.06120298 -0.03879702 0 0 0 0
-0.04158387 0.09022000 -0.00978000 0 0 0 0
0.00385722 -0.03833280 0.06166720 0 0 0 0
-0.02093594 -0.05867916 -0.04132084 0 0 0 0
-0.07146955 0.00735776 -0.02853045 0 0 0 0
0.00674203 -0.06890918 -0.03109081 0 0 0 0
0.07485811 0.08235499 0.01764501 0 0 0 0
-0.08133666 0.01271578 -0.01866333 0 0 0 0
-0.02000058 -0.07641818 0.02358183 0 0 0 0
0.03355012 -0.09334399 -0.00665601 0 0 0 0
-0.02072887 -0.05707412 -0.04292588 0 0 0 0
0.01379231 -0.09255184 -0.00744816 0 0 0 0
-0.03247500 -0.09193660 -0.00806339 0 0 0 0
0.06774016 0.05383717 0.03225985 0 0 0 0
0.02677948 0.03257158 -0.06742842 0 0 0 0
-0.02253463 0.09293701 0.00706299 0 0 0 0
0.05196238 0.01966307 -0.04803762 0 0 0 0
-0.01748073 -0.08327840 -0.01672161 0 0 0 0
0.02544827 0.09348212 -0.00651788 0 0 0 0
-0.06535087 0.04736034 -0.03464913 0 0 0 0
0.05607546 0.05522116 -0.04392454 0 0 0 0
0.09539650 -0.07785695 0.00460350 0 0 0 0
-0.06014643 0.09439561 0.00560439 0 0 0 0
-0.02311573 0.09321064 -0.00678936 0 0 0 0
-0.00715066 -0.08151075 0.01848925 0 0 0 0
-0.02274088 0.02814722 -0.07185278 0 0 0 0
-0.04835245 0.06327415 -0.03672586 0 0 0 0
0.06707507 -0.06235532 0.03292493 0 0 0 0
0.00497424 0.02532254 0.07467746 0 0 0 0
0.04716604 -0.09029014 -0.00970985 0 0 0 0
-0.00886335 0.05833911 -0.04166089 0 0 0 0
0.05035554 -0.00701378 0.04964447 0 0 0 0
-0.07925234 -0.03023502 -0.02074766 0 0 0 0
-0.02975305 -0.06543088 -0.03456912 0 0 0 0
-0.02388623 -0.04394363 -0.05605637 0 0 0 0
-0.07693167 -0.02999193 -0.02306833 0 0 0 0
0.03355714 -0.01660244 0.06644286 0 0 0 0
-0.08297943 -0.03998488 -0.01702057 0 0 0 0
0.07254280 -0.06026320 -0.02745720 0 0 0 0
0.01999755 -0.08038923 0.01961077 0 0 0 0
0.00081786 -0.01879193 -0.08120807 0 0 0 0
0.08486512 0.00787717 -0.01513488 0 0 0 0
0.02481818 -0.02728573 -0.07271427 0 0 0 0
0.07317397 -0.09670367 -0.00329633 0 0 0 0
0.03204536 0.05149309 -0.04850691 0 0 0 0
-0.05993314 -0.04707915 -0.04006686 0 0 0 0
0.02906289 -0.07998989 -0.02001012 0 0 0 0
0.01850385 0.04256646 -0.05743355 0 0 0 0
-0.02363401 -0.07876836 -0.02123165 0 0 0 0
-0.00582517 0.09709906 0.00290094 0 0 0 0
-0.01494851 -0.08058693 0.01941307 0 0 0 0
0.05606350 -0.08678118 -0.01321882 0 0 0 0
-0.00400444 -0.03539847 -0.06460153 0 0 0 0
0.02232900 -0.06902108 -0.03097892 0 0 0 0
0.03373050 0.05190708 -0.04809292 0 0 0 0
0.09103772 -0.06174523 0.00896228 0 0 0 0
-0.01993677 0.01337633 0.08006324 0 0 0 0
-0.04806603 -0.03688134 0.05193397 0 0 0 0
-0.01635426 -0.06918774 -0.03081226 0 0 0 0
-0.09793857 -0.09287150 -0.00206143 0 0 0 0
-0.01732337 0.04615294 -0.05384706 0 0 0 0
0.05962940 0.03289355 0.04037060 0 0 0 0
-0.07737140 0.02009490 -0.02262859 0 0 0 0
0.04973977 0.03481645 0.05026023 0 0 0 0
-0.03576880 0.05710762 0.04289239 0 0 0 0
-0.04124767 0.09827481 -0.00172518 0 0 0 0
0.04692876 -0.09818520 -0.00181480 0 0 0 0
0.06396368 -0.06083241 -0.03603632 0 0 0 0
0.01121008 0.00542986 -0.08878992 0 0 0 0
0.01515310 -0.04982135 0.05017865 0 0 0 0
0.09246064 0.08407415 -0.00753936 0 0 0 0
-0.05487385 0.07113598 0.02886403 0 0 0 0
0.03085201 -0.02778987 -0.06914799 0 0 0 0
-0.07332946 -0.08164599 -0.01835401 0 0 0 0
0.05517836 0.03981516 -0.04482164 0 0 0 0
-0.00658683 -0.03259654 -0.06740346 0 0 0 0
-0.04467166 -0.09541182 -0.00458818 0 0 0 0
0.07055853 0.08708005 0.01291995 0 0 0 0
-0.01477886 -0.01554332 -0.08445667 0 0 0 0
-0.06230888 0.08364491 -0.01635509 0 0 0 0
-0.01670250 -0.09035368 -0.00964633 0 0 0 0
0.05320952 -0.02611064 0.04679047 0 0 0 0
0.07537007 0.09638131 0.00361869 0 0 0 0
0.07854898 -0.00253570 0.02145102 0 0 0 0
-0.02231948 -0.04793916 -0.05206084 0 0 0 0
0.08397217 -0.07168959 0.01602783 0 0 0 0
0.09216422 0.01960964 -0.00783578 0 0 0 0
0.06709335 0.02235476 -0.03290665 0 0 0 0
0.05012234 0.00792761 -0.04987766 0 0 0 0
-0.04151196 0.00472190 0.05848805 0 0 0 0
-0.03377871 0.03983809 -0.06016191 0 0 0 0
-0.09064567 0.08368011 -0.00935433 0 0 0 0
-0.03855032 0.03934646 0.06065354 0 0 0 0
0.04166982 0.04914868 -0.05085133 0 0 0 0
0.03567931 0.08958795 0.01041205 0 0 0 0
-0.00421401 0.06236244 -0.03763755 0 0 0 0
0.09392835 0.03460016 0.00607165 0 0 0 0
0.05115218 0.06001920 -0.03998081 0 0 0 0
0.07487655 -0.07633294 0.02366706 0 0 0 0
-0.01563154 0.06757167 -0.03242833 0 0 0 0
-0.09461858 -0.07995506 -0.00538142 0 0 0 0
0.06874605 0.06884429 0.03115571 0 0 0 0
-0.07651575 -0.05746114 0.02348425 0 0 0 0
0.08643584 -0.04015549 0.01356416 0 0 0 0
0.01323152 -0.07844668 -0.02155332 0 0 0 0
-0.00833583 0.03666001 -0.06333999 0 0 0 0
0.05267501 0.03418151 -0.04732499 0 0 0 0
0.00191728 -0.05014951 -0.04985049 0 0 0 0
-0.09473808 0.06815993 0.00526192 0 0 0 0
-0.08833043 0.05606632 -0.01166957 0 0 0 0
0.06182734 -0.02214026 -0.03817265 0 0 0 0
0.01238767 0.09067459 -0.00932540 0 0 0 0
0.06074630 0.09499134 -0.00500865 0 0 0 0
0.01943050 0.06916030 -0.03083969 0 0 0 0
-0.04637635 0.09628876 -0.00371125 0 0 0 0
-0.08643801 0.06805488 0.01356200 0 0 0 0
-0.03239571 -0.00195028 -0.06760429 0 0 0 0
0.00289520 0.09258725 0.00741276 0 0 0 0
-0.07708059 -0.08503214 -0.01496786 0 0 0 0
0.05136601 0.05868413 -0.04131587 0 0 0 0
0.06052169 0.07993095 0.02006905 0 0 0 0
0.07178214 0.05768955 0.02821786 0 0 0 0
-0.01593423 0.08201285 0.01798715 0 0 0 0
0.02218546 -0.09303252 -0.00696748 0 0 0 0
-0.07099815 -0.08603579 -0.01396421 0 0 0 0
0.05661680 0.09864841 0.00116145 0 0 0 0
0.03780547 -0.02005615 0.06219453 0 0 0 0
0.00799835 -0.06416644 0.03583356 0 0 0 0
0.05974945 -0.06626476 0.03373525 0 0 0 0
0.05501465 0.05765565 -0.04234434 0 0 0 0
-0.05149730 -0.07927322 0.02072678 0 0 0 0
-0.05495857 -0.04595260 -0.04504143 0 0 0 0
-0.06221840 0.03932788 -0.03778160 0 0 0 0
0.01896393 0.08129649 0.01870351 0 0 0 0
0.00427488 -0.05141581 0.04858419 0 0 0 0
0.02995240 -0.03702376 -0.06297624 0 0 0 0
