ply
format ascii 1.0
comment https://github.com/mikedh/trimesh
element vertex 1119
property float x
property float y
property float z
property uchar red
property uchar green
property uchar blue
property uchar alpha
end_header
0.02605106 0.06510923 -0.00883971 0 0 0 0
-0.02604357 -0.00372496 0.07023147 0 0 0 0
0.00389961 0.02394514 -0.07215525 0 0 0 0
0.08887382 -0.00463510 0.00649108 0 0 0 0
-0.00104392 -0.00473446 -0.09422162 0 0 0 0
0.02956518 -0.05566963 -0.01476519 0 0 0 0
-0.08784607 0.00830357 -0.00385035 0 0 0 0
0.00305250 -0.01805904 -0.07888847 0 0 0 0
-0.06347775 -0.02000520 0.01651705 0 0 0 0
0.02725312 -0.03076803 -0.04197885 0 0 0 0
0.01725451 -0.06121244 -0.02153305 0 0 0 0
-0.03877555 -0.02240192 0.03882253 0 0 0 0
-0.01853775 0.01373968 0.06772257 0 0 0 0
-0.04383302 -0.00886225 0.04730473 0 0 0 0
0.01355954 0.04325706 -0.04318340 0 0 0 0
-0.00460991 0.09147810 -0.00391198 0 0 0 0
0.06928642 -0.00286851 -0.02784507 0 0 0 0
0.04853695 0.00722403 0.04423902 0 0 0 0
0.01339314 -0.07196730 -0.01463955 0 0 0 0
0.01429813 0.04683521 -0.03886666 0 0 0 0
-0.05679172 -0.02596996 -0.01723832 0 0 0 0
-0.06290723 -0.02250299 -0.01458979 0 0 0 0
0.06150969 0.02369917 -0.01479115 0 0 0 0
0.02449300 0.03765889 -0.03784810 0 0 0 0
-0.05713133 0.01165097 -0.03121771 0 0 0 0
0.01342057 0.05832348 0.02825595 0 0 0 0
0.01127426 0.03186912 -0.05685662 0 0 0 0
0.03451381 -0.00333193 -0.06215426 0 0 0 0
-0.00490197 -0.08062209 0.01447593 0 0 0 0
-0.03440661 0.03427531 0.03131808 0 0 0 0
-0.01974318 0.05207592 0.02818090 0 0 0 0
0.04240775 -0.03999668 -0.01759556 0 0 0 0
-0.00669197 -0.03441238 -0.05889565 0 0 0 0
0.02783347 -0.05175013 -0.02041640 0 0 0 0
-0.07560579 0.00386910 -0.02052511 0 0 0 0
-0.05433907 -0.02794164 0.01771929 0 0 0 0
-0.00181187 -0.03525247 -0.06293567 0 0 0 0
-0.03067586 -0.05537705 -0.01394709 0 0 0 0
-0.08900591 0.00515663 -0.00583746 0 0 0 0
-0.07497754 -0.00679708 -0.01822538 0 0 0 0
-0.04864177 0.00423647 -0.04712176 0 0 0 0
-0.00350993 0.03896697 -0.05752310 0 0 0 0
0.09666751 -0.00211608 -0.00121641 0 0 0 0
0.06586813 -0.02634760 -0.00778427 0 0 0 0
-0.01837021 -0.06539752 0.01623228 0 0 0 0
-0.00807945 -0.01448020 -0.07744035 0 0 0 0
-0.03328279 0.05883576 -0.00788145 0 0 0 0
-0.05055014 -0.03632759 -0.01312228 0 0 0 0
-0.08058023 -0.00868430 -0.01073547 0 0 0 0
-0.04618460 -0.03398710 -0.01982829 0 0 0 0
0.04691955 -0.02850093 -0.02457952 0 0 0 0
-0.05872225 -0.01782795 -0.02344980 0 0 0 0
0.07508958 -0.00362861 -0.02128181 0 0 0 0
0.07226875 -0.00162390 0.02610735 0 0 0 0
-0.03990373 0.04027912 0.01981715 0 0 0 0
0.01694801 0.01663529 0.06641670 0 0 0 0
-0.00897702 0.04979192 -0.04123105 0 0 0 0
-0.02772282 0.02144947 0.05082771 0 0 0 0
-0.03507730 0.05745677 0.00746593 0 0 0 0
-0.04803720 0.03067748 -0.02128532 0 0 0 0
0.00192799 0.02541529 -0.07265671 0 0 0 0
0.02342607 0.06889939 0.00767454 0 0 0 0
0.06934804 0.01221271 -0.01843924 0 0 0 0
-0.03671975 0.05540401 0.00787624 0 0 0 0
0.01893235 0.05576153 0.02530612 0 0 0 0
0.02706740 -0.01614071 0.05679189 0 0 0 0
-0.07524654 0.01679955 0.00795391 0 0 0 0
0.03395010 0.03555641 -0.03049349 0 0 0 0
-0.00341365 -0.04656976 0.05001659 0 0 0 0
-0.02414639 -0.01412364 -0.06172998 0 0 0 0
0.08487521 0.01399916 -0.00112563 0 0 0 0
-0.01922496 0.06902680 -0.01174824 0 0 0 0
-0.04581397 -0.04157292 -0.01261310 0 0 0 0
-0.01035418 -0.05437176 -0.03527405 0 0 0 0
0.02608088 -0.04727551 -0.02664361 0 0 0 0
-0.01924374 0.02426366 -0.05649259 0 0 0 0
-0.00526689 -0.02694288 -0.06779023 0 0 0 0
-0.06438041 -0.03157604 -0.00404354 0 0 0 0
0.02880427 0.07100970 -0.00018604 0 0 0 0
-0.03676967 0.06135451 -0.00187583 0 0 0 0
-0.03233952 -0.01738539 -0.05027510 0 0 0 0
0.05543490 0.00081265 -0.04370917 0 0 0 0
-0.05996183 0.00997727 0.03006091 0 0 0 0
-0.01193394 -0.04714706 0.04091900 0 0 0 0
0.04973250 -0.03451342 -0.01575408 0 0 0 0
-0.07502081 0.01544038 -0.00953882 0 0 0 0
-0.03599651 -0.05450678 -0.00949671 0 0 0 0
0.06158636 0.00478347 -0.03363017 0 0 0 0
0.07387649 0.01938913 -0.00673438 0 0 0 0
0.00593639 -0.06157352 -0.03249008 0 0 0 0
0.05518129 -0.03863123 -0.00618747 0 0 0 0
0.07191124 -0.00464742 -0.02344134 0 0 0 0
-0.04263170 0.00549851 -0.05186979 0 0 0 0
0.03303342 0.05274816 -0.01421842 0 0 0 0
-0.03583409 0.04383232 0.02033359 0 0 0 0
-0.04338737 -0.02455818 -0.03205445 0 0 0 0
0.05405474 -0.03156587 -0.01437938 0 0 0 0
-0.06632972 0.02245313 -0.01121716 0 0 0 0
-0.03377019 0.00714523 -0.05908458 0 0 0 0
-0.00685099 0.08579619 -0.00735283 0 0 0 0
0.04729560 0.05045482 0.00224958 0 0 0 0
0.00922400 0.06280498 0.02797101 0 0 0 0
-0.05289114 0.00639654 0.04071232 0 0 0 0
0.02080623 -0.07819961 0.00056440 0 0 0 0
0.00915823 -0.02119691 -0.06964485 0 0 0 0
-0.01565590 -0.01360571 0.07073839 0 0 0 0
-0.03173742 0.03449130 0.03377128 0 0 0 0
0.01706076 -0.03586262 -0.04707662 0 0 0 0
0.05619834 -0.02932707 -0.01447460 0 0 0 0
-0.04804652 0.04298922 -0.00896426 0 0 0 0
-0.05097258 -0.01532886 -0.03369856 0 0 0 0
0.00320975 0.09466486 -0.00212539 0 0 0 0
0.07190534 -0.01806705 -0.01002760 0 0 0 0
0.01832703 0.01817290 0.06350007 0 0 0 0
-0.02679051 0.00032110 -0.07288839 0 0 0 0
-0.00213377 0.00085915 -0.09700708 0 0 0 0
-0.05381320 0.00045065 0.04573615 0 0 0 0
-0.02427071 -0.03714950 -0.03857980 0 0 0 0
0.04190644 0.00900483 0.04908873 0 0 0 0
0.03218090 0.05720192 -0.01061718 0 0 0 0
-0.02605719 0.00361235 0.07033046 0 0 0 0
-0.00383213 0.02905490 -0.06711297 0 0 0 0
0.06516784 0.00665940 -0.02817276 0 0 0 0
0.04190821 -0.05311955 -0.00497224 0 0 0 0
0.04206713 0.04008395 -0.01784892 0 0 0 0
-0.03200454 -0.05099236 0.01700310 0 0 0 0
-0.03567609 -0.00428979 -0.06003412 0 0 0 0
0.02194469 0.01579014 0.06226518 0 0 0 0
-0.06422134 -0.00815223 -0.02762643 0 0 0 0
0.03604889 0.01594679 -0.04800432 0 0 0 0
-0.00718817 0.04344172 -0.04937010 0 0 0 0
-0.03913056 -0.02250094 0.03836850 0 0 0 0
-0.07617997 -0.01669076 0.00712926 0 0 0 0
0.03179949 -0.05612577 -0.01207475 0 0 0 0
0.03418536 -0.00225475 0.06355990 0 0 0 0
0.00538697 0.01278752 -0.08182550 0 0 0 0
0.02820324 0.03403343 -0.03776333 0 0 0 0
-0.00611342 0.05452996 0.03935661 0 0 0 0
0.01505796 -0.01176847 -0.07317357 0 0 0 0
-0.01682276 -0.01120828 -0.07196896 0 0 0 0
-0.00586026 -0.00058073 -0.09355901 0 0 0 0
0.00006679 -0.05713036 -0.04269486 0 0 0 0
-0.05531367 0.00418253 -0.04050380 0 0 0 0
-0.01432238 0.02056450 -0.06511311 0 0 0 0
0.01687455 -0.08164552 -0.00147993 0 0 0 0
-0.04692049 -0.03906733 -0.01401218 0 0 0 0
-0.06829651 -0.03064654 -0.00105694 0 0 0 0
0.00773458 -0.03850583 -0.05375959 0 0 0 0
0.00185922 0.06007752 -0.03806326 0 0 0 0
-0.04119895 -0.04476009 -0.01404095 0 0 0 0
0.00629561 -0.02499917 -0.06870522 0 0 0 0
0.04686337 -0.03237463 0.02076200 0 0 0 0
0.06461227 -0.02792267 -0.00746506 0 0 0 0
0.06118922 0.03227133 -0.00653945 0 0 0 0
0.01822878 -0.01884237 -0.06292884 0 0 0 0
0.00992044 0.05782017 -0.03225939 0 0 0 0
-0.09114478 -0.00645015 -0.00240507 0 0 0 0
-0.00998871 0.05186294 0.03814834 0 0 0 0
0.03020385 -0.06397548 0.00582067 0 0 0 0
-0.03061011 0.05963613 -0.00975376 0 0 0 0
0.03985472 -0.01999590 -0.04014938 0 0 0 0
-0.01835448 -0.05831835 -0.02332717 0 0 0 0
0.03894173 -0.02653501 -0.03452326 0 0 0 0
0.06562310 -0.02187011 -0.01250678 0 0 0 0
0.00004345 0.01733528 -0.08262126 0 0 0 0
0.01863086 0.04733617 -0.03403297 0 0 0 0
0.00727426 -0.05649136 -0.03623438 0 0 0 0
-0.07535002 0.02395451 -0.00069547 0 0 0 0
0.02453759 -0.02716863 -0.04829378 0 0 0 0
-0.08152010 -0.00523513 0.01324477 0 0 0 0
0.02408955 0.03256664 -0.04334382 0 0 0 0
-0.00497991 0.05518470 -0.03983539 0 0 0 0
0.03650462 0.06241874 0.00070217 0 0 0 0
-0.08034989 0.00057421 -0.01877328 0 0 0 0
-0.00964738 0.01244405 -0.07790858 0 0 0 0
-0.02380806 -0.05983387 -0.01635807 0 0 0 0
-0.01762761 -0.06951800 -0.01285439 0 0 0 0
-0.01403216 0.04694572 -0.03902212 0 0 0 0
-0.00370731 -0.05152513 -0.04476755 0 0 0 0
-0.05513257 -0.03386385 -0.01100358 0 0 0 0
0.01204928 -0.08294272 0.00500799 0 0 0 0
0.03555617 -0.05268286 -0.01176097 0 0 0 0
0.07370687 -0.00709495 -0.01919818 0 0 0 0
-0.00394603 -0.02609199 0.06996198 0 0 0 0
0.02243991 -0.07422718 0.00333291 0 0 0 0
0.05263901 -0.00997677 -0.03738422 0 0 0 0
0.03257951 0.03956793 -0.02785256 0 0 0 0
0.01490600 -0.08243749 0.00265651 0 0 0 0
0.09008018 0.00647593 -0.00344389 0 0 0 0
0.09003275 -0.00380975 0.00615750 0 0 0 0
-0.03049232 -0.04097217 0.02853551 0 0 0 0
0.01597450 0.00719458 -0.07683092 0 0 0 0
-0.00721579 -0.08459061 -0.00819360 0 0 0 0
-0.05482923 -0.00686710 -0.03830366 0 0 0 0
-0.05813274 0.00002623 -0.04149905 0 0 0 0
0.03339733 0.04538980 0.02121287 0 0 0 0
-0.03517614 -0.00984580 0.05497807 0 0 0 0
-0.02581003 -0.01515190 -0.05903807 0 0 0 0
0.02705175 0.00730308 -0.06564517 0 0 0 0
-0.04990898 0.00321257 -0.04687845 0 0 0 0
0.00194068 0.03323565 -0.06482367 0 0 0 0
-0.03333206 0.01060759 -0.05606035 0 0 0 0
0.03874678 -0.04075839 -0.02049482 0 0 0 0
0.01628292 0.06106635 -0.02265074 0 0 0 0
0.04352919 -0.01742066 0.03905015 0 0 0 0
0.02420702 -0.05639754 -0.01939544 0 0 0 0
-0.01514994 0.06314580 -0.02170426 0 0 0 0
0.02904124 0.02806822 -0.04289054 0 0 0 0
0.00645812 0.04378756 -0.04975432 0 0 0 0
0.00888912 -0.07905231 -0.01205857 0 0 0 0
-0.06698175 0.01563384 0.01738441 0 0 0 0
0.01282914 -0.08458840 0.00258245 0 0 0 0
0.05841171 -0.01301108 -0.02857721 0 0 0 0
-0.07339323 -0.00290178 -0.02370499 0 0 0 0
0.03594348 0.00689235 -0.05716417 0 0 0 0
0.06093459 -0.00065619 -0.03840922 0 0 0 0
0.00447217 0.02086312 0.07466470 0 0 0 0
-0.04133886 -0.01183367 0.04682747 0 0 0 0
-0.05100850 0.03152690 0.01746459 0 0 0 0
0.03042302 -0.06722430 -0.00235269 0 0 0 0
-0.06126119 0.01575230 -0.02298651 0 0 0 0
0.04264613 -0.03240801 0.02494585 0 0 0 0
0.07501300 0.02471437 -0.00027263 0 0 0 0
0.03623746 0.03251826 0.03124428 0 0 0 0
0.01436066 -0.06924863 0.01639071 0 0 0 0
-0.00207192 0.04130397 -0.05662411 0 0 0 0
-0.01622964 -0.01420524 -0.06956511 0 0 0 0
-0.01570973 0.06110045 -0.02318982 0 0 0 0
-0.04846817 0.01024643 0.04128540 0 0 0 0
0.01340614 0.04702543 -0.03956843 0 0 0 0
0.07528578 0.02397962 -0.00073461 0 0 0 0
-0.02512774 0.00993887 -0.06493339 0 0 0 0
0.04286018 -0.00118119 0.05595862 0 0 0 0
0.00348207 -0.00619907 -0.09031886 0 0 0 0
0.01614203 0.01470057 0.06915739 0 0 0 0
0.01403765 -0.01084411 -0.07511824 0 0 0 0
0.04632825 -0.02441045 -0.02926129 0 0 0 0
-0.02683370 0.01496555 0.05820075 0 0 0 0
-0.02408260 -0.05981003 0.01610736 0 0 0 0
0.02933189 -0.06405161 0.00661650 0 0 0 0
0.08592808 -0.01306993 -0.00100199 0 0 0 0
0.06073513 0.01875194 0.02051293 0 0 0 0
0.00868709 0.07807066 0.01324226 0 0 0 0
0.00828326 0.08861928 -0.00309746 0 0 0 0
0.02629323 0.05289247 -0.02081430 0 0 0 0
-0.01572087 -0.03264347 0.05163565 0 0 0 0
-0.01097473 -0.04527566 -0.04374961 0 0 0 0
0.03111929 -0.03694360 0.03193711 0 0 0 0
0.01246002 -0.08522557 -0.00231441 0 0 0 0
-0.06478852 0.00307590 0.03213558 0 0 0 0
0.00570426 0.02015818 -0.07413756 0 0 0 0
-0.01131484 -0.03935597 0.04932920 0 0 0 0
0.02761658 -0.02701963 -0.04536379 0 0 0 0
-0.08906637 -0.00206138 0.00887225 0 0 0 0
0.01185234 0.03020096 0.05794669 0 0 0 0
-0.05778211 0.01529880 -0.02691909 0 0 0 0
-0.03033855 0.06378154 -0.00587992 0 0 0 0
0.01530455 -0.02752032 -0.05717513 0 0 0 0
0.02703883 -0.00366311 -0.06929806 0 0 0 0
-0.04777852 0.03141940 -0.02080208 0 0 0 0
-0.04398254 -0.01879547 -0.03722199 0 0 0 0
0.04932504 -0.03297966 0.01769531 0 0 0 0
0.03619283 -0.00362943 0.06017774 0 0 0 0
0.06347028 -0.03015280 0.00637692 0 0 0 0
-0.05614318 0.02636905 0.01748777 0 0 0 0
-0.00847876 -0.08799379 -0.00352745 0 0 0 0
-0.01202690 -0.03478390 0.05318920 0 0 0 0
-0.03351069 0.05858632 0.00790300 0 0 0 0
-0.04352684 0.03135002 -0.02512314 0 0 0 0
0.01429975 0.04586935 0.03983089 0 0 0 0
0.07211666 -0.01521140 0.01267194 0 0 0 0
0.01080180 -0.06164056 0.02755763 0 0 0 0
0.05878285 -0.00881391 -0.03240324 0 0 0 0
-0.01284115 -0.06073760 -0.02642125 0 0 0 0
-0.00163641 -0.02490561 -0.07345797 0 0 0 0
-0.06255136 0.00527355 -0.03217509 0 0 0 0
0.01120356 0.02020935 0.06858709 0 0 0 0
0.04079469 0.00669098 -0.05251433 0 0 0 0
0.04233728 0.02635084 -0.03131189 0 0 0 0
0.04679460 -0.02925717 -0.02394823 0 0 0 0
-0.01193955 0.02773457 -0.06032587 0 0 0 0
0.02732016 0.03641905 -0.03626079 0 0 0 0
0.00987089 0.05412702 -0.03600208 0 0 0 0
0.02157025 0.04432211 -0.03410763 0 0 0 0
0.05973892 -0.03500917 0.00525191 0 0 0 0
-0.05455846 -0.02754684 -0.01789470 0 0 0 0
-0.07734674 0.01959847 -0.00305479 0 0 0 0
-0.00129456 0.02419827 -0.07450718 0 0 0 0
-0.05913360 -0.00598690 0.03487951 0 0 0 0
0.03975790 -0.01007369 0.05016841 0 0 0 0
-0.03834446 -0.05393394 -0.00772160 0 0 0 0
0.04171171 0.05612577 -0.00216252 0 0 0 0
-0.08603235 0.00486786 0.00909980 0 0 0 0
0.06461407 0.02437042 -0.01101550 0 0 0 0
-0.01275160 0.02037414 -0.06687427 0 0 0 0
0.03605970 0.03202202 -0.03191828 0 0 0 0
-0.00353337 -0.00378491 -0.09268172 0 0 0 0
-0.01439556 0.03884044 0.04676400 0 0 0 0
0.02365151 -0.01730026 -0.05904823 0 0 0 0
0.00173252 -0.04533606 -0.05293142 0 0 0 0
0.08571459 0.00128980 0.01299561 0 0 0 0
0.00899191 -0.02114299 -0.06986510 0 0 0 0
-0.05943409 -0.03294367 0.00762224 0 0 0 0
-0.00044872 -0.02939482 -0.07015646 0 0 0 0
0.01281845 0.04532180 -0.04185975 0 0 0 0
-0.02184032 0.06706234 -0.01109734 0 0 0 0
-0.07552489 0.01034000 0.01413511 0 0 0 0
-0.04616126 -0.00671623 -0.04712250 0 0 0 0
-0.01219540 -0.02179955 -0.06600505 0 0 0 0
0.04970552 -0.00343888 -0.04685560 0 0 0 0
0.03259556 0.01399844 -0.05340599 0 0 0 0
0.07859657 0.01450656 -0.00689687 0 0 0 0
0.01441591 -0.01862175 -0.06696235 0 0 0 0
0.00539495 -0.03434809 -0.06025696 0 0 0 0
-0.01475493 0.01527640 0.06996867 0 0 0 0
0.00324412 -0.02267916 -0.07407672 0 0 0 0
-0.02471864 -0.06980316 -0.00547821 0 0 0 0
-0.06189991 0.03515467 -0.00294541 0 0 0 0
0.05007603 -0.03424900 -0.01567497 0 0 0 0
-0.05746720 0.01112941 0.03140339 0 0 0 0
-0.03729283 0.03757356 0.02513361 0 0 0 0
-0.07914729 -0.01357027 -0.00728244 0 0 0 0
0.05382470 -0.00321210 -0.04296320 0 0 0 0
-0.00539708 -0.06979295 -0.02480998 0 0 0 0
-0.00451764 -0.05836590 -0.03711646 0 0 0 0
0.07605246 -0.00375852 -0.02018903 0 0 0 0
-0.02535091 0.01096271 -0.06368639 0 0 0 0
-0.00096427 0.02839787 -0.07063786 0 0 0 0
-0.04292237 -0.04745700 -0.00962062 0 0 0 0
0.01498494 -0.06301010 -0.02200497 0 0 0 0
0.00326169 -0.07256135 -0.02417696 0 0 0 0
0.00786097 -0.01462894 0.07751009 0 0 0 0
0.09791036 0.00196082 -0.00012882 0 0 0 0
-0.02059466 0.02989969 -0.04950565 0 0 0 0
0.05865017 0.03165526 -0.00969457 0 0 0 0
-0.02866035 0.02922230 -0.04211735 0 0 0 0
0.06972907 -0.01784828 0.01242264 0 0 0 0
-0.01163723 -0.00038064 0.08798213 0 0 0 0
-0.01411756 0.01060005 -0.07528239 0 0 0 0
-0.03162554 0.03498306 0.03339140 0 0 0 0
-0.02625476 -0.00018404 -0.07356121 0 0 0 0
0.04920175 -0.02106239 0.02973586 0 0 0 0
0.00759295 -0.08712904 -0.00527802 0 0 0 0
-0.01459336 -0.05694706 0.02845958 0 0 0 0
-0.03401797 -0.04367961 -0.02230242 0 0 0 0
0.01277814 -0.04204462 -0.04517724 0 0 0 0
-0.02917685 -0.01603729 -0.05478587 0 0 0 0
0.07350536 0.00012172 -0.02637292 0 0 0 0
-0.02819700 0.02457790 -0.04722510 0 0 0 0
-0.04389742 -0.03988545 -0.01621712 0 0 0 0
0.03939483 0.04240942 0.01819575 0 0 0 0
-0.01544648 0.03477687 -0.04977666 0 0 0 0
0.02356350 -0.05437595 -0.02206055 0 0 0 0
-0.01304702 -0.05735683 0.02959614 0 0 0 0
0.02977969 0.01296743 0.05725288 0 0 0 0
0.07598706 0.01346975 -0.01054319 0 0 0 0
-0.00613397 -0.04656865 -0.04729737 0 0 0 0
0.01760123 -0.07821594 -0.00418283 0 0 0 0
0.00566487 0.04350641 0.05082872 0 0 0 0
-0.07349711 -0.02162787 -0.00487502 0 0 0 0
0.01428357 0.01520282 0.07051361 0 0 0 0
-0.05276663 -0.01092613 -0.03630724 0 0 0 0
0.00718371 0.00537506 0.08744123 0 0 0 0
0.05362796 -0.03993235 -0.00643970 0 0 0 0
-0.00754204 0.06886583 0.02359213 0 0 0 0
-0.01235751 0.02991224 -0.05773025 0 0 0 0
-0.03647489 0.02186130 0.04166381 0 0 0 0
-0.00833690 0.00503056 -0.08663254 0 0 0 0
0.02697281 0.02398977 0.04903742 0 0 0 0
-0.01391218 -0.02363410 -0.06245372 0 0 0 0
0.04188046 0.00187791 0.05624164 0 0 0 0
0.01487592 -0.04056592 -0.04455816 0 0 0 0
0.01576976 0.03471748 0.04951277 0 0 0 0
-0.07914519 -0.01458818 -0.00626663 0 0 0 0
-0.00684132 -0.01369499 0.07946368 0 0 0 0
0.00346771 0.07310580 -0.02342648 0 0 0 0
-0.08182658 -0.00882030 -0.00935313 0 0 0 0
0.01605721 -0.02504355 0.05889924 0 0 0 0
-0.05583232 0.02306929 -0.02109840 0 0 0 0
0.05923019 0.03339045 0.00737936 0 0 0 0
0.05369441 -0.01335465 0.03295095 0 0 0 0
-0.04581511 -0.01004508 -0.04413981 0 0 0 0
-0.00101665 0.04278560 -0.05619775 0 0 0 0
0.05023046 -0.04673480 -0.00303474 0 0 0 0
0.04894408 -0.03174721 0.01930870 0 0 0 0
0.02149000 -0.07665556 -0.00185444 0 0 0 0
-0.08176593 -0.00512148 0.01311258 0 0 0 0
0.07896665 0.01215816 -0.00887519 0 0 0 0
0.00847488 0.01868862 -0.07283650 0 0 0 0
0.04051747 -0.03493375 -0.02454878 0 0 0 0
-0.03002422 0.01930129 0.05067449 0 0 0 0
-0.04880074 0.03860595 -0.01259331 0 0 0 0
0.02186720 -0.05079342 0.02733939 0 0 0 0
0.09049041 -0.00265402 -0.00685558 0 0 0 0
-0.00098995 -0.09791069 -0.00109937 0 0 0 0
-0.05624636 0.01440186 0.02935178 0 0 0 0
-0.01240038 -0.01965486 -0.06794475 0 0 0 0
0.00042277 -0.04801551 0.05149872 0 0 0 0
0.07259287 -0.02648181 -0.00092532 0 0 0 0
-0.03418048 0.05144937 -0.01437016 0 0 0 0
-0.01758524 -0.03863201 -0.04378274 0 0 0 0
0.04194009 -0.00581301 0.05224689 0 0 0 0
-0.02553728 -0.06481608 0.00964664 0 0 0 0
-0.07875755 0.01510595 -0.00613649 0 0 0 0
-0.03218137 0.03463472 -0.03318391 0 0 0 0
0.00503812 0.09009957 0.00486231 0 0 0 0
0.02101618 -0.03515136 -0.04383246 0 0 0 0
-0.06520414 0.00826235 0.02653351 0 0 0 0
-0.03175768 0.03661183 -0.03163049 0 0 0 0
-0.05890021 -0.03300501 0.00809479 0 0 0 0
-0.01018338 0.04174002 -0.04807660 0 0 0 0
0.00882149 -0.02858549 -0.06259301 0 0 0 0
0.04061051 -0.02373126 0.03565823 0 0 0 0
0.08110022 -0.00149024 -0.01740954 0 0 0 0
0.03183381 0.03025528 -0.03791092 0 0 0 0
-0.01913618 0.04596764 -0.03489618 0 0 0 0
0.04909486 -0.00552544 0.04537970 0 0 0 0
0.07140207 -0.02802389 -0.00057404 0 0 0 0
0.04455585 0.03124653 0.02419761 0 0 0 0
-0.01022915 0.00877309 -0.08099776 0 0 0 0
0.02024478 0.02476293 -0.05499230 0 0 0 0
0.05938506 0.02517266 -0.01544228 0 0 0 0
-0.01132380 0.04608536 0.04259085 0 0 0 0
-0.00387471 0.08132430 0.01480098 0 0 0 0
-0.05530317 0.01931714 -0.02537969 0 0 0 0
0.06120301 0.00787211 -0.03092488 0 0 0 0
-0.00882287 0.00158730 -0.08958983 0 0 0 0
0.02321490 -0.00141553 -0.07536957 0 0 0 0
-0.01178953 -0.02383754 0.06437293 0 0 0 0
-0.04425531 0.03826118 0.01748351 0 0 0 0
0.01084095 0.02842805 -0.06073099 0 0 0 0
-0.01082819 -0.05114436 0.03802745 0 0 0 0
-0.07395794 -0.01782831 -0.00821375 0 0 0 0
-0.02864321 -0.03815164 0.03320516 0 0 0 0
0.04651496 -0.04885342 -0.00463162 0 0 0 0
0.08584961 -0.00099856 -0.01315183 0 0 0 0
0.01849151 0.01773169 0.06377680 0 0 0 0
-0.01428562 -0.02996616 -0.05574822 0 0 0 0
0.03709819 0.04781155 0.01509026 0 0 0 0
0.02867833 -0.02452046 -0.04680121 0 0 0 0
0.01647631 0.00377619 -0.07974750 0 0 0 0
-0.01612004 0.06018448 -0.02369548 0 0 0 0
0.00725782 0.03706486 -0.05567732 0 0 0 0
-0.03908542 0.01361931 0.04729526 0 0 0 0
-0.06271970 0.00296427 0.03431603 0 0 0 0
0.03721709 -0.05931365 0.00346926 0 0 0 0
0.09367020 -0.00285367 0.00347613 0 0 0 0
0.02814523 -0.06865585 -0.00319892 0 0 0 0
0.02628654 0.02595226 0.04776120 0 0 0 0
-0.02194868 0.03104206 0.04700926 0 0 0 0
-0.01153336 0.07411028 -0.01435636 0 0 0 0
-0.00218095 -0.03332888 -0.06449017 0 0 0 0
0.01635688 -0.06403311 0.01961002 0 0 0 0
-0.00246905 -0.02988108 0.06764987 0 0 0 0
0.04116961 -0.00040332 -0.05842708 0 0 0 0
-0.00313715 0.04965778 0.04720507 0 0 0 0
0.01355472 0.05023215 -0.03621312 0 0 0 0
-0.00524679 0.08740414 -0.00734907 0 0 0 0
0.03186191 -0.05217863 -0.01595947 0 0 0 0
0.05455361 -0.01324262 -0.03220377 0 0 0 0
-0.03402350 -0.05444206 0.01153445 0 0 0 0
-0.08394960 0.00939577 0.00665464 0 0 0 0
0.00242112 -0.04083064 0.05674824 0 0 0 0
-0.01014134 -0.00406210 0.08579655 0 0 0 0
-0.05225243 0.01851380 -0.02923376 0 0 0 0
-0.01375823 0.03956859 -0.04667318 0 0 0 0
-0.00314145 -0.07571580 -0.02114274 0 0 0 0
-0.01165634 -0.07064313 0.01770053 0 0 0 0
0.02197700 0.06683321 -0.01118979 0 0 0 0
-0.05077134 0.00862426 -0.04060439 0 0 0 0
0.02771743 0.07092255 0.00117552 0 0 0 0
-0.06671850 -0.00696267 0.02631883 0 0 0 0
-0.04607574 -0.00914257 -0.04478169 0 0 0 0
-0.01508411 0.07537833 -0.00953756 0 0 0 0
-0.01390044 0.06321798 -0.02288159 0 0 0 0
0.08821356 -0.00758137 -0.00420507 0 0 0 0
-0.03123669 0.00049730 -0.06826601 0 0 0 0
0.00496074 0.08703215 -0.00800711 0 0 0 0
0.03623307 -0.04147055 0.02229637 0 0 0 0
-0.01334330 -0.03641677 -0.05023993 0 0 0 0
-0.00757542 0.03897394 -0.05345064 0 0 0 0
-0.01528549 0.02573057 -0.05898394 0 0 0 0
-0.00181168 0.03052200 -0.06766632 0 0 0 0
0.01158367 -0.03283545 -0.05558088 0 0 0 0
0.00736465 0.08590089 -0.00673445 0 0 0 0
0.08142833 0.01092665 -0.00764502 0 0 0 0
0.01386296 0.05652932 -0.02960771 0 0 0 0
-0.01826464 -0.04195681 -0.03977855 0 0 0 0
-0.05870536 0.02235776 -0.01893688 0 0 0 0
0.04049367 0.04684186 0.01266447 0 0 0 0
-0.08135176 0.00939356 -0.00925468 0 0 0 0
0.00470823 0.05735134 -0.03794043 0 0 0 0
-0.00384279 0.00832084 -0.08783637 0 0 0 0
0.02247876 0.04494567 0.03257557 0 0 0 0
0.00826287 0.06227093 -0.02946620 0 0 0 0
-0.08467348 -0.00691226 -0.00841426 0 0 0 0
0.01699352 -0.00963122 -0.07337527 0 0 0 0
-0.01497577 -0.04337981 -0.04164442 0 0 0 0
-0.07460860 -0.00715221 0.01823919 0 0 0 0
-0.05525473 0.00992827 -0.03481700 0 0 0 0
-0.00445726 -0.08662130 0.00892144 0 0 0 0
-0.01160027 -0.02349708 -0.06490265 0 0 0 0
-0.00621097 0.05466499 -0.03912405 0 0 0 0
0.00656504 0.03220150 0.06123345 0 0 0 0
-0.08325937 0.00751566 0.00922496 0 0 0 0
-0.01741791 -0.04116920 -0.04141288 0 0 0 0
0.05037007 -0.04482918 -0.00480075 0 0 0 0
0.06387220 0.00859850 -0.02752931 0 0 0 0
0.01960064 0.04563111 -0.03476825 0 0 0 0
0.03018356 -0.06760149 0.00221495 0 0 0 0
0.03078015 0.02311683 -0.04610302 0 0 0 0
0.06029422 -0.02775619 -0.01194959 0 0 0 0
0.02816255 0.02312160 0.04871585 0 0 0 0
0.02641172 0.05217781 0.02141047 0 0 0 0
-0.03104032 0.03405347 0.03490620 0 0 0 0
-0.04335454 0.03925142 0.01739404 0 0 0 0
0.01286130 0.04966692 -0.03747178 0 0 0 0
0.07078384 -0.01409767 -0.01511850 0 0 0 0
0.02008069 0.00524878 -0.07467052 0 0 0 0
-0.00965977 -0.02912799 0.06121224 0 0 0 0
0.07393704 -0.01124901 -0.01481395 0 0 0 0
0.03113655 0.05841576 -0.01044769 0 0 0 0
0.05655620 0.04295289 -0.00027619 0 0 0 0
-0.02807492 -0.03506675 -0.03685832 0 0 0 0
0.04841821 0.01662967 0.03495212 0 0 0 0
0.03539104 -0.02150963 -0.04309933 0 0 0 0
0.00961821 0.08660130 -0.00378048 0 0 0 0
-0.07493110 -0.01732114 0.00774776 0 0 0 0
-0.03547311 0.05094577 0.01358112 0 0 0 0
-0.01609274 -0.07947691 0.00443036 0 0 0 0
-0.03092692 -0.01573132 -0.05334176 0 0 0 0
0.06468325 0.02464818 -0.01066857 0 0 0 0
0.05869545 -0.01868132 -0.02262323 0 0 0 0
0.07249864 0.02513536 -0.00236600 0 0 0 0
-0.05749762 -0.02396330 -0.01853907 0 0 0 0
-0.05056076 0.00760439 -0.04183485 0 0 0 0
-0.00439728 -0.04748474 -0.04811798 0 0 0 0
0.04013710 -0.03049329 0.02936961 0 0 0 0
0.05873177 -0.02712805 -0.01414018 0 0 0 0
0.02528531 -0.06215414 -0.01256055 0 0 0 0
-0.05949786 0.00253330 0.03796884 0 0 0 0
0.01023513 -0.00608659 -0.08367828 0 0 0 0
-0.05263344 0.04120576 0.00616080 0 0 0 0
0.09182508 0.00671177 -0.00146315 0 0 0 0
-0.01413876 0.00203530 0.08382594 0 0 0 0
-0.00568155 -0.05723894 0.03707952 0 0 0 0
0.00884602 0.00037396 0.09078002 0 0 0 0
0.05886660 0.03661635 0.00451705 0 0 0 0
-0.05609047 -0.00489367 -0.03901586 0 0 0 0
0.02836054 0.06868921 -0.00295024 0 0 0 0
-0.02011919 0.07041030 0.00947052 0 0 0 0
-0.05757217 0.03159594 -0.01083189 0 0 0 0
-0.02668366 -0.04453152 -0.02878483 0 0 0 0
0.04304533 -0.00516221 -0.05179246 0 0 0 0
0.02779604 -0.05636434 -0.01583963 0 0 0 0
0.00548787 0.04051580 0.05399633 0 0 0 0
-0.02859585 0.06575310 -0.00565105 0 0 0 0
-0.08673973 -0.01231343 -0.00094685 0 0 0 0
-0.06967424 0.00380685 -0.02651891 0 0 0 0
0.05793666 -0.00405811 0.03800523 0 0 0 0
-0.02517485 0.05184215 -0.02298300 0 0 0 0
0.01311217 0.03149290 -0.05539494 0 0 0 0
0.02045630 0.07223038 -0.00731331 0 0 0 0
0.00511941 -0.09177478 -0.00310581 0 0 0 0
0.02625793 -0.02471608 -0.04902599 0 0 0 0
-0.01346701 0.01487989 0.07165311 0 0 0 0
0.02975276 -0.00629422 -0.06395302 0 0 0 0
0.01793610 -0.02290520 -0.05915869 0 0 0 0
-0.01391522 -0.03534287 0.05074191 0 0 0 0
0.08855634 -0.01066642 -0.00077723 0 0 0 0
0.01905097 0.05240989 -0.02853914 0 0 0 0
-0.04358984 -0.03410287 -0.02230729 0 0 0 0
0.03177079 -0.00009122 -0.06807430 0 0 0 0
-0.05553560 -0.01781937 -0.02664503 0 0 0 0
0.01221013 0.04816739 -0.03962248 0 0 0 0
-0.03860161 -0.00439086 -0.05700753 0 0 0 0
-0.03823004 -0.02059115 -0.04117881 0 0 0 0
0.01351184 -0.00336611 -0.08312204 0 0 0 0
-0.03863294 -0.05257152 -0.00879554 0 0 0 0
0.00419901 0.05129141 0.04450958 0 0 0 0
0.03029190 0.02195751 -0.04775060 0 0 0 0
0.02590232 -0.04100044 0.03309724 0 0 0 0
-0.03207377 0.02269884 -0.04522739 0 0 0 0
0.03157764 0.02668105 -0.04174130 0 0 0 0
-0.00080666 0.07018273 -0.02893280 0 0 0 0
-0.00499142 -0.03139545 0.06361313 0 0 0 0
0.02108256 0.02434018 -0.05457726 0 0 0 0
-0.03504574 0.04791795 -0.01703631 0 0 0 0
-0.00971060 -0.02762955 0.06265985 0 0 0 0
-0.01253556 0.00379399 0.08367045 0 0 0 0
0.07524725 0.01144669 -0.01330606 0 0 0 0
-0.05872317 -0.00649050 -0.03478632 0 0 0 0
-0.03181114 0.00211037 0.06607848 0 0 0 0
-0.01191004 0.08662725 0.00134705 0 0 0 0
0.04286443 0.00063117 -0.05650440 0 0 0 0
0.00803481 -0.04062811 -0.05133709 0 0 0 0
0.01797510 0.04530720 -0.03671769 0 0 0 0
0.02711676 -0.03815453 -0.03472871 0 0 0 0
-0.09603430 -0.00084873 -0.00281983 0 0 0 0
0.03864182 -0.00322022 -0.05813796 0 0 0 0
-0.04421303 -0.00617769 -0.04960928 0 0 0 0
-0.01550797 0.05428538 -0.03020664 0 0 0 0
0.01821831 0.07559298 -0.00618871 0 0 0 0
0.03300978 -0.03720542 -0.02978480 0 0 0 0
0.03283643 -0.01333430 -0.05382926 0 0 0 0
-0.09468416 0.00259148 -0.00272436 0 0 0 0
0.02888512 -0.01017884 -0.06093603 0 0 0 0
0.01338819 -0.00589329 -0.08071852 0 0 0 0
0.01226977 0.07713126 -0.01059897 0 0 0 0
0.05009996 -0.03820907 -0.01169097 0 0 0 0
-0.00119635 0.02928367 -0.06951998 0 0 0 0
-0.08332931 0.01440031 0.00227039 0 0 0 0
0.01558901 0.01513681 -0.06927417 0 0 0 0
-0.06487634 -0.01092787 -0.02419579 0 0 0 0
-0.04041306 0.03837944 0.02120749 0 0 0 0
-0.01214625 -0.03331580 -0.05453794 0 0 0 0
-0.01628396 -0.03896231 0.04475374 0 0 0 0
0.08228696 0.00722341 -0.01048963 0 0 0 0
-0.00354113 0.08070143 -0.01575745 0 0 0 0
0.07756215 0.00804450 -0.01439335 0 0 0 0
-0.06871799 0.00137265 -0.02990936 0 0 0 0
-0.01779227 -0.02228586 -0.05992187 0 0 0 0
0.01649388 -0.05048691 0.03301921 0 0 0 0
0.00296696 -0.02530996 -0.07172308 0 0 0 0
-0.01135018 -0.00784049 -0.08080933 0 0 0 0
-0.06105947 -0.02724699 -0.01169354 0 0 0 0
-0.00419679 0.09521437 -0.00058884 0 0 0 0
0.00682652 -0.07492886 -0.01824461 0 0 0 0
0.02304746 -0.06338336 -0.01356919 0 0 0 0
0.01846727 -0.03953490 -0.04199783 0 0 0 0
0.02930151 -0.06979572 0.00041176 0 0 0 0
0.03049666 0.03290759 -0.03659575 0 0 0 0
0.04244400 0.02491652 -0.03263948 0 0 0 0
0.00280475 0.01443156 -0.08276369 0 0 0 0
-0.00020406 -0.06875908 -0.03091625 0 0 0 0
-0.06893922 -0.02934070 -0.00172008 0 0 0 0
0.00742554 -0.07141629 -0.02115817 0 0 0 0
0.04937967 0.01166341 -0.03895692 0 0 0 0
0.02170616 -0.07708614 -0.00120769 0 0 0 0
0.06413577 0.03083172 0.00503250 0 0 0 0
0.03568365 0.02504455 -0.03927180 0 0 0 0
-0.01740948 0.07530750 -0.00728302 0 0 0 0
-0.01526550 -0.08035921 -0.00437529 0 0 0 0
0.07617433 0.01198013 -0.01184555 0 0 0 0
0.05480769 0.00364034 0.04155197 0 0 0 0
0.00853654 -0.07723109 0.01423238 0 0 0 0
-0.08505899 -0.01069449 -0.00424652 0 0 0 0
0.05250982 -0.01687670 0.03061349 0 0 0 0
0.00491476 0.00741173 -0.08767351 0 0 0 0
0.07510642 0.00094906 0.02394452 0 0 0 0
-0.05425798 0.03725325 -0.00848878 0 0 0 0
-0.03210821 0.03879884 0.02909295 0 0 0 0
-0.03741970 -0.03677324 -0.02580706 0 0 0 0
-0.04151166 -0.02419475 -0.03429358 0 0 0 0
-0.04918757 -0.00229045 -0.04852198 0 0 0 0
-0.05159083 0.04438215 -0.00402702 0 0 0 0
-0.02194826 -0.04940573 -0.02864601 0 0 0 0
-0.00922362 0.01760433 0.07317206 0 0 0 0
-0.04514429 -0.02524669 -0.02960902 0 0 0 0
-0.02519977 -0.07425825 -0.00019088 0 0 0 0
-0.05760540 -0.03777285 -0.00462175 0 0 0 0
0.02438525 0.01215867 -0.06345608 0 0 0 0
0.00794921 0.04834326 0.04370753 0 0 0 0
0.01318671 0.04709179 -0.03972151 0 0 0 0
0.02367662 0.07518484 -0.00113854 0 0 0 0
0.04612412 0.01792319 -0.03595268 0 0 0 0
-0.01599083 -0.06620125 -0.01780792 0 0 0 0
-0.00578964 0.02741025 -0.06680010 0 0 0 0
-0.02978866 0.01629499 0.05391634 0 0 0 0
0.03812364 -0.02899850 0.03287785 0 0 0 0
0.01993353 -0.07198889 0.00807758 0 0 0 0
-0.07163264 -0.00230626 0.02606110 0 0 0 0
-0.02571205 0.00933804 -0.06494991 0 0 0 0
-0.01315767 0.05085618 0.03598616 0 0 0 0
-0.05051333 0.00293206 -0.04655462 0 0 0 0
-0.06542409 0.02466590 -0.00991002 0 0 0 0
-0.04220999 0.05476359 -0.00302642 0 0 0 0
0.04248250 -0.01636113 -0.04115638 0 0 0 0
-0.08053236 0.00764170 -0.01182594 0 0 0 0
0.05659657 -0.01050101 -0.03290243 0 0 0 0
-0.06749971 0.02673294 -0.00576735 0 0 0 0
-0.03593891 -0.03517191 0.02888918 0 0 0 0
-0.03931978 -0.05842961 0.00225062 0 0 0 0
0.07465961 -0.01315960 -0.01218079 0 0 0 0
0.00275709 0.01232347 -0.08491944 0 0 0 0
-0.00578110 0.07225399 0.02196490 0 0 0 0
0.01773099 0.00672794 -0.07554107 0 0 0 0
0.02939125 0.02815719 0.04245156 0 0 0 0
-0.06035693 -0.00244945 -0.03719362 0 0 0 0
0.06089092 -0.01836006 0.02074902 0 0 0 0
-0.03167416 -0.03687356 0.03145228 0 0 0 0
0.03259794 0.00061452 -0.06678753 0 0 0 0
-0.01805918 0.02335087 -0.05858995 0 0 0 0
0.02819626 0.04264456 -0.02915918 0 0 0 0
0.04805521 0.04219342 0.00975137 0 0 0 0
0.00548543 0.04090915 -0.05360541 0 0 0 0
-0.03967544 -0.05633898 -0.00398558 0 0 0 0
0.00496624 -0.07177921 0.02325456 0 0 0 0
-0.03810101 -0.01025126 0.05164772 0 0 0 0
-0.01812694 -0.06559017 -0.01628288 0 0 0 0
0.01795061 -0.05706714 -0.02498224 0 0 0 0
-0.03216326 0.04613449 -0.02170225 0 0 0 0
0.00463662 0.09159213 -0.00377125 0 0 0 0
0.04414738 0.01994886 0.03590376 0 0 0 0
-0.06508211 0.02573295 -0.00918494 0 0 0 0
0.03085376 -0.06844205 0.00008006 0 0 0 0
0.01693797 0.01323205 0.06982999 0 0 0 0
0.04650394 0.05101600 -0.00248007 0 0 0 0
-0.04142105 0.00391709 -0.05466186 0 0 0 0
-0.02881072 0.04240411 -0.02878517 0 0 0 0
0.05186839 -0.01013343 -0.03799818 0 0 0 0
0.02894624 0.05406767 -0.01698609 0 0 0 0
0.03104071 -0.04678797 -0.02217132 0 0 0 0
0.00803457 0.04145237 0.05051306 0 0 0 0
0.09421628 -0.00393767 -0.00184605 0 0 0 0
-0.04283864 0.04831976 -0.00884160 0 0 0 0
-0.07163639 0.00951536 -0.01884824 0 0 0 0
0.05047926 0.01773437 -0.03178637 0 0 0 0
0.02488933 -0.00965659 -0.06545408 0 0 0 0
0.02923313 -0.05805593 -0.01271093 0 0 0 0
0.08668094 0.00244603 -0.01087303 0 0 0 0
-0.00800184 -0.02934534 -0.06265282 0 0 0 0
0.06711750 0.00471279 -0.02816970 0 0 0 0
-0.02439146 0.00166977 -0.07393877 0 0 0 0
0.04489735 -0.04475886 -0.01034379 0 0 0 0
0.02946361 0.02415839 0.04637800 0 0 0 0
0.05472423 -0.01393241 0.03134336 0 0 0 0
-0.06996725 -0.00152770 -0.02850505 0 0 0 0
-0.00467082 -0.09481437 -0.00051482 0 0 0 0
-0.01246928 0.05851544 -0.02901528 0 0 0 0
0.03417068 -0.03848122 -0.02734809 0 0 0 0
-0.04599867 0.03104369 -0.02295764 0 0 0 0
-0.02021191 0.06630578 -0.01348230 0 0 0 0
-0.04386730 -0.01132119 -0.04481151 0 0 0 0
0.03615545 0.01978781 0.04405674 0 0 0 0
0.04335534 0.01575542 -0.04088924 0 0 0 0
0.02566294 0.01167388 -0.06266318 0 0 0 0
0.09305418 -0.00390529 -0.00304053 0 0 0 0
0.08132833 0.01221663 -0.00645504 0 0 0 0
0.02597466 -0.04517230 -0.02885304 0 0 0 0
0.00874911 -0.06148236 -0.02976853 0 0 0 0
-0.00994567 -0.00660164 0.08345269 0 0 0 0
-0.04823444 -0.00168049 -0.05008507 0 0 0 0
-0.06054113 -0.00705486 0.03240401 0 0 0 0
-0.06870446 0.02286234 0.00843319 0 0 0 0
-0.05592551 -0.00198805 -0.04208644 0 0 0 0
-0.05629654 0.02659040 -0.01711307 0 0 0 0
-0.01190570 0.01312203 -0.07497226 0 0 0 0
-0.05746674 -0.02544311 -0.01709015 0 0 0 0
0.03635893 0.01987136 0.04376972 0 0 0 0
-0.04006773 0.01976206 -0.04017021 0 0 0 0
0.01657745 -0.04851868 0.03490387 0 0 0 0
-0.00469849 0.07826112 -0.01704038 0 0 0 0
0.03997480 -0.03357198 -0.02645322 0 0 0 0
-0.02802860 -0.06114653 -0.01082486 0 0 0 0
0.01420003 0.01293284 -0.07286713 0 0 0 0
0.03949203 0.05422199 -0.00628598 0 0 0 0
-0.09689865 0.00265856 -0.00044279 0 0 0 0
-0.04243930 -0.03055812 -0.02700258 0 0 0 0
0.00610566 -0.02605807 0.06783627 0 0 0 0
-0.00421676 0.00390612 0.09187712 0 0 0 0
-0.01028523 0.02732933 0.06238544 0 0 0 0
0.06195674 -0.03504407 0.00299918 0 0 0 0
0.04947497 0.04178573 -0.00873930 0 0 0 0
-0.05831740 -0.01221313 0.02946947 0 0 0 0
0.01315877 0.01538729 0.07145394 0 0 0 0
-0.00006841 0.07307652 0.02624341 0 0 0 0
-0.00970984 0.00096862 -0.08932154 0 0 0 0
0.01455558 0.06186363 -0.02358079 0 0 0 0
-0.08114914 0.01566881 -0.00318205 0 0 0 0
0.04367054 0.04247855 0.01385091 0 0 0 0
0.06461717 0.02771760 -0.00766523 0 0 0 0
-0.00263177 -0.05989099 -0.03747724 0 0 0 0
0.00146210 0.09605964 0.00247827 0 0 0 0
0.00163611 -0.08947296 0.00889094 0 0 0 0
0.04848851 -0.02931561 0.02219588 0 0 0 0
0.04019554 -0.04140528 -0.01839919 0 0 0 0
0.05045592 0.01640208 0.03314200 0 0 0 0
0.08220311 -0.00639068 0.01140621 0 0 0 0
-0.03364177 -0.01091604 -0.05544218 0 0 0 0
0.01064603 -0.02208849 0.06726549 0 0 0 0
-0.01157912 -0.02158896 -0.06683192 0 0 0 0
-0.00111579 0.09249963 0.00628602 0 0 0 0
-0.07991952 -0.01075365 -0.00932683 0 0 0 0
0.05681792 0.02077512 0.02240696 0 0 0 0
0.02703423 -0.02293893 -0.05002684 0 0 0 0
-0.06447662 0.02947488 0.00604849 0 0 0 0
0.00722100 -0.05069883 -0.04208017 0 0 0 0
-0.03240820 0.06261238 0.00497942 0 0 0 0
0.00115207 -0.03526423 -0.06358370 0 0 0 0
0.01809414 0.05951716 -0.02238870 0 0 0 0
0.07882188 -0.02066132 -0.00051679 0 0 0 0
-0.08561053 0.00080595 0.01358352 0 0 0 0
-0.01861335 -0.05692790 -0.02445875 0 0 0 0
-0.01708013 -0.03651102 0.04640885 0 0 0 0
-0.08891198 -0.00272630 0.00836172 0 0 0 0
0.03633779 0.04244651 -0.02121570 0 0 0 0
-0.02219540 -0.02730189 0.05050272 0 0 0 0
-0.04171552 -0.04457565 0.01370883 0 0 0 0
-0.00848824 0.07523458 -0.01627717 0 0 0 0
0.03519631 -0.00675077 0.05805292 0 0 0 0
0.07122770 0.01233973 0.01643258 0 0 0 0
-0.00275410 -0.00558504 0.09166086 0 0 0 0
0.03540272 -0.02475137 -0.03984592 0 0 0 0
0.03101532 0.06056640 0.00841829 0 0 0 0
0.02609880 -0.06491468 0.00898652 0 0 0 0
0.03067961 -0.01620561 0.05311478 0 0 0 0
-0.01500712 0.07856750 0.00642539 0 0 0 0
0.00068524 0.04972008 -0.04954817 0 0 0 0
-0.08596382 0.00765869 -0.00637749 0 0 0 0
0.08132868 -0.01673567 -0.00193565 0 0 0 0
0.06483797 -0.03369297 0.00135766 0 0 0 0
-0.05329867 -0.01050015 0.03620117 0 0 0 0
0.07818188 -0.00763710 0.01418103 0 0 0 0
0.03388983 -0.05811709 -0.00799308 0 0 0 0
-0.04072055 -0.04015072 0.01912873 0 0 0 0
0.02580911 -0.04223917 -0.03195173 0 0 0 0
0.01356587 -0.08247378 0.00396034 0 0 0 0
0.00537737 -0.01885120 -0.07577143 0 0 0 0
0.02331463 0.04821777 0.02846760 0 0 0 0
-0.04070348 -0.00687303 -0.05242349 0 0 0 0
-0.00592355 0.09334396 -0.00073248 0 0 0 0
-0.05421045 -0.01656957 -0.02921998 0 0 0 0
-0.01840409 -0.07465529 -0.00694061 0 0 0 0
0.03710165 -0.01362778 0.04927058 0 0 0 0
0.00689738 0.06019353 -0.03290908 0 0 0 0
0.03253194 0.04769476 0.01977330 0 0 0 0
-0.02632807 0.01122251 -0.06244941 0 0 0 0
-0.05265476 -0.02985308 -0.01749216 0 0 0 0
-0.04126518 -0.01837666 0.04035816 0 0 0 0
0.05840396 -0.00783127 -0.03376477 0 0 0 0
0.05217110 -0.01193407 -0.03589483 0 0 0 0
-0.02126592 -0.06658077 0.01215331 0 0 0 0
0.01271621 -0.00823769 -0.07904611 0 0 0 0
-0.02636716 0.03630792 -0.03732491 0 0 0 0
-0.03732327 0.01661146 0.04606526 0 0 0 0
-0.00689654 0.06173430 0.03136917 0 0 0 0
-0.01946548 0.01843629 -0.06209823 0 0 0 0
0.08560701 -0.00525541 -0.00913759 0 0 0 0
0.01665353 0.04048478 0.04286169 0 0 0 0
0.00446529 -0.06753597 0.02799873 0 0 0 0
0.04593042 0.04547964 -0.00858995 0 0 0 0
0.01361487 -0.01749590 -0.06888924 0 0 0 0
-0.08227584 -0.01501384 -0.00271033 0 0 0 0
-0.01579658 0.01839530 -0.06580812 0 0 0 0
0.01820370 0.01763896 -0.06415734 0 0 0 0
0.00879270 0.01519419 -0.07601310 0 0 0 0
-0.04001752 -0.04708786 -0.01289462 0 0 0 0
0.05436151 -0.01617503 -0.02946346 0 0 0 0
-0.00878083 0.03284885 0.05837032 0 0 0 0
-0.02577285 -0.00842612 -0.06580103 0 0 0 0
-0.06363343 -0.00459225 0.03177433 0 0 0 0
-0.07126076 0.01127473 -0.01746451 0 0 0 0
0.07435555 -0.01781778 -0.00782667 0 0 0 0
0.00260667 -0.02488058 -0.07251275 0 0 0 0
-0.01694692 -0.07801538 -0.00503770 0 0 0 0
-0.06313263 -0.00916785 -0.02769952 0 0 0 0
-0.01384395 -0.03379536 -0.05236068 0 0 0 0
-0.06493471 0.00522783 -0.02983747 0 0 0 0
-0.04041579 0.00672674 0.05285748 0 0 0 0
0.05030359 -0.04919612 -0.00026051 0 0 0 0
-0.03308037 0.06565139 0.00102223 0 0 0 0
0.00493110 0.03259695 -0.06247195 0 0 0 0
0.02270477 0.02210413 0.05519109 0 0 0 0
-0.07186820 0.02622083 -0.00191098 0 0 0 0
-0.04268319 0.05309730 -0.00421951 0 0 0 0
-0.02770937 -0.04688130 -0.02540933 0 0 0 0
-0.00357181 0.07471897 -0.02170922 0 0 0 0
-0.00382457 0.00551067 -0.09066476 0 0 0 0
0.02261750 0.03658591 -0.04079659 0 0 0 0
0.02275497 0.07239246 -0.00485256 0 0 0 0
-0.01934568 0.05367111 -0.02698321 0 0 0 0
-0.00964051 -0.03719028 -0.05316920 0 0 0 0
0.01249772 -0.07287301 -0.01462926 0 0 0 0
0.01959600 0.02765504 0.05274896 0 0 0 0
0.01396322 0.05368528 -0.03235150 0 0 0 0
0.02246234 0.02293804 -0.05459961 0 0 0 0
-0.01360465 0.08397351 0.00242183 0 0 0 0
0.06874431 0.01877826 0.01247743 0 0 0 0
0.00578492 -0.00802812 -0.08618696 0 0 0 0
-0.04314639 0.04909183 -0.00776178 0 0 0 0
0.01851665 -0.06534441 -0.01613895 0 0 0 0
-0.00848407 0.06835105 -0.02316488 0 0 0 0
0.02818083 0.02900538 0.04281379 0 0 0 0
0.01638459 0.04673023 0.03688518 0 0 0 0
-0.01675311 -0.02872278 -0.05452411 0 0 0 0
-0.00690116 -0.04306380 0.05003504 0 0 0 0
0.07323109 -0.00684258 -0.01992633 0 0 0 0
-0.02297796 0.06408862 -0.01293342 0 0 0 0
0.00104844 -0.09274934 -0.00620221 0 0 0 0
-0.00677790 -0.03431648 0.05890562 0 0 0 0
-0.05407779 -0.04487026 0.00066093 0 0 0 0
0.07856433 -0.01843916 -0.00299651 0 0 0 0
0.01245649 0.07272680 -0.01481671 0 0 0 0
0.04985147 -0.04071483 -0.00943370 0 0 0 0
-0.03118716 -0.04543118 -0.02338167 0 0 0 0
-0.02860925 -0.04036788 0.03102287 0 0 0 0
0.00724458 0.00648163 -0.08627378 0 0 0 0
0.01623637 -0.02437565 -0.05938797 0 0 0 0
-0.00843663 -0.02695851 -0.06460486 0 0 0 0
0.05774094 -0.02847339 -0.01378568 0 0 0 0
0.05869313 0.03987258 -0.00143428 0 0 0 0
0.02692478 -0.00474088 -0.06833434 0 0 0 0
-0.00998428 -0.03574077 0.05427495 0 0 0 0
-0.01200704 -0.08633783 -0.00165512 0 0 0 0
0.04522249 0.03666879 -0.01810872 0 0 0 0
0.03165490 -0.06605825 -0.00228686 0 0 0 0
0.03249336 -0.00448711 -0.06301953 0 0 0 0
-0.01218452 0.01141410 -0.07640138 0 0 0 0
0.01926498 -0.08028959 -0.00044542 0 0 0 0
-0.03144901 0.04159545 -0.02695555 0 0 0 0
-0.03217057 0.04670472 0.02112471 0 0 0 0
0.04051078 0.02934628 -0.03014295 0 0 0 0
0.01286278 0.03508948 0.05204774 0 0 0 0
0.00060836 -0.04593443 0.05345721 0 0 0 0
0.00845689 -0.08229659 -0.00924651 0 0 0 0
-0.03606611 0.02397675 -0.03995714 0 0 0 0
-0.01353278 -0.00216979 -0.08429743 0 0 0 0
-0.05294015 -0.00613948 -0.04092037 0 0 0 0
-0.04932775 0.03194181 0.01873044 0 0 0 0
-0.03838959 0.05161896 0.00999145 0 0 0 0
0.00266672 0.08893769 -0.00839558 0 0 0 0
0.09239845 -0.00564664 -0.00195490 0 0 0 0
0.07287477 -0.00267542 0.02444981 0 0 0 0
-0.03669376 0.05368051 -0.00962573 0 0 0 0
-0.00472171 0.00737119 -0.08790711 0 0 0 0
0.04168405 -0.00950813 0.04880781 0 0 0 0
-0.05529586 -0.00222324 -0.04248090 0 0 0 0
0.00085789 0.09022644 -0.00891566 0 0 0 0
0.03003570 0.03986542 -0.03009888 0 0 0 0
-0.03667846 -0.05258311 -0.01073844 0 0 0 0
0.01798053 0.06370748 -0.01831200 0 0 0 0
-0.05149885 0.04629285 0.00220830 0 0 0 0
-0.02026243 -0.00841495 -0.07132263 0 0 0 0
-0.02502153 -0.02567697 -0.04930150 0 0 0 0
-0.03499424 0.04779211 -0.01721366 0 0 0 0
-0.01602059 -0.04628427 -0.03769514 0 0 0 0
0.00773177 -0.03174919 -0.06051905 0 0 0 0
0.05486131 0.03587393 -0.00926477 0 0 0 0
-0.00100136 0.01378904 0.08520960 0 0 0 0
0.01334577 0.05156400 0.03509022 0 0 0 0
0.00019735 -0.00501633 -0.09478633 0 0 0 0
-0.04485404 0.03554565 0.01960030 0 0 0 0
0.01582025 -0.06327139 -0.02090836 0 0 0 0
0.04942678 0.02807361 -0.02249961 0 0 0 0
0.01742468 -0.00200101 -0.08057431 0 0 0 0
-0.00502174 0.08867739 -0.00630087 0 0 0 0
0.05436216 -0.00076521 -0.04487263 0 0 0 0
0.00596335 -0.08409892 -0.00993773 0 0 0 0
0.01973607 -0.07052040 0.00974353 0 0 0 0
0.01174461 -0.07798495 0.01027044 0 0 0 0
0.09321978 0.00369483 -0.00308539 0 0 0 0
-0.03525348 -0.06289540 0.00185112 0 0 0 0
-0.04427050 -0.02155128 -0.03417822 0 0 0 0
0.00808473 0.01504093 0.07687435 0 0 0 0
0.00830196 0.04076179 0.05093626 0 0 0 0
-0.06000217 0.01671629 -0.02328154 0 0 0 0
0.03259750 0.00156060 0.06584190 0 0 0 0
0.05560071 0.02151387 -0.02288542 0 0 0 0
0.05909235 -0.02393817 -0.01696948 0 0 0 0
-0.01642281 -0.02455699 -0.05902020 0 0 0 0
-0.06155158 -0.02158734 -0.01686108 0 0 0 0
-0.00121252 0.04447929 -0.05430819 0 0 0 0
-0.02604190 -0.02823702 0.04572109 0 0 0 0
-0.08441678 0.00146491 0.01411830 0 0 0 0
0.06051638 0.03810820 -0.00137542 0 0 0 0
0.06140510 0.02873059 0.00986431 0 0 0 0
0.03031370 0.02128554 -0.04840076 0 0 0 0
0.06727332 0.02308533 -0.00964135 0 0 0 0
-0.04437120 -0.01118292 0.04444588 0 0 0 0
-0.00186423 0.05347840 -0.04465737 0 0 0 0
-0.03806766 0.03680394 0.02512840 0 0 0 0
0.01535099 0.00619653 -0.07845248 0 0 0 0
0.04075688 -0.04491292 0.01433020 0 0 0 0
0.02497383 0.01936858 -0.05565760 0 0 0 0
-0.02032712 -0.04921933 -0.03045356 0 0 0 0
0.06280431 -0.03499112 -0.00220457 0 0 0 0
0.01133258 -0.03554953 0.05311789 0 0 0 0
0.01485263 0.00179454 -0.08335282 0 0 0 0
0.07423761 -0.01587890 -0.00988349 0 0 0 0
-0.03185921 0.01884863 -0.04929216 0 0 0 0
-0.02187208 0.04875454 -0.02937339 0 0 0 0
-0.03221651 -0.01588089 -0.05190260 0 0 0 0
-0.03547801 -0.01390856 -0.05061343 0 0 0 0
0.02299205 0.03238245 -0.04462550 0 0 0 0
-0.06301226 -0.03028241 -0.00670532 0 0 0 0
-0.01838538 0.05673733 -0.02487729 0 0 0 0
-0.00491002 0.00141842 -0.09367156 0 0 0 0
0.02007489 0.06213576 -0.01778934 0 0 0 0
-0.01019194 0.06765480 0.02215326 0 0 0 0
0.02413157 -0.03766232 0.03820611 0 0 0 0
0.05030508 -0.04875733 -0.00093760 0 0 0 0
-0.00653211 0.06592259 -0.02754529 0 0 0 0
-0.00105041 -0.03852121 -0.06042837 0 0 0 0
-0.00263274 0.06383256 -0.03353471 0 0 0 0
-0.08517490 0.00354836 -0.01127674 0 0 0 0
-0.05609708 0.00938670 -0.03451622 0 0 0 0
0.01986375 0.07546832 -0.00466793 0 0 0 0
-0.07054366 0.01763663 0.01181971 0 0 0 0
-0.00112248 -0.09683363 0.00204388 0 0 0 0
-0.07909885 -0.00905022 -0.01185093 0 0 0 0
0.06419168 -0.01453507 0.02127325 0 0 0 0
0.06037890 0.02656813 -0.01305297 0 0 0 0
0.02804007 -0.01139425 -0.06056569 0 0 0 0
0.05181554 0.01914172 0.02904274 0 0 0 0
0.00166810 0.00853409 -0.08979781 0 0 0 0
-0.05251416 -0.01376113 -0.03372471 0 0 0 0
-0.01936682 0.00097176 -0.07966142 0 0 0 0
-0.01154715 0.03885364 -0.04959921 0 0 0 0
0.02264023 0.06372015 -0.01363961 0 0 0 0
-0.02193943 -0.04234830 -0.03571227 0 0 0 0
0.05576122 -0.00307401 0.04116477 0 0 0 0
-0.02318746 0.06523135 -0.01158119 0 0 0 0
0.05551391 -0.02048040 -0.02400570 0 0 0 0
0.02959181 0.03161037 -0.03879781 0 0 0 0
0.00509553 -0.01178187 -0.08312260 0 0 0 0
0.06445792 0.00025227 -0.03526831 0 0 0 0
0.02037819 -0.01469055 -0.06493126 0 0 0 0
0.02756040 -0.02897086 0.04346874 0 0 0 0
-0.07996067 -0.01561971 0.00441961 0 0 0 0
-0.04895650 0.03195596 0.01908754 0 0 0 0
0.04426081 0.02110063 -0.03463857 0 0 0 0
-0.04144673 0.04663232 -0.01192095 0 0 0 0
0.00604197 0.07584776 -0.01811026 0 0 0 0
-0.02313916 -0.02380344 -0.05305739 0 0 0 0
0.00787518 -0.01591669 -0.07620813 0 0 0 0
0.03514553 0.04911464 -0.01573982 0 0 0 0
-0.08964602 0.00984692 -0.00050706 0 0 0 0
0.00992074 -0.01046680 0.07961246 0 0 0 0
-0.05615493 -0.00125135 -0.04259372 0 0 0 0
0.04076976 -0.00058481 -0.05864543 0 0 0 0
0.01141312 0.05705432 0.03153256 0 0 0 0
-0.05958134 0.01004824 -0.03037042 0 0 0 0
-0.06399415 -0.01929476 -0.01671110 0 0 0 0
-0.00970962 -0.02923079 0.06105959 0 0 0 0
0.02261135 0.04991502 -0.02747364 0 0 0 0
-0.05814497 0.02843807 -0.01341697 0 0 0 0
-0.02334963 -0.01346006 -0.06319032 0 0 0 0
0.06190066 0.02249724 -0.01560209 0 0 0 0
-0.04516971 0.05041007 0.00442021 0 0 0 0
0.00606834 0.04580983 -0.04812183 0 0 0 0
-0.05341543 0.02080236 0.02578222 0 0 0 0
0.02452700 -0.02407617 0.05139683 0 0 0 0
-0.07794093 0.00070610 -0.02135297 0 0 0 0
-0.07600103 -0.00859621 0.01540276 0 0 0 0
-0.02431766 0.04408253 -0.03159981 0 0 0 0
0.07792308 0.02153024 -0.00018304 0 0 0 0
-0.06546198 0.00280839 0.03172963 0 0 0 0
-0.04420099 0.03830428 0.01749473 0 0 0 0
0.09116028 0.00464744 -0.00419229 0 0 0 0
0.00925797 -0.08346065 -0.00728138 0 0 0 0
-0.01492780 0.04148883 0.04358337 0 0 0 0
0.04255459 0.05627011 0.00086697 0 0 0 0
0.06118271 -0.02337932 -0.01543797 0 0 0 0
-0.06405811 0.02846710 -0.00747479 0 0 0 0
0.04664471 0.03923377 -0.01412152 0 0 0 0
-0.04862321 -0.04236449 -0.00901230 0 0 0 0
0.03798354 -0.01772819 0.04428827 0 0 0 0
-0.01121742 -0.01097524 -0.07780735 0 0 0 0
-0.03671512 0.04178398 -0.02150090 0 0 0 0
-0.05775690 -0.02335509 -0.01888800 0 0 0 0
-0.03231468 0.04353896 -0.02414635 0 0 0 0
-0.09744687 -0.00166527 -0.00088785 0 0 0 0
0.04780652 -0.00358337 -0.04861011 0 0 0 0
0.02781824 0.03351351 0.03866825 0 0 0 0
-0.00791869 -0.02731811 -0.06476320 0 0 0 0
-0.03464770 -0.01898244 -0.04636986 0 0 0 0
0.08051104 0.01337038 -0.00611858 0 0 0 0
-0.00430944 0.00959819 0.08609237 0 0 0 0
0.03958590 -0.00383542 0.05657868 0 0 0 0
0.08734329 -0.00455132 -0.00810538 0 0 0 0
0.01333384 -0.05705723 0.02960893 0 0 0 0
0.05535939 -0.03918566 0.00545495 0 0 0 0
-0.02859677 -0.06691894 -0.00448429 0 0 0 0
-0.01855594 0.03884753 -0.04259654 0 0 0 0
-0.02908973 0.02217775 -0.04873251 0 0 0 0
0.02278611 0.00734245 0.06987145 0 0 0 0
0.04281054 -0.04235760 -0.01483185 0 0 0 0
-0.04412217 -0.02165943 -0.03421839 0 0 0 0
0.01860916 -0.02584430 -0.05554654 0 0 0 0
-0.04726837 -0.01690904 0.03582259 0 0 0 0
0.03690795 0.04937714 -0.01371492 0 0 0 0
-0.06510187 0.00394783 -0.03095031 0 0 0 0
-0.05028179 0.04835085 -0.00136736 0 0 0 0
0.05238991 -0.04547979 0.00213030 0 0 0 0
-0.06209156 0.00739048 0.03051796 0 0 0 0
-0.00264145 0.05537563 0.04198292 0 0 0 0
-0.03792535 0.01682956 0.04524508 0 0 0 0
-0.00502404 -0.07547720 -0.01949876 0 0 0 0
-0.03243669 0.01266825 0.05489505 0 0 0 0
-0.06871254 0.00055314 -0.03073432 0 0 0 0
-0.00842247 0.02339989 0.06817764 0 0 0 0
0.01097591 0.01718927 0.07183482 0 0 0 0
0.05511316 0.01906690 0.02581995 0 0 0 0
0.02277856 -0.05256204 -0.02465940 0 0 0 0
-0.05124021 -0.01750064 -0.03125916 0 0 0 0
-0.00003640 0.07745907 0.02235401 0 0 0 0
0.00161388 0.01214079 0.08624532 0 0 0 0
0.03472644 -0.03270617 -0.03256739 0 0 0 0
-0.00169750 -0.07400374 0.02429876 0 0 0 0
-0.03735724 -0.00138775 -0.06125501 0 0 0 0
0.04928134 0.03295289 -0.01776577 0 0 0 0
-0.00172101 -0.01544757 -0.08283142 0 0 0 0
0.00542377 0.05375756 -0.04081867 0 0 0 0
0.02753436 0.06236258 0.01010306 0 0 0 0
0.07074663 0.00749594 -0.02175743 0 0 0 0
0.02865039 0.03761750 -0.03373211 0 0 0 0
-0.02497814 -0.04240283 0.03261904 0 0 0 0
0.04037336 -0.01768600 0.04194064 0 0 0 0
0.03279641 0.05546347 0.01174012 0 0 0 0
0.00900590 0.04397777 0.04701633 0 0 0 0
0.00405711 -0.01643228 -0.07951061 0 0 0 0
-0.00858578 -0.05805584 -0.03335839 0 0 0 0
0.04881754 0.00600969 -0.04517277 0 0 0 0
-0.04462475 0.01397847 -0.04139677 0 0 0 0
-0.01350486 -0.03350531 -0.05298983 0 0 0 0
-0.08234777 -0.00198316 -0.01566907 0 0 0 0
0.01814799 0.02341974 -0.05843226 0 0 0 0
0.05538530 -0.02706390 -0.01755080 0 0 0 0
