ply
format ascii 1.0
comment https://github.com/mikedh/trimesh
element vertex 1120
property float x
property float y
property float z
property uchar red
property uchar green
property uchar blue
property uchar alpha
end_header
0.01174230 0.05912597 -0.03957868 0 0 0 0
-0.04093481 -0.07933359 -0.01034768 0 0 0 0
-0.06899936 -0.05318979 -0.01257388 0 0 0 0
-0.05202659 0.02021383 -0.04398517 0 0 0 0
0.07888798 -0.00726801 0.02059633 0 0 0 0
0.04628239 0.06888664 -0.01688213 0 0 0 0
0.07091442 -0.03401299 0.02103010 0 0 0 0
0.02147712 -0.07712865 0.01957444 0 0 0 0
-0.08406321 0.02325296 -0.01267505 0 0 0 0
0.03086045 -0.02403884 -0.06081227 0 0 0 0
0.05043917 -0.03307340 -0.03944247 0 0 0 0
-0.03301254 0.01829397 0.06211103 0 0 0 0
-0.04312521 -0.02587544 -0.04959320 0 0 0 0
-0.04615306 -0.06839339 -0.01737766 0 0 0 0
0.06325206 -0.05291656 -0.01746659 0 0 0 0
-0.01540140 -0.07817419 -0.01995341 0 0 0 0
0.03967735 -0.00755792 -0.05944826 0 0 0 0
0.05741676 0.00751067 -0.04208390 0 0 0 0
0.00782333 0.02972958 -0.06918074 0 0 0 0
0.06816846 0.06547101 -0.00508157 0 0 0 0
-0.06180277 -0.00305233 -0.03784394 0 0 0 0
0.07141023 -0.00500611 -0.02810683 0 0 0 0
0.06753122 -0.02643014 -0.02715945 0 0 0 0
0.09806417 0.00234291 -0.00145576 0 0 0 0
-0.02364371 0.00303427 -0.07606358 0 0 0 0
-0.07954799 0.00994186 -0.01980366 0 0 0 0
0.00577622 0.00460480 -0.09259380 0 0 0 0
-0.03748033 0.04017291 -0.04499166 0 0 0 0
-0.05954980 -0.01708629 -0.03785401 0 0 0 0
-0.01624170 0.06750979 -0.03030837 0 0 0 0
-0.00206280 0.09791568 -0.00169910 0 0 0 0
0.08113737 0.02172905 -0.01567208 0 0 0 0
0.03164022 -0.01327210 0.06565022 0 0 0 0
-0.03324977 -0.06324204 0.02824822 0 0 0 0
-0.06832038 0.01434178 -0.02987718 0 0 0 0
-0.06778482 -0.02124964 0.02885745 0 0 0 0
-0.04021806 -0.01849770 0.05553105 0 0 0 0
-0.06374504 -0.04018751 0.02454676 0 0 0 0
0.02397566 0.02854797 -0.06264050 0 0 0 0
0.07291257 -0.02964087 0.02096448 0 0 0 0
-0.06333406 -0.03203505 -0.02879023 0 0 0 0
0.01282652 0.00933163 -0.08412067 0 0 0 0
0.04784820 -0.01608145 -0.04931966 0 0 0 0
0.05422026 0.01199570 -0.04435052 0 0 0 0
-0.01546082 0.04680225 0.05048142 0 0 0 0
-0.05298225 0.00241772 0.04678451 0 0 0 0
-0.05311437 -0.08012255 -0.00342826 0 0 0 0
0.05741208 -0.00702621 -0.04191011 0 0 0 0
0.08718588 -0.03702781 0.00484820 0 0 0 0
0.03216169 -0.02094031 -0.06162157 0 0 0 0
0.05662282 0.05006634 0.02416421 0 0 0 0
-0.00393872 -0.01209515 -0.08724240 0 0 0 0
0.02035004 -0.01919452 -0.07199270 0 0 0 0
-0.00747317 -0.04518011 -0.05402271 0 0 0 0
0.02766678 -0.03431750 -0.05574520 0 0 0 0
-0.08206599 -0.05017311 -0.00358785 0 0 0 0
0.08083393 -0.04261845 -0.00835889 0 0 0 0
0.06210259 0.06189012 -0.01193063 0 0 0 0
-0.01263310 -0.01952599 -0.07667960 0 0 0 0
-0.01002690 0.02415178 -0.07372916 0 0 0 0
0.06364576 -0.05071744 -0.01840619 0 0 0 0
0.00468274 0.07995717 -0.01953526 0 0 0 0
-0.03061333 0.05334619 0.03821044 0 0 0 0
0.06759465 -0.03732952 0.02272314 0 0 0 0
0.02233737 -0.04327514 -0.05127994 0 0 0 0
-0.07208904 -0.03252099 -0.02074889 0 0 0 0
0.08067113 -0.03402673 -0.01205345 0 0 0 0
-0.02591805 0.01844652 -0.06804150 0 0 0 0
-0.00542678 0.00522531 -0.09243613 0 0 0 0
0.08194105 0.00545394 -0.01785927 0 0 0 0
0.06201662 0.03381209 0.02904887 0 0 0 0
0.08194552 0.03516718 0.01066820 0 0 0 0
-0.05637445 -0.01612517 0.04109538 0 0 0 0
0.05914239 0.03732258 -0.02997771 0 0 0 0
0.02563554 -0.06752656 -0.02750055 0 0 0 0
-0.01507178 -0.08576699 0.01281212 0 0 0 0
-0.00087681 -0.09226023 -0.00731147 0 0 0 0
0.04072061 0.00869161 -0.05817299 0 0 0 0
0.01438335 0.02454219 0.07151593 0 0 0 0
0.04002690 -0.05665842 -0.03035737 0 0 0 0
0.02280893 0.00619725 -0.07634492 0 0 0 0
0.01052146 0.09085180 -0.00838900 0 0 0 0
-0.08733819 0.03258994 0.00634769 0 0 0 0
-0.06543697 0.03984620 0.02317875 0 0 0 0
0.05592730 -0.04713600 -0.02682455 0 0 0 0
0.07816948 0.05889301 -0.00171127 0 0 0 0
-0.06777377 0.07106788 0.00114796 0 0 0 0
-0.04822683 -0.06994648 0.01470482 0 0 0 0
0.02387127 0.07611261 -0.01987260 0 0 0 0
-0.04397416 -0.01150477 0.05454329 0 0 0 0
0.02707895 -0.05781738 0.03595030 0 0 0 0
0.00531171 -0.03798963 -0.06157053 0 0 0 0
0.04917213 0.03011710 -0.04217268 0 0 0 0
0.04397307 -0.03177366 -0.04555835 0 0 0 0
0.01041697 0.08963047 -0.00935444 0 0 0 0
-0.07732355 -0.01192851 0.02140061 0 0 0 0
0.08632686 -0.04769368 0.00056861 0 0 0 0
0.02780717 0.04156001 0.04991107 0 0 0 0
-0.05320588 -0.08265834 0.00137297 0 0 0 0
-0.01620468 0.02652470 -0.06890688 0 0 0 0
0.07992648 -0.00562128 0.01983042 0 0 0 0
-0.06298950 0.06602848 0.00846834 0 0 0 0
-0.05500894 0.07616907 -0.00571865 0 0 0 0
0.03928906 -0.04659370 -0.03891447 0 0 0 0
0.05237420 0.06648266 0.01503399 0 0 0 0
-0.05121966 -0.06260343 0.01875340 0 0 0 0
0.08738650 -0.00326988 -0.01229806 0 0 0 0
0.05599312 0.02790022 -0.03736519 0 0 0 0
0.06354700 -0.06897116 -0.00585418 0 0 0 0
0.06114134 -0.02331321 0.03426546 0 0 0 0
0.03227449 -0.04530222 -0.04416789 0 0 0 0
-0.01511374 0.01980652 -0.07503998 0 0 0 0
-0.06878483 -0.02616147 0.02627386 0 0 0 0
0.05011882 0.05242648 0.02725549 0 0 0 0
-0.07388560 0.03997690 -0.01561229 0 0 0 0
0.01332417 -0.08788027 0.01103551 0 0 0 0
0.04126083 0.04365464 -0.03965744 0 0 0 0
0.09794191 0.00527634 -0.00182387 0 0 0 0
0.07811421 -0.00040674 0.02157657 0 0 0 0
-0.05919300 -0.07233675 -0.00642501 0 0 0 0
-0.05374289 0.04637598 0.02870728 0 0 0 0
0.09448268 0.00907143 -0.00484091 0 0 0 0
0.01244909 -0.03984521 -0.05820194 0 0 0 0
-0.07139201 -0.01373065 -0.02699435 0 0 0 0
-0.09888674 -0.00032467 -0.00071569 0 0 0 0
-0.00548939 0.07128456 0.02817832 0 0 0 0
-0.00560916 -0.00353512 -0.09334628 0 0 0 0
0.04264484 0.08630145 -0.00355689 0 0 0 0
0.00134436 -0.09788699 0.00194716 0 0 0 0
-0.07274639 -0.01287013 -0.02578909 0 0 0 0
0.00410283 -0.05610716 0.04348410 0 0 0 0
-0.01824662 0.02347415 -0.07023488 0 0 0 0
0.00053962 -0.01971968 -0.08018878 0 0 0 0
0.01991321 0.07527267 -0.02194817 0 0 0 0
-0.04317055 0.00524416 -0.05648246 0 0 0 0
-0.07462458 0.00266267 0.02515324 0 0 0 0
0.06081862 0.05171208 -0.01984083 0 0 0 0
0.08478869 -0.02885696 -0.01037318 0 0 0 0
-0.01206638 -0.05563720 0.04301324 0 0 0 0
-0.00526605 0.07431115 -0.02528026 0 0 0 0
-0.03639144 0.04003381 0.04567381 0 0 0 0
-0.00682886 0.07549328 -0.02390162 0 0 0 0
-0.04249004 -0.06727850 -0.02006552 0 0 0 0
0.06020164 -0.07194152 -0.00576053 0 0 0 0
-0.03270483 -0.02206868 0.06036741 0 0 0 0
-0.05550945 0.03355507 0.03497481 0 0 0 0
-0.00443258 -0.00638509 0.09219454 0 0 0 0
-0.00159544 0.05457988 0.04517670 0 0 0 0
-0.03628588 0.06396621 0.02625470 0 0 0 0
0.01934715 -0.05029690 -0.04591910 0 0 0 0
-0.05349975 0.06797426 0.01315994 0 0 0 0
0.05286613 0.07313950 -0.00934631 0 0 0 0
0.06599780 -0.04933605 0.01725798 0 0 0 0
0.02393372 -0.04004101 0.05315034 0 0 0 0
-0.05306759 0.00757838 -0.04632856 0 0 0 0
-0.04214532 -0.08788536 -0.00229088 0 0 0 0
-0.03211077 -0.00976948 -0.06636498 0 0 0 0
-0.00421712 -0.05880270 0.04086755 0 0 0 0
-0.08273184 -0.04581287 -0.00536739 0 0 0 0
0.03505782 0.05049907 -0.03827569 0 0 0 0
-0.04858247 0.07358850 -0.01163236 0 0 0 0
-0.07054066 -0.01645653 0.02740161 0 0 0 0
-0.05517290 0.02738081 0.03813319 0 0 0 0
0.04738716 0.07896584 -0.00751451 0 0 0 0
0.09420000 -0.02600326 0.00192231 0 0 0 0
0.02776081 -0.00295899 0.07202937 0 0 0 0
-0.06161727 0.06852548 -0.00745183 0 0 0 0
0.05856809 -0.03573760 0.03120009 0 0 0 0
-0.07018913 0.00951502 -0.02886327 0 0 0 0
0.03529916 -0.07439469 -0.01747527 0 0 0 0
-0.01549923 0.04542302 -0.05190887 0 0 0 0
0.01364088 -0.06924878 -0.02909300 0 0 0 0
0.09149709 -0.03123620 -0.00289627 0 0 0 0
0.03370620 -0.09280495 -0.00087064 0 0 0 0
-0.04192590 -0.02973046 -0.04836565 0 0 0 0
0.03268511 0.00489580 -0.06684260 0 0 0 0
0.08398523 0.01198498 -0.01506105 0 0 0 0
0.05894251 0.07485326 -0.00431529 0 0 0 0
0.04839436 -0.00205493 0.05133979 0 0 0 0
-0.07507488 0.00416955 -0.02452289 0 0 0 0
0.00890292 0.04711428 -0.05183009 0 0 0 0
-0.03989524 -0.01230356 -0.05817394 0 0 0 0
0.06062793 -0.02399164 -0.03451413 0 0 0 0
0.01118192 -0.02748580 -0.07025348 0 0 0 0
-0.04088071 0.02857989 -0.04999448 0 0 0 0
-0.03309592 -0.02663092 0.05742291 0 0 0 0
0.03008746 0.00306602 -0.06966872 0 0 0 0
0.04327542 -0.08664910 0.00270577 0 0 0 0
-0.05942580 -0.06180226 -0.01386488 0 0 0 0
0.06638734 0.00438267 0.03319760 0 0 0 0
-0.06354196 -0.04048171 0.02459095 0 0 0 0
-0.09810331 0.01332716 -0.00014789 0 0 0 0
-0.01284142 -0.06784470 0.03079711 0 0 0 0
0.05827033 0.06353769 -0.01342001 0 0 0 0
0.06322421 0.05886155 0.01346990 0 0 0 0
-0.09788369 0.01123096 0.00077736 0 0 0 0
0.05203735 0.01602000 -0.04537944 0 0 0 0
0.03831479 0.00170952 0.06147207 0 0 0 0
-0.01348007 0.03841401 -0.05910631 0 0 0 0
-0.00768338 -0.04849919 0.05069862 0 0 0 0
0.00390342 -0.08726998 0.01232488 0 0 0 0
-0.09761833 -0.01889365 -0.00055903 0 0 0 0
0.00931310 0.03443090 -0.06422321 0 0 0 0
-0.03847038 -0.05913668 -0.02927069 0 0 0 0
-0.01592677 0.02504982 -0.07017964 0 0 0 0
0.04079702 0.03616526 0.04523185 0 0 0 0
0.01174459 -0.02333647 0.07384079 0 0 0 0
-0.00014900 0.01916982 -0.08074118 0 0 0 0
-0.01347000 -0.04338267 -0.05440877 0 0 0 0
0.05542677 0.04796088 -0.02642250 0 0 0 0
-0.09614516 -0.01011604 0.00287896 0 0 0 0
0.01135197 -0.00131751 0.08853026 0 0 0 0
-0.01156199 -0.09034137 -0.00869251 0 0 0 0
-0.08507802 -0.00019969 -0.01457736 0 0 0 0
0.01480952 -0.09349694 -0.00493760 0 0 0 0
0.04493282 0.07026324 -0.01642912 0 0 0 0
0.07006349 -0.03700182 0.02058838 0 0 0 0
0.03308744 -0.03624645 0.05072437 0 0 0 0
0.09618337 0.01617463 -0.00217692 0 0 0 0
-0.01699609 -0.04291728 0.05362689 0 0 0 0
-0.04857007 0.03216674 -0.04170137 0 0 0 0
0.03670963 -0.08316648 -0.00908275 0 0 0 0
0.05288463 0.01484459 -0.04482254 0 0 0 0
-0.07126690 0.02314952 -0.02474428 0 0 0 0
-0.00221990 0.05554786 -0.04419427 0 0 0 0
0.09344290 -0.02732890 -0.00219151 0 0 0 0
-0.08687965 -0.00809011 0.01253867 0 0 0 0
-0.04429797 0.00632983 -0.05505190 0 0 0 0
-0.01875535 0.01249125 -0.07736634 0 0 0 0
-0.00833430 -0.04942756 0.04967995 0 0 0 0
-0.03333898 -0.02830071 0.05609039 0 0 0 0
-0.04168878 0.04370749 -0.03932020 0 0 0 0
-0.04185153 0.03978039 0.04220944 0 0 0 0
0.05680920 -0.03730508 -0.03176605 0 0 0 0
0.03777822 -0.00184991 0.06204332 0 0 0 0
-0.09734862 -0.01818198 0.00040278 0 0 0 0
-0.03050292 -0.03603793 -0.05256702 0 0 0 0
-0.05118323 -0.00036413 0.04861730 0 0 0 0
-0.06173959 0.00725266 -0.03777213 0 0 0 0
0.03870981 0.00126299 -0.06117113 0 0 0 0
-0.05432846 -0.01665952 0.04306347 0 0 0 0
0.00603618 -0.00833522 -0.08969273 0 0 0 0
0.01512648 0.09712501 0.00110617 0 0 0 0
0.01913003 0.05289606 -0.04350962 0 0 0 0
0.08958381 -0.00403283 -0.00991670 0 0 0 0
0.06215087 -0.00415415 -0.03769489 0 0 0 0
0.04436626 0.02045977 0.05097494 0 0 0 0
0.02410277 0.05940440 -0.03559447 0 0 0 0
-0.03757095 -0.01767318 0.05832252 0 0 0 0
-0.04983685 -0.06910317 -0.01450265 0 0 0 0
0.02068490 -0.09758826 -0.00010621 0 0 0 0
-0.01635846 -0.03392021 -0.06224554 0 0 0 0
0.03777963 0.00692104 -0.06144937 0 0 0 0
0.02666572 0.05386152 0.03970549 0 0 0 0
0.07226692 0.04339330 -0.01546652 0 0 0 0
0.08083792 -0.00601112 0.01886398 0 0 0 0
0.06913184 -0.03842982 -0.02059375 0 0 0 0
0.08446855 -0.02041934 0.01270213 0 0 0 0
-0.07176085 -0.04249138 -0.01633639 0 0 0 0
-0.01281448 -0.06322652 0.03535517 0 0 0 0
0.01561925 -0.05064562 -0.04680304 0 0 0 0
-0.04814551 0.03201718 -0.04196307 0 0 0 0
-0.08060224 -0.00445791 -0.01892162 0 0 0 0
0.06590916 0.01875356 -0.03116100 0 0 0 0
-0.07406030 0.03044241 0.01958416 0 0 0 0
-0.00244014 -0.05839685 -0.04150023 0 0 0 0
0.08282164 -0.01386524 0.01563727 0 0 0 0
0.08624053 -0.03556231 -0.00635127 0 0 0 0
-0.01553784 -0.08327030 0.01511960 0 0 0 0
0.02873098 -0.08280671 0.01195159 0 0 0 0
-0.05182119 0.06744155 -0.01456183 0 0 0 0
-0.04826577 -0.02251256 0.04654768 0 0 0 0
-0.03001939 0.00735911 0.06898418 0 0 0 0
0.03571742 0.03699516 0.04833784 0 0 0 0
-0.08682064 0.02581603 -0.00919192 0 0 0 0
-0.01532862 -0.04039297 0.05675653 0 0 0 0
0.02173347 0.08014184 0.01679703 0 0 0 0
-0.00167223 -0.03401132 -0.06579335 0 0 0 0
0.04682993 0.05411315 -0.02829216 0 0 0 0
-0.01641552 -0.03228415 -0.06364685 0 0 0 0
0.05061770 -0.08386303 -0.00164718 0 0 0 0
-0.07295684 0.03496058 0.01877056 0 0 0 0
0.05543188 0.07167397 0.00898454 0 0 0 0
-0.03839514 -0.01846733 -0.05739252 0 0 0 0
-0.07281537 0.03485506 -0.01893336 0 0 0 0
-0.00436174 0.09872162 -0.00082008 0 0 0 0
-0.06385995 -0.00490728 0.03587912 0 0 0 0
-0.00477051 -0.05616166 -0.04357762 0 0 0 0
-0.00564057 -0.09230939 0.00726208 0 0 0 0
0.03123579 0.05799305 -0.03383588 0 0 0 0
-0.02358052 -0.06662361 0.02906870 0 0 0 0
0.04777614 0.01842953 -0.04861548 0 0 0 0
-0.08865432 0.02611437 -0.00732921 0 0 0 0
-0.04246325 0.04983386 0.03422438 0 0 0 0
0.00556322 -0.08943516 -0.01017261 0 0 0 0
-0.05677171 -0.08008319 -0.00140890 0 0 0 0
0.03212031 -0.05428945 0.03664181 0 0 0 0
0.05426891 0.07126932 -0.01000916 0 0 0 0
0.09165036 0.00707032 0.00797075 0 0 0 0
-0.03846996 -0.02142050 0.05578042 0 0 0 0
0.03088152 -0.02339527 0.06110730 0 0 0 0
-0.05440170 0.02181659 -0.04113905 0 0 0 0
0.07287938 -0.06518152 0.00192741 0 0 0 0
0.03309871 -0.01222360 0.06462793 0 0 0 0
0.01149358 0.08775634 0.01125478 0 0 0 0
-0.01103056 0.07915281 -0.01982779 0 0 0 0
0.05973120 0.05121860 -0.02098287 0 0 0 0
-0.07649481 -0.05373294 -0.00608560 0 0 0 0
0.00726759 0.05683808 -0.04243319 0 0 0 0
0.00803976 0.00426552 0.09085673 0 0 0 0
-0.06480639 0.06579636 0.00746268 0 0 0 0
-0.07243054 0.06772916 0.00004660 0 0 0 0
-0.01939025 0.03331581 -0.06139198 0 0 0 0
0.00112194 -0.07577247 -0.02410439 0 0 0 0
0.04625496 0.02617381 -0.04663049 0 0 0 0
0.09554941 -0.00680223 -0.00379439 0 0 0 0
0.01819187 -0.08741890 -0.01041172 0 0 0 0
-0.08846862 -0.03828339 -0.00315921 0 0 0 0
-0.06241110 -0.06344652 0.01082017 0 0 0 0
0.01963829 0.02248102 -0.07009937 0 0 0 0
0.08746576 0.03707497 -0.00486471 0 0 0 0
-0.00362929 -0.08765434 0.01188607 0 0 0 0
-0.03468630 -0.06296296 0.02797609 0 0 0 0
-0.01956436 0.03805212 0.05702900 0 0 0 0
0.05197443 0.04578497 0.03049713 0 0 0 0
-0.07787208 -0.04167757 0.01151352 0 0 0 0
-0.01669872 0.04352677 0.05317144 0 0 0 0
0.05944669 0.00715450 -0.03989572 0 0 0 0
-0.05367957 -0.02932451 -0.03876168 0 0 0 0
-0.04548208 -0.08668947 -0.00169272 0 0 0 0
0.04129605 0.04403439 -0.03935876 0 0 0 0
-0.01119179 -0.03604846 -0.06211660 0 0 0 0
0.01537963 0.03214181 0.06428213 0 0 0 0
0.07645545 -0.01564504 -0.02161790 0 0 0 0
0.07891674 -0.01567387 -0.01920074 0 0 0 0
0.07007564 0.03709188 -0.02054060 0 0 0 0
-0.02241035 -0.02794057 -0.06403800 0 0 0 0
-0.01277817 0.05436023 0.04394052 0 0 0 0
-0.02480802 -0.05170717 -0.04250718 0 0 0 0
0.08843580 0.00639529 -0.01126708 0 0 0 0
-0.05425498 0.00816591 0.04488250 0 0 0 0
-0.01776749 0.03190411 0.06339963 0 0 0 0
-0.01301347 0.07777099 -0.02080961 0 0 0 0
0.08954871 -0.04106186 -0.00103707 0 0 0 0
0.02484565 -0.02892422 -0.06176092 0 0 0 0
-0.00859758 0.07830039 -0.02087741 0 0 0 0
0.02112741 0.03663320 -0.05763201 0 0 0 0
-0.06616728 -0.05218839 -0.01548305 0 0 0 0
-0.05028738 -0.03414012 -0.03894141 0 0 0 0
0.04187794 0.00650892 -0.05752739 0 0 0 0
-0.04737322 0.07982496 -0.00709643 0 0 0 0
-0.03525100 0.04146282 -0.04543958 0 0 0 0
-0.07564567 0.06010880 -0.00314240 0 0 0 0
0.08235686 -0.04421782 -0.00621759 0 0 0 0
0.02614817 -0.08702928 -0.00909851 0 0 0 0
-0.01905393 -0.02007140 0.07227264 0 0 0 0
0.02215113 0.09637733 0.00006823 0 0 0 0
-0.05043489 -0.02977228 0.04133038 0 0 0 0
0.02322003 -0.05755669 -0.03777112 0 0 0 0
-0.06301243 0.05951538 -0.01293874 0 0 0 0
-0.00615757 -0.08020182 0.01942585 0 0 0 0
0.05492328 0.08311833 -0.00007591 0 0 0 0
-0.05207611 -0.07110036 -0.01146281 0 0 0 0
0.04433677 0.08705525 -0.00193716 0 0 0 0
-0.02197198 0.06455696 -0.03159964 0 0 0 0
0.05370061 -0.06756429 -0.01334275 0 0 0 0
0.06186902 -0.07254709 -0.00441356 0 0 0 0
0.02531763 -0.01528983 -0.07028637 0 0 0 0
-0.07361060 0.00667543 0.02592527 0 0 0 0
0.05282455 -0.02502491 -0.04151283 0 0 0 0
0.07576535 0.03685720 0.01571384 0 0 0 0
0.01680746 0.02349723 -0.07107942 0 0 0 0
0.04573774 -0.01464909 -0.05192713 0 0 0 0
0.01423690 0.01571281 0.07879432 0 0 0 0
0.01095901 -0.04982000 -0.04876707 0 0 0 0
-0.07659326 0.02601155 -0.01876076 0 0 0 0
0.01164452 -0.03176745 0.06602464 0 0 0 0
0.03358147 -0.02195986 0.05986776 0 0 0 0
-0.00023431 -0.08528662 -0.01450858 0 0 0 0
-0.06024865 0.05123696 -0.02090673 0 0 0 0
0.02391461 0.01049259 -0.07382314 0 0 0 0
-0.05037916 0.01737326 0.04665374 0 0 0 0
0.01450857 -0.01650863 -0.07792269 0 0 0 0
0.01163903 0.00472128 0.08743903 0 0 0 0
0.06498329 -0.01304821 -0.03343489 0 0 0 0
-0.00878130 -0.02735575 -0.07121515 0 0 0 0
0.05154253 -0.02276302 -0.04351263 0 0 0 0
-0.07287420 0.00122033 0.02678581 0 0 0 0
-0.06999554 -0.06351376 -0.00523721 0 0 0 0
0.03455722 0.00457939 -0.06500101 0 0 0 0
-0.06033182 -0.06127905 -0.01383235 0 0 0 0
0.03597079 -0.02808992 0.05427545 0 0 0 0
0.05771511 -0.06305872 0.01415373 0 0 0 0
0.02478640 -0.07526393 -0.02039208 0 0 0 0
0.08636442 0.03691750 0.00591887 0 0 0 0
-0.07946160 -0.02460014 -0.01667157 0 0 0 0
-0.06424828 -0.05477368 0.01556680 0 0 0 0
0.00176768 0.00907503 0.09073059 0 0 0 0
0.05021925 -0.03699633 -0.03758835 0 0 0 0
0.05845281 0.03724111 0.03043089 0 0 0 0
0.03519642 0.04095487 -0.04574907 0 0 0 0
0.03986961 0.05120424 -0.03503588 0 0 0 0
-0.02700085 0.08960768 -0.00637599 0 0 0 0
0.08367199 0.04281140 -0.00557825 0 0 0 0
0.03107503 0.06693359 0.02595454 0 0 0 0
0.04227115 -0.00993452 -0.05648406 0 0 0 0
0.01427210 -0.03453829 -0.06245655 0 0 0 0
0.03430256 -0.01363373 -0.06306539 0 0 0 0
0.00565676 0.06643526 -0.03302934 0 0 0 0
0.06029255 0.01927569 -0.03646661 0 0 0 0
0.07061103 -0.06978785 -0.00062907 0 0 0 0
0.02482538 0.07111463 -0.02456554 0 0 0 0
-0.03705905 0.07153288 -0.01911277 0 0 0 0
-0.05776704 -0.06344441 -0.01418606 0 0 0 0
-0.03840192 0.05045747 0.03646904 0 0 0 0
-0.07582824 -0.05568091 0.00585643 0 0 0 0
0.01524313 0.02479470 0.07087754 0 0 0 0
-0.03145208 0.00916572 0.06716597 0 0 0 0
0.07141219 0.01306530 0.02713425 0 0 0 0
-0.06487967 -0.06442584 -0.00815970 0 0 0 0
0.00182841 -0.08103400 -0.01863939 0 0 0 0
-0.05457829 0.07967100 -0.00335204 0 0 0 0
-0.02581198 0.07518765 0.02014014 0 0 0 0
0.04066880 -0.03767407 0.04430813 0 0 0 0
0.05503502 -0.05948331 -0.01865553 0 0 0 0
-0.05623081 -0.03284512 0.03478847 0 0 0 0
0.05528780 0.00211422 -0.04441599 0 0 0 0
-0.02968053 0.05894823 -0.03391641 0 0 0 0
-0.08586103 -0.03138051 -0.00833560 0 0 0 0
0.06103344 0.04350921 0.02480713 0 0 0 0
-0.00678625 0.04008337 0.05931821 0 0 0 0
-0.00962291 0.08492353 -0.01440752 0 0 0 0
0.06223761 0.01352024 -0.03610709 0 0 0 0
-0.03768463 -0.00626494 -0.06162119 0 0 0 0
-0.00982632 0.05569798 0.04324046 0 0 0 0
0.01167698 -0.08109029 -0.01779306 0 0 0 0
-0.08948617 -0.00894931 0.00965050 0 0 0 0
0.00650131 0.07696562 -0.02247668 0 0 0 0
0.08000288 -0.03193987 -0.01381780 0 0 0 0
-0.01165491 -0.02395388 -0.07328582 0 0 0 0
-0.02036283 0.00726560 -0.07831133 0 0 0 0
0.01651475 0.08148722 -0.01660343 0 0 0 0
-0.04738770 -0.03144395 0.04308281 0 0 0 0
0.02736074 -0.07507448 0.01975775 0 0 0 0
-0.09250961 -0.02273530 -0.00430853 0 0 0 0
-0.06542222 0.04472004 0.02038956 0 0 0 0
0.01013751 0.08929408 0.00982318 0 0 0 0
-0.04621733 0.02316405 0.04823029 0 0 0 0
-0.03101305 -0.09373669 0.00060479 0 0 0 0
-0.06475183 0.02621187 -0.03014370 0 0 0 0
-0.01440160 -0.08772604 -0.01072619 0 0 0 0
-0.03251246 -0.03724767 -0.05033291 0 0 0 0
0.04893386 0.08094286 0.00540428 0 0 0 0
0.06755213 0.01271549 0.03096537 0 0 0 0
0.03088797 0.07422243 -0.01923756 0 0 0 0
-0.05519572 0.02423808 -0.03955025 0 0 0 0
-0.06995758 -0.05172629 0.01295955 0 0 0 0
0.02692162 0.04224008 -0.04975234 0 0 0 0
-0.01211780 -0.05440930 -0.04423011 0 0 0 0
0.04912958 -0.04342524 0.03413125 0 0 0 0
-0.06427393 -0.06881408 -0.00541613 0 0 0 0
-0.03394670 -0.07331025 -0.01893383 0 0 0 0
-0.08297621 -0.03921708 0.00816085 0 0 0 0
-0.07299227 0.01037768 0.02594488 0 0 0 0
-0.01059679 -0.01597662 0.08074027 0 0 0 0
0.09719334 -0.00014849 -0.00279234 0 0 0 0
-0.08929634 0.00521884 0.01050325 0 0 0 0
-0.01194952 -0.05180634 -0.04661024 0 0 0 0
-0.01805081 -0.04103087 0.05499254 0 0 0 0
-0.03605073 0.01927692 0.05904252 0 0 0 0
-0.07782922 -0.04282701 -0.01083166 0 0 0 0
-0.02098232 0.05709129 -0.03917255 0 0 0 0
-0.06964011 -0.04682308 -0.01597117 0 0 0 0
-0.08517359 -0.04857873 0.00151081 0 0 0 0
0.00977276 -0.08046027 0.01857434 0 0 0 0
-0.05323649 -0.02422206 -0.04132581 0 0 0 0
-0.08031951 -0.04022333 -0.01004822 0 0 0 0
0.00049969 0.01956498 0.08034419 0 0 0 0
-0.06714702 -0.01198795 -0.03148380 0 0 0 0
0.02292655 -0.06200532 0.03362243 0 0 0 0
0.02032564 0.05173319 0.04431372 0 0 0 0
-0.03447411 0.03550497 -0.05028225 0 0 0 0
0.05446879 0.06899178 -0.01205782 0 0 0 0
-0.00406378 0.07948382 -0.02028070 0 0 0 0
0.03495305 -0.00609178 -0.06440325 0 0 0 0
0.07433955 -0.00291565 -0.02544759 0 0 0 0
-0.02840802 0.03565668 -0.05422158 0 0 0 0
0.05677481 0.02261450 0.03864692 0 0 0 0
-0.07476134 -0.05114980 -0.00899867 0 0 0 0
0.01898742 -0.00945340 0.07869475 0 0 0 0
0.05119202 -0.02907274 -0.04110860 0 0 0 0
-0.05311695 0.00828957 0.04612123 0 0 0 0
0.02332545 0.04345658 -0.05062655 0 0 0 0
-0.03044662 0.06898786 -0.02427848 0 0 0 0
0.03173517 -0.05481778 -0.03645157 0 0 0 0
0.07572017 0.04469227 0.01192022 0 0 0 0
0.09352618 0.03144750 0.00042363 0 0 0 0
0.05062748 0.00451806 -0.04901814 0 0 0 0
0.00853554 -0.06562267 -0.03351738 0 0 0 0
0.04296274 -0.07842486 -0.01028626 0 0 0 0
-0.07219269 -0.03450827 0.01996164 0 0 0 0
0.00345778 0.09639025 -0.00316228 0 0 0 0
0.09385686 -0.02944909 0.00106107 0 0 0 0
0.02140357 -0.07962012 -0.01717201 0 0 0 0
0.05799609 0.02249999 -0.03751305 0 0 0 0
0.03262731 -0.00330767 -0.06711103 0 0 0 0
0.03254644 -0.03046238 -0.05526868 0 0 0 0
-0.04599462 0.01957184 -0.04978756 0 0 0 0
-0.03982257 -0.00604566 -0.05964410 0 0 0 0
-0.03905363 -0.08048814 -0.01012264 0 0 0 0
-0.07119385 0.01428444 0.02710208 0 0 0 0
0.07309466 0.03474451 0.01902927 0 0 0 0
0.02984974 -0.06277863 -0.03033008 0 0 0 0
0.03605330 -0.08984046 0.00292713 0 0 0 0
0.04997807 -0.07257153 -0.01183455 0 0 0 0
0.01813623 -0.00259554 0.08165616 0 0 0 0
-0.03984337 0.07390882 -0.01573368 0 0 0 0
0.03188404 -0.04486164 0.04472166 0 0 0 0
-0.07443284 0.05378242 0.00804397 0 0 0 0
0.06697886 0.00085553 0.03271723 0 0 0 0
-0.00736393 0.07177027 0.02781199 0 0 0 0
0.05550329 0.02348569 -0.03964891 0 0 0 0
-0.06381137 -0.05366238 -0.01626539 0 0 0 0
-0.02325189 0.07903717 0.01759476 0 0 0 0
-0.08886956 0.04074589 0.00190851 0 0 0 0
0.04116278 0.04677797 0.03760328 0 0 0 0
0.03012718 0.03709430 0.05203108 0 0 0 0
0.02323001 0.06582464 -0.03011282 0 0 0 0
-0.05573900 -0.02633120 -0.03808703 0 0 0 0
0.01522132 0.09665389 -0.00176488 0 0 0 0
-0.01371311 0.03046664 -0.06644556 0 0 0 0
0.00175912 0.04784140 -0.05192203 0 0 0 0
0.00548767 0.00762217 -0.09059541 0 0 0 0
-0.04365858 0.07921906 0.00926407 0 0 0 0
0.02319927 -0.06009582 -0.03535673 0 0 0 0
0.01872722 -0.07148442 -0.02591159 0 0 0 0
-0.03615260 0.05480779 -0.03420018 0 0 0 0
0.02941433 0.05334013 -0.03896771 0 0 0 0
0.03206769 -0.02735815 -0.05767536 0 0 0 0
0.00600420 -0.01464021 0.08414037 0 0 0 0
-0.07807060 -0.04894223 0.00754075 0 0 0 0
-0.08550090 0.00595113 -0.01424903 0 0 0 0
0.08853266 0.02891662 -0.00646681 0 0 0 0
0.07853058 0.01163184 -0.02048257 0 0 0 0
0.03853146 -0.05104182 -0.03590603 0 0 0 0
0.00996862 0.02410661 -0.07385950 0 0 0 0
0.08193884 0.05210564 -0.00253516 0 0 0 0
0.09704219 -0.01830682 -0.00119178 0 0 0 0
-0.00260038 -0.00717125 -0.09236843 0 0 0 0
0.00425382 -0.03670291 -0.06298975 0 0 0 0
-0.02603950 -0.05989375 -0.03443652 0 0 0 0
0.06426782 -0.07284390 -0.00242218 0 0 0 0
0.04518223 0.06499574 -0.02083045 0 0 0 0
0.07332056 0.04865787 -0.01166840 0 0 0 0
-0.04869728 0.08555453 -0.00127550 0 0 0 0
-0.03709684 0.01276181 -0.06073096 0 0 0 0
-0.06542791 -0.02093028 0.03105078 0 0 0 0
-0.05107972 0.00894506 -0.04797006 0 0 0 0
0.08533846 -0.01711308 0.01291723 0 0 0 0
-0.05608437 0.05223827 -0.02300636 0 0 0 0
0.01698816 0.00400232 -0.08246614 0 0 0 0
0.01720741 -0.02956365 -0.06573974 0 0 0 0
-0.07590491 0.02844084 0.01856688 0 0 0 0
-0.06430312 0.04898564 0.01885994 0 0 0 0
-0.08498843 -0.03634339 -0.00714524 0 0 0 0
0.01358863 0.02862234 -0.06824590 0 0 0 0
0.06477796 0.01452173 0.03330658 0 0 0 0
0.00059606 0.05012750 0.04970490 0 0 0 0
0.04886410 0.04617471 -0.03247164 0 0 0 0
0.02088704 -0.04271999 0.05234370 0 0 0 0
-0.08055327 -0.00602869 0.01886515 0 0 0 0
0.09763484 -0.00050183 0.00194613 0 0 0 0
0.00546894 -0.02788066 0.07145615 0 0 0 0
-0.00995307 -0.03170756 0.06665070 0 0 0 0
0.00769038 -0.01849193 -0.07990978 0 0 0 0
-0.02009325 0.05901073 -0.03747270 0 0 0 0
0.09713023 0.00285336 -0.00256087 0 0 0 0
-0.04082670 0.04206726 0.04122344 0 0 0 0
0.00566897 -0.08527120 -0.01433294 0 0 0 0
0.00567040 -0.02573861 -0.07354260 0 0 0 0
0.01578588 -0.00848141 0.08202104 0 0 0 0
-0.03146311 0.01337229 -0.06576142 0 0 0 0
-0.09071285 -0.01455222 -0.00789774 0 0 0 0
0.07712330 -0.04802706 0.00872995 0 0 0 0
0.01633094 0.06524778 -0.03261885 0 0 0 0
0.06666631 -0.05449445 0.01350174 0 0 0 0
0.06675481 0.02364844 0.02894735 0 0 0 0
0.05228425 0.02085760 0.04346817 0 0 0 0
-0.05320040 -0.05200653 -0.02528530 0 0 0 0
0.06022477 -0.06063103 -0.01425843 0 0 0 0
-0.05731312 0.00864490 -0.04177275 0 0 0 0
0.04677569 -0.03355291 0.04224250 0 0 0 0
0.06435927 0.04879443 -0.01888424 0 0 0 0
0.01239615 0.02593598 -0.07118534 0 0 0 0
-0.03328946 0.04001292 0.04771153 0 0 0 0
0.06900606 0.04558803 -0.01724281 0 0 0 0
0.08237600 0.02865181 0.01239256 0 0 0 0
-0.03831233 -0.06985573 -0.01996301 0 0 0 0
0.06080413 0.01557444 -0.03698650 0 0 0 0
0.05258667 -0.07301345 0.00961573 0 0 0 0
0.07621931 -0.02524901 -0.01937792 0 0 0 0
0.03537447 -0.04348759 -0.04369564 0 0 0 0
-0.03436527 0.06979244 -0.02205187 0 0 0 0
0.02895002 0.07128288 -0.02270555 0 0 0 0
0.00732099 -0.02879208 0.07015465 0 0 0 0
-0.07258105 0.00462501 -0.02697278 0 0 0 0
-0.04417885 -0.00517217 0.05547231 0 0 0 0
-0.08181962 -0.02243448 0.01478516 0 0 0 0
0.02068320 0.01790921 0.07261947 0 0 0 0
-0.01544180 -0.03145879 -0.06484938 0 0 0 0
-0.02597181 -0.08382049 -0.01185846 0 0 0 0
0.07780765 -0.00854636 0.02146280 0 0 0 0
0.00183404 -0.01148190 -0.08832388 0 0 0 0
0.04221588 0.08169825 0.00767208 0 0 0 0
0.04770090 0.04143711 0.03657725 0 0 0 0
0.03681595 -0.04128867 -0.04463486 0 0 0 0
0.07166152 0.02637583 -0.02344154 0 0 0 0
-0.03514586 0.01600474 -0.06125788 0 0 0 0
0.08744893 -0.04247338 -0.00239205 0 0 0 0
0.01939065 0.00215201 -0.08046005 0 0 0 0
-0.04366904 -0.05817873 -0.02705546 0 0 0 0
-0.02944991 0.07814210 0.01617152 0 0 0 0
-0.02324733 0.00863446 0.07513235 0 0 0 0
-0.09723973 0.01529910 0.00113874 0 0 0 0
-0.01419218 0.00867519 -0.08332758 0 0 0 0
-0.02062129 0.01210806 0.07604910 0 0 0 0
-0.09328930 -0.02720509 0.00254562 0 0 0 0
0.05996532 -0.04411631 -0.02526582 0 0 0 0
-0.06863490 0.03727094 -0.02154659 0 0 0 0
-0.05361516 0.07286963 -0.00926059 0 0 0 0
-0.09059794 -0.01357707 -0.00822829 0 0 0 0
0.02706646 0.08682974 0.00864271 0 0 0 0
0.02561418 0.05103537 -0.04269782 0 0 0 0
0.02085415 -0.00243555 -0.07892708 0 0 0 0
-0.02923195 0.03782315 -0.05202907 0 0 0 0
0.05613034 -0.00186356 0.04368988 0 0 0 0
0.01417361 -0.04970663 -0.04811968 0 0 0 0
0.03023585 0.05407970 -0.03775446 0 0 0 0
0.04286055 -0.01189540 -0.05546268 0 0 0 0
-0.05436907 0.02909577 0.03805226 0 0 0 0
0.03471612 -0.06576763 -0.02559827 0 0 0 0
-0.02586706 0.02713847 0.06239399 0 0 0 0
-0.07154012 -0.06881584 -0.00070286 0 0 0 0
0.01148110 -0.06907548 -0.02967867 0 0 0 0
-0.05372518 0.07575245 0.00677302 0 0 0 0
-0.07377642 -0.01866382 -0.02356702 0 0 0 0
-0.06800496 0.02058389 0.02879067 0 0 0 0
0.04509253 -0.02662985 -0.04753856 0 0 0 0
-0.03324289 0.01400660 0.06376521 0 0 0 0
-0.00782033 0.07954845 0.02005415 0 0 0 0
-0.05677727 -0.01790476 -0.04038661 0 0 0 0
0.08174166 0.01100688 -0.01719652 0 0 0 0
-0.06450310 -0.06457796 -0.00859225 0 0 0 0
-0.03894169 -0.00886553 -0.05996034 0 0 0 0
0.01443049 0.04498452 0.05266910 0 0 0 0
0.07305394 0.01440571 -0.02522658 0 0 0 0
0.00652150 0.04446501 -0.05485750 0 0 0 0
-0.04468000 -0.03516735 -0.04301803 0 0 0 0
0.00277610 -0.08234619 -0.01759408 0 0 0 0
-0.01935047 -0.08079824 -0.01660739 0 0 0 0
-0.01743714 0.02244234 -0.07154729 0 0 0 0
0.08633397 0.01438218 0.01207098 0 0 0 0
-0.00256148 0.06682138 0.03284147 0 0 0 0
-0.06412159 0.00170832 0.03571362 0 0 0 0
0.01024285 -0.05358001 0.04529728 0 0 0 0
0.05152170 0.04777836 0.02960410 0 0 0 0
-0.05594952 -0.08038587 0.00165269 0 0 0 0
0.06483237 -0.02856010 0.02898136 0 0 0 0
0.00388288 -0.05356253 -0.04604945 0 0 0 0
-0.03965309 -0.00781356 -0.05942063 0 0 0 0
-0.09681014 -0.00616988 -0.00298908 0 0 0 0
-0.02277308 0.03068213 -0.06169807 0 0 0 0
-0.02598072 -0.09445577 -0.00186617 0 0 0 0
0.03716318 0.00082507 -0.06275723 0 0 0 0
0.01763020 -0.03679761 -0.05908660 0 0 0 0
-0.08657058 -0.04028398 -0.00440183 0 0 0 0
0.04349320 0.07653458 -0.01172229 0 0 0 0
-0.09533501 -0.00855056 0.00384013 0 0 0 0
-0.06693520 0.07125078 -0.00209498 0 0 0 0
0.05883542 -0.07712332 -0.00255194 0 0 0 0
-0.00681757 -0.08639169 0.01294674 0 0 0 0
-0.03924340 0.02507653 -0.05325093 0 0 0 0
0.08189403 -0.03407079 -0.01091211 0 0 0 0
0.04250827 0.02853120 0.04857509 0 0 0 0
-0.04319616 0.07446613 -0.01376775 0 0 0 0
0.02796757 -0.01862864 0.06636388 0 0 0 0
0.02783401 0.07269345 -0.02187815 0 0 0 0
-0.00298017 0.02467000 -0.07503609 0 0 0 0
-0.04762590 -0.00597063 0.05180898 0 0 0 0
-0.07343695 -0.05889247 0.00560660 0 0 0 0
0.01852542 0.03563021 0.05983619 0 0 0 0
0.00586032 0.05286828 -0.04674030 0 0 0 0
0.00999433 -0.00464028 -0.08894163 0 0 0 0
-0.02531032 -0.08695702 0.00907730 0 0 0 0
0.05237143 -0.06704484 0.01484660 0 0 0 0
-0.06513730 0.06977391 -0.00412002 0 0 0 0
0.02294371 0.08041696 0.01629331 0 0 0 0
-0.02005853 -0.08107334 0.01620013 0 0 0 0
0.05409091 -0.02928479 -0.03839995 0 0 0 0
-0.06919415 -0.06847266 -0.00222373 0 0 0 0
0.00624346 0.04476221 -0.05472051 0 0 0 0
-0.03262906 0.07618882 -0.01681464 0 0 0 0
-0.06073557 -0.06516856 -0.01059401 0 0 0 0
-0.08849947 0.04514505 -0.00045748 0 0 0 0
0.04757439 -0.00931960 -0.05151625 0 0 0 0
0.07358497 -0.03618040 -0.01768740 0 0 0 0
0.07901804 0.03599100 -0.01277329 0 0 0 0
-0.03088736 0.04934797 -0.04157525 0 0 0 0
0.00604490 -0.06842335 0.03104677 0 0 0 0
0.04831419 -0.05190590 -0.02882896 0 0 0 0
-0.03961322 0.04583065 0.03914281 0 0 0 0
-0.04556779 0.07424898 0.01250971 0 0 0 0
-0.00140519 0.04209496 0.05770606 0 0 0 0
-0.04351990 0.00494641 0.05614126 0 0 0 0
-0.07463498 -0.05584826 -0.00640223 0 0 0 0
-0.07984646 -0.04656098 0.00715399 0 0 0 0
-0.05446315 -0.00602685 -0.04511806 0 0 0 0
-0.05233429 -0.00749219 -0.04689541 0 0 0 0
0.03968010 0.03923076 -0.04395487 0 0 0 0
-0.03099222 -0.05299615 -0.03839254 0 0 0 0
-0.08320083 -0.03374092 -0.01021284 0 0 0 0
-0.04415828 0.07429155 0.01319804 0 0 0 0
0.06865676 -0.02106073 0.02785524 0 0 0 0
0.03520828 -0.00023523 -0.06476902 0 0 0 0
-0.05727188 -0.00217394 0.04242181 0 0 0 0
-0.07670243 0.00192095 -0.02304294 0 0 0 0
0.07448496 0.00817330 0.02472657 0 0 0 0
0.01944988 0.02995495 -0.06419506 0 0 0 0
-0.04569753 0.05200255 0.03045909 0 0 0 0
0.05203989 0.01603281 -0.04529648 0 0 0 0
0.03671446 0.08219786 0.00994691 0 0 0 0
-0.03613389 -0.07308181 -0.01821299 0 0 0 0
0.04468972 0.08266913 0.00590136 0 0 0 0
0.00198531 0.09117794 0.00845920 0 0 0 0
0.03365751 0.08903190 -0.00440254 0 0 0 0
0.03881476 0.06434757 -0.02453697 0 0 0 0
-0.05309293 -0.01127958 -0.04564098 0 0 0 0
0.05886644 0.07225943 -0.00638687 0 0 0 0
0.07589509 0.04203989 -0.01290323 0 0 0 0
-0.04318491 0.06192521 -0.02419264 0 0 0 0
-0.09966256 0.00263065 -0.00008366 0 0 0 0
0.06180639 0.03273257 -0.02985426 0 0 0 0
-0.04950529 -0.07892396 0.00650695 0 0 0 0
0.04610343 0.01703401 -0.05072780 0 0 0 0
0.00015040 -0.09445288 0.00531328 0 0 0 0
0.02869107 -0.00165320 -0.07114945 0 0 0 0
0.02667473 0.02010590 -0.06646424 0 0 0 0
0.00506571 0.09574451 -0.00368257 0 0 0 0
0.03395437 0.02133833 0.05975760 0 0 0 0
0.05093561 0.02060116 -0.04482867 0 0 0 0
0.07234973 0.06725877 0.00018063 0 0 0 0
-0.04581935 -0.07457405 0.01213185 0 0 0 0
0.07802097 0.05680095 -0.00306466 0 0 0 0
-0.04564783 -0.00684374 0.05376011 0 0 0 0
-0.06673986 -0.03487506 -0.02450004 0 0 0 0
-0.04460937 -0.00820613 -0.05447267 0 0 0 0
0.04958567 0.06618153 0.01691961 0 0 0 0
-0.01984017 -0.01134918 -0.07705425 0 0 0 0
-0.01116605 0.00975670 -0.08510575 0 0 0 0
-0.09482983 -0.00445602 -0.00463540 0 0 0 0
0.09133008 -0.00999236 -0.00770597 0 0 0 0
-0.04744064 -0.01566687 -0.05003168 0 0 0 0
0.08700407 -0.00831725 -0.01219357 0 0 0 0
0.05863063 0.02486706 0.03602602 0 0 0 0
-0.02697656 -0.01325781 -0.06991944 0 0 0 0
-0.09379754 0.03132287 -0.00069728 0 0 0 0
-0.03148851 -0.07866043 0.01487839 0 0 0 0
0.03985133 0.04993793 -0.03584712 0 0 0 0
0.03637972 0.08941196 -0.00323236 0 0 0 0
0.09460284 -0.00587583 -0.00481761 0 0 0 0
-0.00103096 0.04684094 -0.05294161 0 0 0 0
-0.01947925 -0.03789977 -0.05722074 0 0 0 0
0.01046920 -0.02986586 -0.06820981 0 0 0 0
-0.07586709 0.01133501 0.02294024 0 0 0 0
0.02049839 0.09489725 -0.00248368 0 0 0 0
0.07379633 -0.00459779 0.02576012 0 0 0 0
-0.07178716 -0.06793205 0.00067842 0 0 0 0
-0.06077040 0.07103987 0.00628723 0 0 0 0
0.02742581 -0.01840845 -0.06685103 0 0 0 0
-0.08694161 -0.01606857 0.01125251 0 0 0 0
-0.04283218 -0.01724646 -0.05381767 0 0 0 0
-0.03572217 -0.06371588 0.02661456 0 0 0 0
-0.04729930 0.03782009 0.03927830 0 0 0 0
0.02731430 -0.05027049 -0.04252921 0 0 0 0
-0.00872725 -0.06732868 -0.03193597 0 0 0 0
-0.01442976 0.02853163 -0.06799064 0 0 0 0
-0.01462283 -0.07172963 -0.02656783 0 0 0 0
0.03160340 -0.00474457 -0.06793889 0 0 0 0
-0.03325991 0.03733902 0.04980727 0 0 0 0
0.02263757 -0.01223771 -0.07417839 0 0 0 0
0.01662945 0.03090386 -0.06477858 0 0 0 0
0.05014307 -0.05942830 -0.02188342 0 0 0 0
-0.03446355 0.08010060 -0.01241567 0 0 0 0
0.02486593 -0.00617951 0.07434803 0 0 0 0
0.01293616 0.06599233 -0.03243958 0 0 0 0
0.06554833 0.02447667 0.02982978 0 0 0 0
-0.02683735 -0.00159280 -0.07310320 0 0 0 0
0.01273425 -0.08063613 0.01833631 0 0 0 0
-0.08598464 0.01199969 0.01285776 0 0 0 0
0.07176432 0.01094349 0.02717998 0 0 0 0
0.02135273 -0.03722361 0.05695577 0 0 0 0
0.09077646 0.01355904 -0.00791552 0 0 0 0
-0.08272801 0.02646897 0.01275703 0 0 0 0
-0.02725090 0.05801786 0.03560644 0 0 0 0
0.05119998 -0.01562371 0.04635924 0 0 0 0
-0.05714858 0.06498326 -0.01333992 0 0 0 0
0.00698856 -0.03455802 -0.06463611 0 0 0 0
-0.00006599 -0.05099750 0.04876576 0 0 0 0
-0.01891533 0.09565480 -0.00222383 0 0 0 0
0.05434869 0.07082988 -0.01042258 0 0 0 0
-0.06935294 -0.04567594 -0.01663002 0 0 0 0
0.00025928 0.06475736 -0.03509236 0 0 0 0
0.05054808 0.07293409 0.01090459 0 0 0 0
-0.03549627 -0.05794317 0.03175873 0 0 0 0
0.00503098 -0.03787411 0.06170442 0 0 0 0
-0.06033493 0.01050821 -0.03847706 0 0 0 0
-0.09102994 0.02861703 0.00444292 0 0 0 0
0.02889945 -0.08879608 -0.00618762 0 0 0 0
0.00740251 -0.07241697 0.02689314 0 0 0 0
-0.06786010 0.01426439 -0.03034530 0 0 0 0
-0.00260270 -0.09228193 -0.00731262 0 0 0 0
0.02305770 0.09330542 -0.00373747 0 0 0 0
0.03757823 0.08618487 -0.00592985 0 0 0 0
0.01380961 0.02208470 0.07383655 0 0 0 0
-0.06599388 0.02303079 -0.02978836 0 0 0 0
-0.07239212 0.02984421 0.02135991 0 0 0 0
-0.06190147 -0.06574340 -0.00955843 0 0 0 0
0.02981050 -0.09044836 -0.00432381 0 0 0 0
0.07969351 -0.04399643 -0.00857127 0 0 0 0
-0.09665640 -0.01004435 0.00252909 0 0 0 0
0.01811459 0.01141194 0.07851468 0 0 0 0
0.02778960 -0.00122340 0.07205635 0 0 0 0
0.09035856 0.02966795 -0.00449347 0 0 0 0
-0.01733515 0.06805643 -0.02955933 0 0 0 0
0.08106679 0.05751793 -0.00014287 0 0 0 0
-0.00446366 0.03412078 -0.06549573 0 0 0 0
0.00684848 0.08267187 -0.01674640 0 0 0 0
0.06478460 -0.03954468 -0.02388960 0 0 0 0
-0.00391050 0.05526962 0.04447380 0 0 0 0
0.03719923 0.06910525 0.02123422 0 0 0 0
-0.00260295 0.05146356 -0.04829752 0 0 0 0
0.03697896 0.06793799 -0.02238678 0 0 0 0
0.05569350 -0.05120342 -0.02399602 0 0 0 0
0.06675448 0.06792776 -0.00456354 0 0 0 0
0.01334542 0.04699932 0.05109029 0 0 0 0
-0.00302094 -0.06903969 -0.03058786 0 0 0 0
0.05466937 -0.04496293 0.02889527 0 0 0 0
0.00883389 0.04916153 -0.04997438 0 0 0 0
0.02324795 0.07250543 0.02371681 0 0 0 0
0.08829163 -0.00863857 0.01105037 0 0 0 0
0.07603829 -0.00558954 -0.02369168 0 0 0 0
0.07515852 -0.05944481 0.00373062 0 0 0 0
-0.03935885 0.00584875 -0.06007693 0 0 0 0
0.01446705 0.09431500 -0.00451063 0 0 0 0
0.00563838 -0.09092054 -0.00865738 0 0 0 0
-0.00242807 0.03859297 -0.06122787 0 0 0 0
0.07406868 -0.05543588 -0.00710589 0 0 0 0
-0.07790548 0.05953903 0.00184660 0 0 0 0
-0.00779212 0.07868149 0.02091449 0 0 0 0
-0.07033078 -0.06335707 -0.00507204 0 0 0 0
-0.03285034 0.08322401 -0.01035026 0 0 0 0
0.02723413 0.08927200 -0.00626104 0 0 0 0
0.07464772 -0.04648620 -0.01177279 0 0 0 0
-0.01033494 0.08432426 -0.01479310 0 0 0 0
0.03003963 0.07635079 0.01779676 0 0 0 0
-0.09188192 -0.01975736 -0.00558906 0 0 0 0
0.04063250 0.01245747 0.05741742 0 0 0 0
-0.02870468 -0.05917456 -0.03407355 0 0 0 0
0.00408876 0.00702187 -0.09184682 0 0 0 0
-0.04031565 -0.07674465 0.01296096 0 0 0 0
-0.03836969 -0.08191079 -0.00925733 0 0 0 0
-0.00090251 -0.04024724 0.05956592 0 0 0 0
0.03250643 -0.02596352 -0.05829223 0 0 0 0
-0.00106107 0.03517456 0.06466646 0 0 0 0
0.06079875 0.06859723 -0.00800148 0 0 0 0
-0.04085766 0.07150147 -0.01747057 0 0 0 0
0.01633719 -0.05343376 -0.04391061 0 0 0 0
-0.03964068 -0.07055591 -0.01869524 0 0 0 0
-0.01128928 -0.00740890 -0.08649189 0 0 0 0
-0.06020622 0.05682269 -0.01711752 0 0 0 0
-0.04901358 0.06639601 -0.01723322 0 0 0 0
-0.03445385 0.07334216 -0.01859587 0 0 0 0
0.00005232 -0.08684865 -0.01293081 0 0 0 0
0.06301986 -0.02447699 0.03230770 0 0 0 0
-0.03724525 0.07414381 -0.01665348 0 0 0 0
0.03601792 -0.03651515 -0.04861038 0 0 0 0
-0.01566498 0.02732331 -0.06840889 0 0 0 0
0.04347601 0.00250248 0.05642518 0 0 0 0
0.02764918 0.05373930 -0.03930557 0 0 0 0
0.00391087 -0.08199279 0.01780042 0 0 0 0
-0.04632762 0.03373710 -0.04247907 0 0 0 0
0.00971432 -0.06760920 -0.03138658 0 0 0 0
0.05850614 -0.00967003 -0.04056101 0 0 0 0
-0.04701839 -0.01637279 -0.05014800 0 0 0 0
0.05575370 0.04444750 -0.02836643 0 0 0 0
-0.06581666 0.00838074 0.03337487 0 0 0 0
0.02010479 0.04706875 0.04875716 0 0 0 0
0.09439309 0.00523313 -0.00510207 0 0 0 0
0.04956453 0.05189224 -0.02808898 0 0 0 0
-0.00319451 -0.02862667 -0.07115729 0 0 0 0
0.08467072 0.04725197 -0.00264953 0 0 0 0
-0.04999731 0.07341518 -0.01078408 0 0 0 0
0.06389950 0.04585000 0.02122449 0 0 0 0
-0.04219923 0.03997992 -0.04181135 0 0 0 0
0.01664316 -0.00399290 -0.08285367 0 0 0 0
-0.02765586 -0.01533748 0.06835656 0 0 0 0
-0.01952606 0.08224907 -0.01509569 0 0 0 0
-0.07566343 0.01292501 -0.02288728 0 0 0 0
0.01657294 -0.00541308 0.08255745 0 0 0 0
-0.04107058 0.06972556 -0.01878311 0 0 0 0
-0.05420856 0.06810282 -0.01259487 0 0 0 0
0.04692492 -0.02541698 -0.04639236 0 0 0 0
-0.00663720 0.02680006 -0.07226472 0 0 0 0
0.07184729 -0.02287211 -0.02451574 0 0 0 0
0.00207201 -0.08313307 -0.01651922 0 0 0 0
-0.09201580 0.02249692 -0.00513481 0 0 0 0
0.03295951 0.09242380 -0.00150709 0 0 0 0
0.02047514 0.01465420 -0.07470606 0 0 0 0
0.03872390 -0.06067643 -0.02787865 0 0 0 0
-0.04038453 0.04735597 -0.03747366 0 0 0 0
0.02294688 0.08698352 -0.00981731 0 0 0 0
0.04953144 0.06593635 -0.01730322 0 0 0 0
0.04964966 -0.01405628 -0.04816353 0 0 0 0
-0.02107608 0.05870586 -0.03735414 0 0 0 0
-0.07373302 -0.01837186 -0.02392844 0 0 0 0
-0.07905121 0.03948222 -0.01124106 0 0 0 0
-0.09421824 0.03051378 -0.00058136 0 0 0 0
0.02148857 0.05020071 -0.04533289 0 0 0 0
-0.08531397 -0.04258236 -0.00422215 0 0 0 0
0.06609358 -0.06916175 -0.00389346 0 0 0 0
-0.02456473 -0.01399901 -0.07160546 0 0 0 0
-0.05694391 0.03100898 0.03492931 0 0 0 0
-0.07654440 0.06373657 -0.00029493 0 0 0 0
-0.06159463 0.03820709 -0.02738244 0 0 0 0
-0.04905113 0.03685750 -0.03838529 0 0 0 0
-0.03285780 -0.08756319 -0.00607173 0 0 0 0
-0.01451345 0.05879920 0.03916131 0 0 0 0
0.01460878 -0.02129455 0.07406384 0 0 0 0
0.07152602 0.05057913 -0.01199251 0 0 0 0
0.05044841 0.06979251 -0.01358705 0 0 0 0
-0.01432234 0.04896449 -0.04876724 0 0 0 0
-0.04108330 0.02451742 -0.05193617 0 0 0 0
0.03547478 -0.06073700 -0.02956043 0 0 0 0
-0.09022981 0.00770407 -0.00927799 0 0 0 0
0.05076622 0.03725872 -0.03698179 0 0 0 0
-0.07491962 0.06131729 -0.00274538 0 0 0 0
0.01777983 0.02890033 -0.06593632 0 0 0 0
0.06999867 0.04336444 -0.01727909 0 0 0 0
0.05203801 -0.03572494 0.03668798 0 0 0 0
0.06660019 -0.01674826 0.03126286 0 0 0 0
0.05219749 0.03569058 -0.03664489 0 0 0 0
-0.00347582 0.04532006 -0.05439681 0 0 0 0
-0.02646411 -0.03721233 -0.05413714 0 0 0 0
-0.00821350 -0.01894802 -0.07926892 0 0 0 0
0.03341822 0.01485634 -0.06325857 0 0 0 0
0.01886327 -0.05353979 0.04303106 0 0 0 0
-0.00518492 0.03537638 -0.06408507 0 0 0 0
0.01546036 -0.08275078 0.01564420 0 0 0 0
0.05703230 0.03924626 0.03056341 0 0 0 0
0.02760452 -0.02016810 -0.06568474 0 0 0 0
-0.01970972 0.08040466 -0.01709772 0 0 0 0
0.00593424 -0.02954037 -0.06973012 0 0 0 0
0.03555537 -0.06486481 0.02569106 0 0 0 0
-0.08704121 -0.04386370 -0.00220120 0 0 0 0
0.05822886 0.05373561 -0.02060436 0 0 0 0
0.07232480 0.06849022 -0.00029049 0 0 0 0
-0.01457402 -0.00787594 -0.08337750 0 0 0 0
0.03632654 0.07223332 -0.01886076 0 0 0 0
-0.00322335 0.05578342 -0.04386528 0 0 0 0
-0.05818150 -0.07717262 -0.00307443 0 0 0 0
-0.06622437 0.06473880 -0.00699402 0 0 0 0
0.03690758 0.02319088 -0.05621444 0 0 0 0
0.07005782 -0.04975021 0.01390258 0 0 0 0
-0.01909020 0.06860438 -0.02846647 0 0 0 0
0.01564471 -0.08387579 -0.01450395 0 0 0 0
-0.08435265 -0.04482495 -0.00403631 0 0 0 0
-0.00636983 0.05658520 0.04280049 0 0 0 0
-0.01917741 -0.07982744 -0.01753784 0 0 0 0
0.01041234 -0.00280417 -0.08921002 0 0 0 0
-0.04411003 -0.04875144 -0.03397997 0 0 0 0
0.00515778 -0.06456857 -0.03513168 0 0 0 0
-0.00479387 0.08784471 -0.01185617 0 0 0 0
0.04778275 0.05229625 -0.02887644 0 0 0 0
0.05258936 0.04994382 -0.02715538 0 0 0 0
0.02002645 -0.00731555 -0.07858030 0 0 0 0
-0.05850354 -0.07682697 -0.00298997 0 0 0 0
-0.05214507 0.04881869 0.02824574 0 0 0 0
-0.03798616 0.03265153 -0.04988692 0 0 0 0
-0.02821698 0.04831225 0.04397036 0 0 0 0
0.03606633 0.01893329 0.05907714 0 0 0 0
0.06922508 0.02603213 -0.02581956 0 0 0 0
-0.04539170 0.02633435 -0.04733173 0 0 0 0
-0.04360709 -0.04870206 0.03437497 0 0 0 0
0.06604953 -0.01515031 -0.03192062 0 0 0 0
0.07418673 0.01228436 -0.02462822 0 0 0 0
-0.07262716 0.00214397 -0.02700413 0 0 0 0
0.05503358 -0.05250069 -0.02364744 0 0 0 0
0.00982511 0.06375021 -0.03545301 0 0 0 0
0.06248276 0.00461818 0.03729133 0 0 0 0
-0.05120273 0.06965058 0.01315488 0 0 0 0
0.08498552 -0.00903617 -0.01437285 0 0 0 0
0.08182012 -0.00684156 -0.01751989 0 0 0 0
-0.00473024 0.02121877 0.07817449 0 0 0 0
-0.02525241 -0.00705687 0.07366174 0 0 0 0
0.04372140 0.02535825 0.04923184 0 0 0 0
0.08074026 -0.01856035 0.01693213 0 0 0 0
0.02178671 -0.00139313 0.07807890 0 0 0 0
-0.04536216 -0.06670089 0.01924912 0 0 0 0
-0.00208392 -0.06378666 -0.03591475 0 0 0 0
-0.08598471 0.01875159 -0.01182644 0 0 0 0
-0.07735696 0.05096493 -0.00696619 0 0 0 0
0.04758475 0.07169503 -0.01378170 0 0 0 0
0.09725402 0.00997228 -0.00194795 0 0 0 0
0.07496324 0.01612451 -0.02297226 0 0 0 0
-0.04228378 0.03203620 -0.04672077 0 0 0 0
-0.07464594 0.04385063 -0.01328911 0 0 0 0
-0.00952455 0.07723688 -0.02200633 0 0 0 0
0.07680978 0.04373917 -0.01123243 0 0 0 0
0.00071729 0.07027294 -0.02940083 0 0 0 0
-0.09453001 -0.02056032 -0.00281588 0 0 0 0
0.01926312 0.03957676 -0.05578028 0 0 0 0
-0.07458897 -0.01512590 -0.02360000 0 0 0 0
-0.04677837 -0.02995781 -0.04423664 0 0 0 0
0.03919544 0.08270101 0.00805784 0 0 0 0
-0.02283015 0.02753495 -0.06411233 0 0 0 0
-0.03777010 -0.02830277 0.05260465 0 0 0 0
0.05366026 0.05311294 -0.02416543 0 0 0 0
0.00051784 0.04344883 0.05640582 0 0 0 0
-0.00228575 0.05120594 -0.04868504 0 0 0 0
0.00729256 0.00340248 -0.09192333 0 0 0 0
0.03081381 0.03868330 -0.05054143 0 0 0 0
0.00173369 -0.08574937 0.01414115 0 0 0 0
0.05269887 -0.03632803 -0.03569685 0 0 0 0
-0.02757211 0.06450617 -0.02959352 0 0 0 0
0.03512808 -0.06173351 0.02864273 0 0 0 0
-0.00295139 -0.00938704 0.09014590 0 0 0 0
-0.04765951 -0.03897082 0.03833017 0 0 0 0
-0.08456909 -0.00022426 -0.01540927 0 0 0 0
-0.04580641 0.00291516 -0.05409846 0 0 0 0
-0.00957033 0.01734513 0.08012834 0 0 0 0
0.05525354 -0.00209674 -0.04445096 0 0 0 0
-0.02984481 -0.05174702 -0.03998918 0 0 0 0
0.07824611 -0.02213262 -0.01854828 0 0 0 0
0.07211380 0.02015453 0.02478473 0 0 0 0
-0.04346615 -0.05784175 -0.02731139 0 0 0 0
-0.08641281 0.02758873 -0.00895541 0 0 0 0
0.03884777 -0.01304173 0.05885704 0 0 0 0
0.02764243 0.06232797 -0.03153750 0 0 0 0
0.02487969 0.04725233 0.04637145 0 0 0 0
-0.04258765 -0.07068653 -0.01745411 0 0 0 0
0.00166860 -0.09372949 -0.00583539 0 0 0 0
0.01683459 0.02294719 -0.07148252 0 0 0 0
-0.07467447 -0.05339763 0.00803678 0 0 0 0
-0.02992676 0.05335360 -0.03867552 0 0 0 0
0.00367847 -0.04224256 0.05741175 0 0 0 0
-0.00178933 0.00433950 0.09529213 0 0 0 0
0.02018664 0.01369444 -0.07556620 0 0 0 0
-0.07411374 -0.00557811 0.02560222 0 0 0 0
0.00496993 0.08237427 0.01724332 0 0 0 0
0.01227317 -0.05007233 0.04837262 0 0 0 0
-0.00109950 -0.02368041 -0.07626372 0 0 0 0
-0.01719114 0.01547308 0.07681823 0 0 0 0
0.03398538 0.04498779 0.04335742 0 0 0 0
-0.04281829 -0.07048266 -0.01718779 0 0 0 0
-0.03933815 -0.07258553 0.01715168 0 0 0 0
-0.04815005 0.07889641 0.00754507 0 0 0 0
-0.03407850 -0.05101890 0.03853935 0 0 0 0
-0.05101743 -0.08027279 -0.00458075 0 0 0 0
-0.07237037 0.01656826 0.02556276 0 0 0 0
-0.01478102 -0.06187230 -0.03610672 0 0 0 0
0.04610220 -0.01351949 0.05182269 0 0 0 0
0.09359737 -0.00290001 -0.00592305 0 0 0 0
-0.08680061 0.04720863 -0.00084230 0 0 0 0
-0.03410731 0.00310380 -0.06565201 0 0 0 0
-0.00342654 0.01058032 0.08882733 0 0 0 0
0.07418076 0.01104581 -0.02465906 0 0 0 0
-0.03853546 0.01341589 0.05905088 0 0 0 0
-0.04493044 0.02155303 0.05016024 0 0 0 0
0.04530548 0.03170204 -0.04444774 0 0 0 0
-0.03721485 0.07822616 -0.01297159 0 0 0 0
0.01510357 0.08545358 -0.01310859 0 0 0 0
0.00114281 -0.01548801 0.08442102 0 0 0 0
-0.07090791 0.05566500 -0.00966739 0 0 0 0
-0.04827837 -0.01981511 -0.04759065 0 0 0 0
0.00366742 0.03076554 -0.06891908 0 0 0 0
-0.03846382 -0.07000634 -0.01997538 0 0 0 0
0.00775147 0.03836722 0.06077529 0 0 0 0
0.05955522 -0.00854852 0.03956456 0 0 0 0
-0.00026785 0.02323765 0.07665448 0 0 0 0
0.04038035 0.01599679 -0.05653628 0 0 0 0
-0.05078245 -0.06694481 -0.01571706 0 0 0 0
0.04252216 0.02587945 0.05008780 0 0 0 0
-0.04980043 0.00068021 -0.05013394 0 0 0 0
-0.00353190 -0.07205728 -0.02774880 0 0 0 0
-0.02341466 -0.04088386 -0.05274384 0 0 0 0
-0.07254793 0.01777539 -0.02496890 0 0 0 0
-0.06058022 -0.00116074 -0.03913244 0 0 0 0
-0.01486054 0.07878781 -0.01945218 0 0 0 0
0.00650165 -0.04970075 0.04964318 0 0 0 0
-0.04949731 0.01151718 -0.04894496 0 0 0 0
-0.08705910 0.00497634 -0.01274192 0 0 0 0
0.02233006 -0.08065073 0.01618063 0 0 0 0
-0.00832213 -0.01349716 0.08408231 0 0 0 0
-0.01811939 -0.03618129 0.05947610 0 0 0 0
-0.07952806 0.04307061 -0.00914886 0 0 0 0
-0.05478917 -0.03433561 -0.03511967 0 0 0 0
0.07676916 -0.00824443 0.02264861 0 0 0 0
-0.06006625 -0.02814401 -0.03341996 0 0 0 0
0.08568713 -0.02593086 -0.01006086 0 0 0 0
-0.00767797 -0.03756106 -0.06154212 0 0 0 0
-0.03759976 0.00818604 -0.06139734 0 0 0 0
0.03885628 -0.00963051 -0.05982394 0 0 0 0
0.05793509 0.06849713 -0.01003818 0 0 0 0
-0.03319530 0.05603662 -0.03462509 0 0 0 0
-0.08798943 -0.04502200 -0.00070540 0 0 0 0
-0.01116506 0.02958864 -0.06835097 0 0 0 0
-0.02487251 -0.08248848 0.01350058 0 0 0 0
-0.03933822 0.07266407 -0.01725840 0 0 0 0
-0.02816520 -0.07974702 -0.01511945 0 0 0 0
0.09562248 0.02367518 0.00065687 0 0 0 0
