ply
format ascii 1.0
element vertex 624
property float x
property float y
property float z
property uchar red
property uchar green
property uchar blue
end_header
-0.021548490971326828 -0.00137593282852321863 -0.0302085019648075104 0 255 0
-0.0141910649836063385 0.00198640767484903336 -0.0357900895178318024 0 255 0
-0.0213260557502508163 0.00863444525748491287 -0.0470065698027610779 0 255 0
-0.0255180951207876205 0.00759832747280597687 -0.0436626002192497253 0 255 0
-0.0234151221811771393 0.00615019258111715317 -0.0457064695656299591 0 255 0
-0.0205835364758968353 0.00192369124852120876 -0.0488822907209396362 0 255 0
-0.0252954121679067612 0.00666855927556753159 -0.044023558497428894 0 255 0
-0.0241779293864965439 0.00478368951007723808 -0.0453172698616981506 0 255 0
-0.0115840388461947441 0.0120048960670828819 -0.0402815490961074829 0 255 0
-0.0300070252269506454 0.0048330891877412796 -0.0356597378849983215 0 255 0
-0.0287378747016191483 0.00824784301221370697 -0.0408251360058784485 0 255 0
-0.0203327815979719162 0.0109873237088322639 -0.0474065989255905151 0 255 0
-0.0212526805698871613 0.0146485716104507446 -0.045948907732963562 0 255 0
-0.0107738664373755455 0.0105144362896680832 -0.037085656076669693 0 255 0
-0.0138653367757797241 0.012227104976773262 -0.0434843488037586212 0 255 0
-0.0257315374910831451 0.00967294536530971527 -0.0430963113903999329 0 255 0
-0.0265631489455699921 0.00518173398450016975 -0.0432307422161102295 0 255 0
-0.0258401893079280853 -0.00284040416590869427 -0.0447871647775173187 0 255 0
-0.0245701968669891357 0.0134953325614333153 -0.0433645807206630707 0 255 0
-0.0266511552035808563 0.00492779118940234184 -0.0432037636637687683 0 255 0
-0.0274370163679122925 0.000959039258304983377 -0.0432795397937297821 0 255 0
-0.0280618760734796524 0.00657283049076795578 -0.0417072959244251251 0 255 0
-0.0182908419519662857 -0.00374309718608856201 -0.0402064137160778046 0 255 0
-0.0289190430194139481 0.00513206701725721359 -0.0412523075938224792 0 255 0
-0.0153797809034585953 0.00598816527053713799 -0.0340422093868255615 0 255 0
-0.0260599832981824875 0.00266003422439098358 -0.0314545109868049622 0 255 0
-0.0182606745511293411 0.00395607389509677887 -0.0319898650050163269 0 255 0
-0.0301047638058662415 0.0114161893725395203 -0.0390820726752281189 0 255 0
-0.0237863268703222275 0.00669274246320128441 -0.0452922843396663666 0 255 0
-0.0233670603483915329 0.0126003473997116089 -0.0445462837815284729 0 255 0
-0.0226273220032453537 0.0106578115373849869 -0.0291272997856140137 0 255 0
-0.0297679901123046875 0.0134604740887880325 -0.0388454906642436981 0 255 0
-0.0118641853332519531 0.0068961605429649353 -0.036839313805103302 0 255 0
-0.0211625415831804276 0.00690572895109653473 -0.0474663414061069489 0 255 0
-0.020234839990735054 0.0159250721335411072 -0.0379028171300888062 0 255 0
-0.0179733838886022568 0.0133316963911056519 -0.0480142757296562195 0 255 0
-0.0200349539518356323 0.0132298488169908524 -0.0472404174506664276 0 255 0
-0.0174613539129495621 0.0156131284311413765 -0.038096744567155838 0 255 0
-0.0304729770869016647 0.00673534069210290909 -0.0396427810192108154 0 255 0
-0.0310282129794359207 0.0105691365897655487 -0.0376708582043647766 0 255 0
-0.0148336384445428848 0.00430226000025868416 -0.0348168350756168365 0 255 0
-0.0181221310049295425 -0.00401103170588612556 -0.0392457693815231323 0 255 0
-0.0259893573820590973 0.00891366135329008102 -0.0430201329290866852 0 255 0
-0.0283218137919902802 0.000188418503967113793 -0.042676486074924469 0 255 0
-0.0155991725623607635 0.00954653602093458176 -0.0331946909427642822 0 255 0
-0.0157548319548368454 0.00422298302873969078 -0.0340543761849403381 0 255 0
-0.0181343536823987961 0.0104176783934235573 -0.0493674725294113159 0 255 0
-0.0212195869535207748 0.0118283908814191818 -0.0465018264949321747 0 255 0
-0.0227446947246789932 0.00291170063428580761 -0.0468749813735485077 0 255 0
-0.0207675192505121231 0.0155737772583961487 -0.0361814610660076141 0 255 0
-0.0152296153828501701 0.00805176887661218643 -0.0481758564710617065 0 255 0
-0.0275919642299413681 -0.00141704513225704432 -0.0388306379318237305 0 255 0
-0.0184263717383146286 0.011022801510989666 -0.049008447676897049 0 255 0
-0.0201782453805208206 -0.00197207089513540268 -0.0462006889283657074 0 255 0
-0.00986064225435256958 0.00381317920982837677 -0.0391036346554756165 0 255 0
-0.0206205863505601883 0.00408829143270850182 -0.0484480783343315125 0 255 0
-0.0146808093413710594 0.0149499773979187012 -0.0368343479931354523 0 255 0
-0.013166302815079689 0.00472804484888911247 -0.0361443161964416504 0 255 0
-0.0280627030879259109 0.0135707017034292221 -0.0404038950800895691 0 255 0
-0.026125103235244751 0.00928716734051704407 -0.0428360737860202789 0 255 0
-0.015803854912519455 0.0132588669657707214 -0.0323309227824211121 0 255 0
-0.0112752458080649376 0.00555414240807294846 -0.0375860296189785004 0 255 0
-0.0175752826035022736 0.004663076251745224 -0.0324365235865116119 0 255 0
-0.0275045521557331085 -0.00167009956203401089 -0.0392542071640491486 0 255 0
-0.025135556235909462 0.00631814822554588318 -0.0442236624658107758 0 255 0
-0.00986775197088718414 0.00226348987780511379 -0.0393861196935176849 0 255 0
-0.0309805050492286682 0.00985807180404663086 -0.0386332571506500244 0 255 0
-0.021738152951002121 0.0165461283177137375 -0.0440971441566944122 0 255 0
-0.0131661919876933098 -0.00148333190008997917 -0.037300698459148407 0 255 0
-0.0226981714367866516 0.0159018244594335556 -0.0444960333406925201 0 255 0
-0.0124911088496446609 0.0118710808455944061 -0.0353842563927173615 0 255 0
-0.0223601050674915314 -0.000558882835321128368 -0.0293716378509998322 0 255 0
-0.0137653825804591179 0.0114338323473930359 -0.0442677699029445648 0 255 0
-0.0246053338050842285 0.00790808536112308502 -0.0443750359117984772 0 255 0
-0.0254560727626085281 0.00705346185714006424 -0.0438163578510284424 0 255 0
-0.0260886773467063904 0.00796209461987018585 -0.0431134775280952454 0 255 0
-0.0217481479048728943 0.00343254790641367435 -0.047618817538022995 0 255 0
-0.00965965539216995239 0.0091072525829076767 -0.040581919252872467 0 255 0
-0.0164533630013465881 0.00191913940943777561 -0.0479323491454124451 0 255 0
-0.0173390787094831467 0.0128696030005812645 -0.047686699777841568 0 255 0
-0.0167344734072685242 -0.00148905511014163494 -0.0342911817133426666 0 255 0
-0.0150067629292607307 0.00158445443958044052 -0.0462566874921321869 0 255 0
-0.0279146656394004822 0.00268604792654514313 -0.033839058130979538 0 255 0
-0.0232896674424409866 0.00973126757889986038 -0.0451456792652606964 0 255 0
-0.0218665562570095062 0.00943376589566469193 -0.0464017465710639954 0 255 0
-0.0186268892139196396 0.00710311857983469963 -0.0495689436793327332 0 255 0
-0.0211170334368944168 0.0164097882807254791 -0.0415902324020862579 0 255 0
-0.0204556677490472794 0.000940050347708165646 -0.0306993871927261353 0 255 0
-0.0244078077375888824 0.0108261667191982269 -0.0439984723925590515 0 255 0
-0.0238625220954418182 0.00909554120153188705 -0.0447807013988494873 0 255 0
-0.0150137078016996384 0.00717406254261732101 -0.0341303050518035889 0 255 0
-0.0128317130729556084 0.00302905123680830002 -0.0367428921163082123 0 255 0
-0.0217758975923061371 -0.00272307242266833782 -0.0319456234574317932 0 255 0
-0.02764163538813591 0.00926301069557666779 -0.0415610596537590027 0 255 0
-0.025514775887131691 0.00805245712399482727 -0.043580859899520874 0 255 0
-0.0120023954659700394 0.00277409772388637066 -0.0374900549650192261 0 255 0
-0.0132044805213809013 0.000941565493121743202 -0.0439008958637714386 0 255 0
-0.0213038120418787003 0.00822701957076787949 -0.0471011847257614136 0 255 0
-0.0188397485762834549 0.0153439510613679886 -0.0346327126026153564 0 255 0
-0.0170086752623319626 0.00788600370287895203 -0.0323146060109138489 0 255 0
-0.0163696631789207458 0.0104717062786221504 -0.0323723964393138885 0 255 0
-0.0159174259752035141 0.00139524554833769798 -0.0469814613461494446 0 255 0
-0.0203904341906309128 -0.00281177903525531292 -0.0314528569579124451 0 255 0
-0.0278048217296600342 0.00707225408405065536 -0.0418312028050422668 0 255 0
-0.0193101745098829269 0.0119472593069076538 -0.0480906814336776733 0 255 0
-0.0173898227512836456 0.0042845127172768116 -0.0326634682714939117 0 255 0
-0.0236135348677635193 0.0154790785163640976 -0.0373854599893093109 0 255 0
-0.0239449571818113327 0.0043944590725004673 -0.0455862879753112793 0 255 0
-0.0106609826907515526 0.00795144122093915939 -0.0425080917775630951 0 255 0
-0.0157572515308856964 0.0126882055774331093 -0.0455768406391143799 0 255 0
-0.0244130436331033707 0.0108976839110255241 -0.0439807400107383728 0 255 0
-0.0322687290608882904 0.00517294555902481079 -0.0384185388684272766 0 255 0
-0.0114238634705543518 0.006922887172549963 -0.0372058413922786713 0 255 0
-0.0235547330230474472 0.00541329523548483849 -0.0457258597016334534 0 255 0
-0.0263410527259111404 0.000539460394065827131 -0.0442823171615600586 0 255 0
-0.0155474040657281876 0.0148779405280947685 -0.0322702378034591675 0 255 0
-0.0151380915194749832 0.00533435959368944168 -0.0481322407722473145 0 255 0
-0.0204237382858991623 0.0126865841448307037 -0.0470135286450386047 0 255 0
-0.018209381029009819 0.00580991059541702271 -0.0316880382597446442 0 255 0
-0.0257838014513254166 0.00318384706042706966 -0.0308951884508132935 0 255 0
-0.0118013611063361168 0.00813131965696811676 -0.0438637956976890564 0 255 0
-0.0232461299747228622 0.00608651712536811829 -0.0458609052002429962 0 255 0
-0.0281714349985122681 0.00960956327617168427 -0.0410495512187480927 0 255 0
-0.0235714688897132874 0.00367832719348371029 -0.0460347160696983337 0 255 0
-0.0195333883166313171 0.00810580886900424957 -0.0301435664296150208 0 255 0
-0.0274201519787311554 0.00450649764388799667 -0.0325235910713672638 0 255 0
-0.0258907247334718704 0.00825875811278820038 -0.043225262314081192 0 255 0
-0.024408852681517601 0.00731484591960906982 -0.0446512475609779358 0 255 0
-0.0257172584533691406 0.00586462346836924553 -0.0438173040747642517 0 255 0
-0.017449667677283287 0.00638483837246894836 -0.0322219878435134888 0 255 0
-0.0309635810554027557 0.00393568212166428566 -0.0397500284016132355 0 255 0
-0.0272060595452785492 0.000961082638241350651 -0.0342944450676441193 0 255 0
-0.016803862527012825 0.00341560062952339649 -0.0492577254772186279 0 255 0
-0.0235109459608793259 -0.00103760603815317154 -0.0469636805355548859 0 255 0
-0.0176509544253349304 0.00469437707215547562 -0.0507393702864646912 0 255 0
-0.0295720677822828293 0.0120329586789011955 -0.0372597873210906982 0 255 0
-0.0220537204295396805 -0.0030328978318721056 -0.0334560908377170563 0 255 0
-0.0209420733153820038 -0.00379915069788694382 -0.0400709211826324463 0 255 0
-0.0284427553415298462 0.0100175905972719193 -0.0407446809113025665 0 255 0
-0.0262259691953659058 0.00934465322643518448 -0.0427402704954147339 0 255 0
-0.0198673121631145477 0.016026519238948822 -0.0434682294726371765 0 255 0
-0.0214138012379407883 0.00961627345532178879 -0.0282758679240942001 0 255 0
-0.0132392561063170433 0.00458515016362071037 -0.0458236336708068848 0 255 0
-0.0269035454839468002 0.0111554916948080063 -0.0418314933776855469 0 255 0
-0.0195874776691198349 -0.00424446864053606987 -0.0351550653576850891 0 255 0
-0.0263431314378976822 -0.00162700691726058722 -0.0446838662028312683 0 255 0
-0.0278912559151649475 0.0116269942373037338 -0.0409103818237781525 0 255 0
-0.0201121270656585693 0.012165045365691185 -0.0473735257983207703 0 255 0
-0.0179132279008626938 -0.00337414070963859558 -0.0336475782096385956 0 255 0
-0.0224534459412097931 0.000538679247256368399 -0.0290885679423809052 0 255 0
-0.0174595154821872711 0.0149832330644130707 -0.0435027144849300385 0 255 0
-0.0222502369433641434 0.0139147285372018814 -0.0330317318439483643 0 255 0
-0.0204210001975297928 0.0127360532060265541 -0.0295675825327634811 0 255 0
-0.0198350418359041214 0.00325445272028446198 -0.0492660701274871826 0 255 0
-0.0245942305773496628 0.00854326412081718445 -0.0442661643028259277 0 255 0
-0.00858902651816606522 0.00895524676889181137 -0.0392192751169204712 0 255 0
-0.0192049257457256317 -0.00391061464324593544 -0.0398384146392345428 0 255 0
-0.0176880080252885818 -0.00211772066541016102 -0.0336037054657936096 0 255 0
-0.0205507520586252213 0.0122732510790228844 -0.0290141627192497253 0 255 0
-0.0254346784204244614 0.00435389205813407898 -0.0443369485437870026 0 255 0
-0.0236252155154943466 0.0149379270151257515 -0.0361051112413406372 0 255 0
-0.0285696331411600113 5.7107525208266452e-05 -0.0373685359954833984 0 255 0
-0.0187748223543167114 0.00917031895369291306 -0.0490593090653419495 0 255 0
-0.0253651663661003113 0.00758275995030999184 -0.0437945239245891571 0 255 0
-0.024534987285733223 0.00734374392777681351 -0.0445394478738307953 0 255 0
-0.0121117979288101196 0.00628745462745428085 -0.0446347445249557495 0 255 0
-0.0263819042593240738 0.00739100482314825058 -0.0429723896086215973 0 255 0
-0.0135505413636565208 0.0133691150695085526 -0.0409051738679409027 0 255 0
-0.0244063492864370346 0.00777019793167710304 -0.0445685908198356628 0 255 0
-0.0243256539106369019 0.0157914478331804276 -0.0385859459638595581 0 255 0
-0.0144924400374293327 0.00389285897836089134 -0.0469962544739246368 0 255 0
-0.0157372709363698959 0.00593650992959737778 -0.0489125661551952362 0 255 0
-0.0249054338783025742 0.00630626268684864044 -0.0444200299680233002 0 255 0
-0.0219727307558059692 0.00914080161601305008 -0.0463667064905166626 0 255 0
-0.0252226591110229492 0.00880277063697576523 -0.0305854491889476776 0 255 0
-0.0107006486505270004 0.0129986144602298737 -0.0368650928139686584 0 255 0
-0.0178284980356693268 0.00573659548535943031 -0.0504969395697116852 0 255 0
-0.021939380094408989 0.011272740550339222 -0.0459979698061943054 0 255 0
-0.0292274095118045807 0.0102394865825772285 -0.0400413535535335541 0 255 0
-0.0148681020364165306 0.00649015558883547783 -0.0343804657459259033 0 255 0
-0.0250527728348970413 -0.00167006964329630136 -0.0457805655896663666 0 255 0
-0.01749412901699543 0.00832716096192598343 -0.0502967983484268188 0 255 0
-0.0248813536018133163 0.00887942127883434296 -0.0439613386988639832 0 255 0
-0.0226602591574192047 0.00898258388042449951 -0.0458160862326622009 0 255 0
-0.0258632842451334 0.0160970967262983322 -0.0403753332793712616 0 255 0
-0.0233475174754858017 0.00159006274770945311 -0.0466124080121517181 0 255 0
-0.0226381327956914902 0.00595399970188736916 -0.0463985428214073181 0 255 0
-0.0201049149036407471 0.0160378813743591309 -0.038602784276008606 0 255 0
-0.0270702801644802094 0.0149668250232934952 -0.0409813150763511658 0 255 0
-0.0168360061943531036 0.00845134072005748749 -0.032355044037103653 0 255 0
-0.0130683211609721184 0.00292184879072010517 -0.0450257845222949982 0 255 0
-0.0255762338638305664 0.0106145776808261871 -0.0430520512163639069 0 255 0
-0.0277638956904411316 0.00303709413856267929 -0.0334754586219787598 0 255 0
-0.0237970296293497086 -0.00297995936125516891 -0.0368482060730457306 0 255 0
-0.0120559828355908394 0.0106544233858585358 -0.0359778665006160736 0 255 0
-0.0173748917877674103 0.0150151383131742477 -0.0328777730464935303 0 255 0
-0.024567069485783577 0.00816312804818153381 -0.0295641086995601654 0 255 0
-0.022809712216258049 0.00790880061686038971 -0.0458898842334747314 0 255 0
-0.0111602284014225006 0.00258997525088489056 -0.0428169779479503632 0 255 0
-0.0154371680691838264 0.00559028610587120056 -0.0340678580105304718 0 255 0
-0.019868951290845871 0.0103052891790866852 -0.0479249022901058197 0 255 0
-0.00846985075622797012 0.00837688427418470383 -0.0394274890422821045 0 255 0
-0.0253094732761383057 -0.00296227051876485348 -0.0415721237659454346 0 255 0
-0.0146016916260123253 0.00586364464834332466 -0.0347218699753284454 0 255 0
-0.0174918286502361298 0.00591197144240140915 -0.032274443656206131 0 255 0
-0.012691788375377655 0.00272113014943897724 -0.0369182676076889038 0 255 0
-0.0284376703202724457 0.00381030910648405552 -0.041904497891664505 0 255 0
-0.0142238140106201172 0.0111713018268346786 -0.0451948381960391998 0 255 0
-0.0182697493582963943 0.00204197852872312069 -0.0498562455177307129 0 255 0
-0.0116377528756856918 0.00948144495487213135 -0.0429926775395870209 0 255 0
-0.0252826698124408722 0.00909932050853967667 -0.0435818098485469818 0 255 0
-0.0272625759243965149 0.0136169865727424622 -0.036772552877664566 0 255 0
-0.0211450327187776566 0.00481376470997929573 -0.0293966475874185562 0 255 0
-0.024070465937256813 0.0128668677061796188 -0.032894480973482132 0 255 0
-0.0245787836611270905 0.00286723673343658447 -0.0453358255326747894 0 255 0
-0.0318931229412555695 0.00276830652728676796 -0.0391211062669754028 0 255 0
-0.0185946431010961533 0.0143454074859619141 -0.0313021168112754822 0 255 0
-0.0162325277924537659 0.0066609489731490612 -0.033197496086359024 0 255 0
-0.0128642227500677109 0.00949273630976676941 -0.0355122052133083344 0 255 0
-0.0151775320991873741 0.0138614336028695107 -0.0424834303557872772 0 255 0
-0.0191700588911771774 -0.000297590304398909211 -0.0482382886111736298 0 255 0
-0.0245238430798053741 0.00586568424478173256 -0.0289578177034854889 0 255 0
-0.0123243369162082672 -0.00220242375507950783 -0.0381448417901992798 0 255 0
-0.0238373298197984695 -0.00279020285233855247 -0.0456424504518508911 0 255 0
-0.0248328372836112976 0.00534865260124206543 -0.0446595475077629089 0 255 0
-0.0195819549262523651 0.0153223760426044464 -0.0464054271578788757 0 255 0
-0.0122384363785386086 0.0132585028186440468 -0.038892991840839386 0 255 0
-0.0242485273629426956 0.0049497019499540329 -0.0452268011868000031 0 255 0
-0.0183366928249597549 0.00978880655020475388 -0.0308399274945259094 0 255 0
-0.0138558037579059601 0.0140433814376592636 -0.0338284671306610107 0 255 0
-0.0248231943696737289 0.00655354000627994537 -0.0444433838129043579 0 255 0
-0.0207513105124235153 -0.00295463227666914463 -0.0440881103277206421 0 255 0
-0.0273298472166061401 0.0110034346580505371 -0.0341161489486694336 0 255 0
-0.0159011147916316986 -0.00380112766288220882 -0.0389882102608680725 0 255 0
-0.0196921471506357193 0.0123568074777722359 -0.0476921685039997101 0 255 0
-0.018784649670124054 0.0158607345074415207 -0.0413202159106731415 0 255 0
-0.0171020198613405228 0.000406068225856870413 -0.0471958890557289124 0 255 0
-0.0172806810587644577 -0.00358085427433252335 -0.0403318107128143311 0 255 0
-0.0253379140049219131 0.015625467523932457 -0.0423203110694885254 0 255 0
-0.0229928083717823029 0.00881683267652988434 -0.045566365122795105 0 255 0
-0.0208869613707065582 -2.68354006038862281e-06 -0.0489848963916301727 0 255 0
-0.011624116450548172 0.011905263178050518 -0.0405325070023536682 0 255 0
-0.0217928960919380188 0.0100139826536178589 -0.0463558845221996307 0 255 0
-0.0163569152355194092 0.00513531779870390892 -0.0333765596151351929 0 255 0
-0.0282825566828250885 0.00496178166940808296 -0.0418210141360759735 0 255 0
-0.029085228219628334 0.00653310725465416908 -0.0343468338251113892 0 255 0
-0.0179454144090414047 0.00213046930730342865 -0.0325957015156745911 0 255 0
-0.0182026010006666183 0.0148610547184944153 -0.0326954126358032227 0 255 0
-0.0142760453745722771 0.00454239221289753914 -0.0469285957515239716 0 255 0
-0.0140729276463389397 0.0144399525597691536 -0.0384966693818569183 0 255 0
-0.015882391482591629 0.00473750801756978035 -0.048784349113702774 0 255 0
-0.013929818756878376 0.00225558876991271973 -0.0455400273203849792 0 255 0
-0.0233829263597726822 0.00861057452857494354 -0.045275617390871048 0 255 0
-0.029660932719707489 0.00408716080710291862 -0.040820881724357605 0 255 0
-0.0247684158384799957 0.00406248215585947037 -0.0293401516973972321 0 255 0
-0.024031931534409523 0.00183873542118817568 -0.029278237372636795 0 255 0
-0.0125084212049841881 0.00983075238764286041 -0.0439621768891811371 0 255 0
-0.0272750072181224823 0.00163434271235018969 -0.0337207652628421783 0 255 0
-0.0209956970065832138 0.00775857549160718918 -0.0474483482539653778 0 255 0
-0.0205823909491300583 -0.00220524147152900696 -0.0460480824112892151 0 255 0
-0.0223980564624071121 0.00350550934672355652 -0.0285830032080411911 0 255 0
-0.0225040894001722336 0.000722057477105408907 -0.029011700302362442 0 255 0
-0.0222696028649806976 0.00156012305524200201 -0.0475274249911308289 0 255 0
-0.0259769875556230545 -0.00111006444785743952 -0.0448965542018413544 0 255 0
-0.0276027042418718338 0.0104860905557870865 -0.0340771153569221497 0 255 0
-0.0119458083063364029 -0.000534892547875642776 -0.0381537862122058868 0 255 0
-0.0124899493530392647 0.00090108340373262763 -0.0431352183222770691 0 255 0
-0.0163273941725492477 0.00271308585070073605 -0.0338523797690868378 0 255 0
-0.0212515145540237427 -0.00356329302303493023 -0.0339673720300197601 0 255 0
-0.0233070682734251022 0.0105624916031956673 -0.0449762605130672455 0 255 0
-0.0116402152925729752 0.0103871393948793411 -0.0422726795077323914 0 255 0
-0.0205194205045700073 -0.00385944987647235394 -0.0339391306042671204 0 255 0
-0.0179787259548902512 0.0097369784489274025 -0.0311515945941209793 0 255 0
-0.0191632825881242752 0.00743709970265626907 -0.0305803120136260986 0 255 0
-0.0239717792719602585 0.00269960192963480949 -0.0458791665732860565 0 255 0
-0.018084842711687088 -0.00460193725302815437 -0.0338203422725200653 0 255 0
-0.018876783549785614 0.00563916657119989395 -0.049630630761384964 0 255 0
-0.021861635148525238 0.0142185529693961143 -0.0455151796340942383 0 255 0
-0.0206040684133768082 0.00516853947192430496 -0.0482609197497367859 0 255 0
-0.0258310344070196152 0.013092678040266037 -0.0347939915955066681 0 255 0
-0.0151720670983195305 0.00516563281416893005 -0.0343705788254737854 0 255 0
-0.015974508598446846 0.0149652408435940742 -0.0403142198920249939 0 255 0
-0.0243211239576339722 0.0102235749363899231 -0.044183783233165741 0 255 0
-0.0105975866317749023 0.0094715440645813942 -0.0374285280704498291 0 255 0
-0.0257616620510816574 0.0112698348239064217 -0.0427736230194568634 0 255 0
-0.0168410427868366241 0.0110608544200658798 -0.0318650193512439728 0 255 0
-0.0240795128047466278 0.00612462311983108521 -0.0451506786048412323 0 255 0
-0.0321887359023094177 0.00502402428537607193 -0.0385137535631656647 0 255 0
-0.0300313364714384079 0.0109930345788598061 -0.0392227955162525177 0 255 0
-0.0147357005625963211 0.00918621290475130081 -0.0339902862906455994 0 255 0
-0.0137207880616188049 0.00214805291034281254 -0.0361567772924900055 0 255 0
-0.0116093847900629044 0.008528134785592556 -0.0367504879832267761 0 255 0
-0.0272974427789449692 0.00670607853680849075 -0.0423274487257003784 0 255 0
-0.0143727287650108337 0.00281827477738261223 -0.0354819633066654205 0 255 0
-0.0176634546369314194 0.000663096550852060318 -0.0480145812034606934 0 255 0
-0.0151460757479071617 0.00917060952633619308 -0.0477581508457660675 0 255 0
-0.0234069004654884338 0.00784834008663892746 -0.0453972853720188141 0 255 0
-0.0298734251409769058 0.00307715288363397121 -0.0408296212553977966 0 255 0
-0.0251607019454240799 0.00876174308359622955 -0.0437475554645061493 0 255 0
-0.0245613250881433487 0.00647622952237725258 -0.0446787178516387939 0 255 0
-0.0245339535176753998 0.00706452690064907074 -0.044592294842004776 0 255 0
-0.0270196534693241119 0.0058095911517739296 -0.0427287071943283081 0 255 0
-0.0238833222538232803 0.00773494644090533257 -0.0286448299884796143 0 255 0
-0.022349964827299118 0.0118584726005792618 -0.0455425195395946503 0 255 0
-0.014072970487177372 0.00381830288097262383 -0.0355487093329429626 0 255 0
-0.0235726702958345413 0.00762648181989789009 -0.0452987253665924072 0 255 0
-0.0145519804209470749 0.0012467831838876009 -0.0455019623041152954 0 255 0
-0.0231761615723371506 -0.00302406563423573971 -0.0445859134197235107 0 255 0
-0.0151556404307484627 0.0089179379865527153 -0.0336859226226806641 0 255 0
-0.0132242217659950256 -0.00168744451366364956 -0.0372897349298000336 0 255 0
-0.0227741077542304993 0.0143842753022909164 -0.0447144694626331329 0 255 0
-0.0277883615344762802 0.00363296340219676495 -0.0332354269921779633 0 255 0
-0.0166106466203927994 -3.88248481613118201e-05 -0.0341256819665431976 0 255 0
-0.0286790952086448669 0.00933284033089876175 -0.0406727492809295654 0 255 0
-0.0244635865092277527 0.0132413143292069435 -0.0337820462882518768 0 255 0
-0.0278250724077224731 0.00274574686773121357 -0.0337380990386009216 0 255 0
-0.0152812683954834938 0.00614558067172765732 -0.0340960212051868439 0 255 0
-0.0237586647272109985 0.0111440438777208328 -0.0444869808852672577 0 255 0
-0.0272825621068477631 0.0137969702482223511 -0.0410199873149394989 0 255 0
-0.0247296988964080811 0.0137186376377940178 -0.043188437819480896 0 255 0
-0.0261765085160732269 0.00320903211832046509 -0.0439241863787174225 0 255 0
-0.0199226420372724533 0.00328618218190968037 -0.0491862557828426361 0 255 0
-0.019349290058016777 -0.00410299049690365791 -0.0387557335197925568 0 255 0
-0.0198247544467449188 0.0099643561989068985 -0.0480256564915180206 0 255 0
-0.0271434839814901352 0.014585237018764019 -0.0381016917526721954 0 255 0
-0.0197448786348104477 -0.00421205814927816391 -0.0362607389688491821 0 255 0
-0.0201050695031881332 0.00211619376204907894 -0.0492501407861709595 0 255 0
-0.016262473538517952 0.00772510608658194542 -0.0495010837912559509 0 255 0
-0.0166851188987493515 0.0149021819233894348 -0.032267201691865921 0 255 0
-0.0144467996433377266 0.0103707164525985718 -0.0340135321021080017 0 255 0
-0.027438722550868988 -0.00246807746589183807 -0.0435724109411239624 0 255 0
-0.0130041567608714104 0.00683611398562788963 -0.0456701628863811493 0 255 0
-0.027705799788236618 0.00239185383543372154 -0.0427860356867313385 0 255 0
-0.0166690237820148468 0.00493983319029211998 -0.0497591421008110046 0 255 0
-0.0160665996372699738 0.00554708018898963928 -0.0335448458790779114 0 255 0
-0.021222161129117012 0.00978009216487407684 -0.0468809567391872406 0 255 0
-0.0206215586513280869 0.0154557274654507637 -0.0358045585453510284 0 255 0
-0.018502507358789444 0.00571086769923567772 -0.049933064728975296 0 255 0
-0.0135002154856920242 0.0144174043089151382 -0.0373873412609100342 0 255 0
-0.0251526199281215668 -0.00183959770947694778 -0.0457278862595558167 0 255 0
-0.0264786984771490097 0.00565027212724089622 -0.0432147718966007233 0 255 0
-0.0224107746034860611 0.00504103535786271095 -0.0282864253968000412 0 255 0
-0.0234082993119955063 0.0133504318073391914 -0.0443718545138835907 0 255 0
-0.0269970688968896866 0.00808208156377077103 -0.0423247218132019043 0 255 0
-0.0131669612601399422 0.0146256685256958008 -0.0345668531954288483 0 255 0
-0.0187925752252340317 0.0156535487622022629 -0.0364488624036312103 0 255 0
-0.0270314179360866547 0.00127297081053256989 -0.0435633063316345215 0 255 0
-0.017629917711019516 0.00641541928052902222 -0.0320642180740833282 0 255 0
-0.0283530950546264648 -0.001219156663864851 -0.0429121218621730804 0 255 0
-0.0244593266397714615 0.00778211699798703194 -0.0445216745138168335 0 255 0
-0.0162152331322431564 0.0111499372869729996 -0.0479214936494827271 0 255 0
-0.0310279913246631622 0.0024124381598085165 -0.0382007993757724762 0 255 0
-0.00977649353444576263 0.0116866873577237129 -0.0377089232206344604 0 255 0
-0.017643781378865242 0.0156523250043392181 -0.0387310609221458435 0 255 0
-0.0273927375674247742 0.0067732478491961956 -0.0422345437109470367 0 255 0
-0.0275109056383371353 0.0141560249030590057 -0.0377615317702293396 0 255 0
-0.0252915732562541962 0.00811708439141511917 -0.0437571480870246887 0 255 0
-0.0187865644693374634 0.00292488560080528259 -0.050212029367685318 0 255 0
-0.0193907339125871658 0.0116935363039374352 -0.0480699464678764343 0 255 0
-0.0117269307374954224 0.00939400773495435715 -0.043171469122171402 0 255 0
-0.0273713860660791397 0.00953063648194074631 -0.0417392514646053314 0 255 0
-0.0152945909649133682 0.0144202550873160362 -0.0410793386399745941 0 255 0
-0.013443545438349247 0.00346031761728227139 -0.0361464023590087891 0 255 0
-0.00897830817848443985 0.0068594031035900116 -0.0407205335795879364 0 255 0
-0.02267429418861866 0.0121291074901819229 -0.0452184975147247314 0 255 0
-0.0249699857085943222 0.00828959792852401733 -0.0439963564276695251 0 255 0
-0.0191081706434488297 0.00557264219969511032 -0.0494477897882461548 0 255 0
-0.010989852249622345 0.00546046998351812363 -0.0432952716946601868 0 255 0
-0.0301529653370380402 0.012882893905043602 -0.0385775268077850342 0 255 0
-0.0183450561016798019 -0.003237562021240592 -0.0419556796550750732 0 255 0
-0.0122495926916599274 0.0134793724864721298 -0.038372676819562912 0 255 0
-0.0231784563511610031 0.0167319700121879578 -0.0425300970673561096 0 255 0
-0.0259488057345151901 0.0014457101933658123 -0.0321309156715869904 0 255 0
-0.0254824161529541016 0.0110700046643614769 -0.0430464260280132294 0 255 0
-0.0190233420580625534 0.00911241769790649414 -0.0303865093737840652 0 255 0
-0.0194444935768842697 0.00380848115310072899 -0.0494924448430538177 0 255 0
-0.0129387155175209045 0.00566201237961649895 -0.0361624695360660553 0 255 0
-0.0234595313668251038 0.00655044429004192352 -0.0455944947898387909 0 255 0
-0.0270027928054332733 0.00217970856465399265 -0.0434186607599258423 0 255 0
-0.0146231967955827713 0.00460058124735951424 -0.0349388532340526581 0 255 0
-0.0147307980805635452 0.00480100791901350021 -0.0348107591271400452 0 255 0
-0.0252557098865509033 0.00642943242564797401 -0.0441015735268592834 0 255 0
-0.0218759886920452118 0.00700277881696820259 -0.0468463338911533356 0 255 0
-0.0306218769401311874 0.00422165123745799065 -0.0399850904941558838 0 255 0
-0.0157875232398509979 0.00543050281703472137 -0.0338020063936710358 0 255 0
-0.0181064791977405548 0.0136767290532588959 -0.0303103961050510406 0 255 0
-0.0251767784357070923 0.00356953148730099201 -0.0447005555033683777 0 255 0
-0.0169853270053863525 0.00605888757854700089 -0.0503892563283443451 0 255 0
-0.0258306767791509628 0.0089029436931014061 -0.0431560054421424866 0 255 0
-0.0173382256180047989 0.00251410971395671368 -0.0330365747213363647 0 255 0
-0.0207992773503065109 0.00507208751514554024 -0.0481141768395900726 0 255 0
-0.0125016961246728897 0.0139155620709061623 -0.0349947325885295868 0 255 0
-0.00887305289506912231 0.00608862238004803658 -0.0407439135015010834 0 255 0
-0.0244179051369428635 0.00115067313890904188 -0.0457911118865013123 0 255 0
-0.0151492739096283913 0.000576843565795570612 -0.0454911142587661743 0 255 0
-0.0170183256268501282 0.0153467720374464989 -0.0350213535130023956 0 255 0
-0.0132629424333572388 0.01221466064453125 -0.0425075963139533997 0 255 0
-0.0232419967651367188 0.0135169373825192451 -0.0444811694324016571 0 255 0
-0.0155355306342244148 0.00580572802573442459 -0.0339447632431983948 0 255 0
-0.025923553854227066 -0.00210903026163578033 -0.0377530939877033234 0 255 0
-0.0161828119307756424 -0.0036852923221886158 -0.0351654663681983948 0 255 0
-0.0193936116993427277 0.00589342741295695305 -0.0306733492761850357 0 255 0
-0.0251547545194625854 0.00558976642787456512 -0.0443430580198764801 0 255 0
-0.0315219126641750336 0.00553510850295424461 -0.0389812178909778595 0 255 0
-0.0286722928285598755 0.00551370112225413322 -0.0413894467055797577 0 255 0
-0.0235725343227386475 0.00186136225238442421 -0.0463720560073852539 0 255 0
-0.0202464070171117783 0.0162313245236873627 -0.041257958859205246 0 255 0
-0.0191939491778612137 0.0110056037083268166 -0.0298901386559009552 0 255 0
-0.022093750536441803 -0.0036446787416934967 -0.0403636060655117035 0 255 0
-0.0178100056946277618 0.0102707128971815109 -0.0496684834361076355 0 255 0
-0.0182214286178350449 0.0157219786196947098 -0.0410969071090221405 0 255 0
-0.012158593162894249 0.012521711178123951 -0.0403892919421195984 0 255 0
-0.0214598383754491806 0.00381627422757446766 -0.0477906316518783569 0 255 0
-0.0211289562284946442 -0.00390926701948046684 -0.0389293543994426727 0 255 0
-0.0260238666087388992 0.0057531413622200489 -0.0435793697834014893 0 255 0
-0.0268419086933135986 0.00658318214118480682 -0.0427346639335155487 0 255 0
-0.0267020575702190399 0.00220276298932731152 -0.0436681024730205536 0 255 0
-0.0292062126100063324 0.00643941899761557579 -0.040766645222902298 0 255 0
-0.0125224776566028595 0.00538344122469425201 -0.0365655086934566498 0 255 0
-0.0241390764713287354 0.00662549817934632301 -0.0450071841478347778 0 255 0
-0.0204757116734981537 -0.0039802994579076767 -0.0387776680290699005 0 255 0
-0.0164446700364351273 0.00309088663198053837 -0.0336831025779247284 0 255 0
-0.0144665660336613655 0.0132453721016645432 -0.0426815710961818695 0 255 0
-0.0250211749225854874 0.00977638550102710724 -0.0309202540665864944 0 255 0
-0.0246894638985395432 -0.00157710385974496603 -0.0341513343155384064 0 255 0
-0.0187623519450426102 0.0158991646021604538 -0.0400420129299163818 0 255 0
-0.024926183745265007 0.00566224241629242897 -0.044522412121295929 0 255 0
-0.0261835753917694092 0.0100609175860881805 -0.0426427014172077179 0 255 0
-0.0137489428743720055 -0.000356108794221654534 -0.0432543866336345673 0 255 0
-0.0204151216894388199 0.0162665564566850662 -0.0422641634941101074 0 255 0
-0.0290641468018293381 0.0116200949996709824 -0.0364108830690383911 0 255 0
-0.013683847151696682 0.00714010326191782951 -0.0352586396038532257 0 255 0
-0.0290193837136030197 0.0138529716059565544 -0.0386755615472793579 0 255 0
-0.0271133016794919968 0.00646194396540522575 -0.0425282567739486694 0 255 0
-0.0232584048062562943 -1.20624108603806235e-05 -0.0296819340437650681 0 255 0
-0.0162929631769657135 0.00294584478251636028 -0.0338381007313728333 0 255 0
-0.0222618933767080307 -0.00344550143927335739 -0.0423146374523639679 0 255 0
-0.0124230338260531425 0.0058693871833384037 -0.0449954941868782043 0 255 0
-0.024462580680847168 0.000919976737350225449 -0.0457963608205318451 0 255 0
-0.0153668047860264778 0.00375217990949749947 -0.0344693996012210846 0 255 0
-0.024756263941526413 0.00663722027093172073 -0.0444842763245105743 0 255 0
-0.0128788268193602562 0.00674481829628348351 -0.036011427640914917 0 255 0
-0.0265067368745803833 0.0109453275799751282 -0.0422054082155227661 0 255 0
-0.0246487762778997421 0.00952898059040307999 -0.0440366454422473907 0 255 0
-0.0295272916555404663 0.0136307878419756889 -0.0387934744358062744 0 255 0
-0.0317645557224750519 0.00732370559126138687 -0.0375258326530456543 0 255 0
-0.0112251657992601395 0.00209921854548156261 -0.0425950028002262115 0 255 0
-0.012202160432934761 0.00823566783219575882 -0.0363048017024993896 0 255 0
-0.02140781469643116 0.0131223034113645554 -0.0309766866266727448 0 255 0
-0.014337560161948204 0.0042893560603260994 -0.0352377854287624359 0 255 0
-0.0127915330231189728 -0.000469386897748336196 -0.0422086603939533234 0 255 0
-0.013129684142768383 -0.000872297619935125113 -0.0372177548706531525 0 255 0
-0.0237161852419376373 0.00617540208622813225 -0.0454477667808532715 0 255 0
-0.0257101636379957199 0.000986593891866505146 -0.0447313673794269562 0 255 0
-0.0268353503197431564 0.0108515582978725433 -0.0335482284426689148 0 255 0
-0.0304972697049379349 0.000838202540762722492 -0.0392043031752109528 0 255 0
-0.014521673321723938 0.00387537479400634766 -0.0470190905034542084 0 255 0
-0.0283172708004713058 -0.00178028980735689402 -0.0430468060076236725 0 255 0
-0.0257883816957473755 0.0163630116730928421 -0.0410111136734485626 0 255 0
-0.01465584896504879 0.00606234744191169739 -0.0346391871571540833 0 255 0
-0.0112133137881755829 0.00189168273936957121 -0.0383200757205486298 0 255 0
-0.017101336270570755 0.0154794417321681976 -0.0395371653139591217 0 255 0
-0.0283162165433168411 0.00344253471121191978 -0.0420754328370094299 0 255 0
-0.0182150807231664658 0.00137921515852212906 -0.0325080342590808868 0 255 0
-0.0107049634680151939 0.0101902242749929428 -0.0412091724574565887 0 255 0
-0.02471143938601017 0.00868093688040971756 -0.0441416464745998383 0 255 0
-0.0162166319787502289 0.00524670490995049477 -0.0334741808474063873 0 255 0
-0.0305339042097330093 0.00225769216194748878 -0.0377227887511253357 0 255 0
-0.0169736519455909729 -0.00260849646292626858 -0.0425547696650028229 0 255 0
-0.0252033248543739319 -0.00048823223914951086 -0.0454335398972034454 0 255 0
-0.0219043977558612823 0.0137136839330196381 -0.0455730855464935303 0 255 0
-0.0280313733965158463 0.00596873415634036064 -0.0418454855680465698 0 255 0
-0.0215797256678342819 0.0115183843299746513 -0.0462556853890419006 0 255 0
-0.0206433143466711044 0.0119925765320658684 -0.0469574667513370514 0 255 0
-0.0173582863062620163 0.0150398258119821548 -0.042974427342414856 0 255 0
-0.0305885095149278641 0.000868813134729862213 -0.039221055805683136 0 255 0
-0.0260273050516843796 0.00342108635231852531 -0.0440105944871902466 0 255 0
-0.0156060494482517242 0.00658187828958034515 -0.0337407812476158142 0 255 0
-0.0238649826496839523 0.00319159612990915775 -0.0458776839077472687 0 255 0
-0.0202812105417251587 0.010520419105887413 -0.0475370287895202637 0 255 0
-0.0199247747659683228 0.00975602678954601288 -0.0479800514876842499 0 255 0
-0.0234215706586837769 0.00413304846733808517 -0.0460765361785888672 0 255 0
-0.0236844383180141449 0.00572240492329001427 -0.045558881014585495 0 255 0
-0.0148803004994988441 -0.000947932363487780094 -0.0357548259198665619 0 255 0
-0.014929099939763546 -0.00313535681925714016 -0.0361208580434322357 0 255 0
-0.0238374713808298111 -0.00298749422654509544 -0.0447642579674720764 0 255 0
-0.0263535771518945694 0.000499957648571580648 -0.0442791059613227844 0 255 0
-0.0173386204987764359 0.00751611636951565742 -0.0321050845086574554 0 255 0
-0.0229232273995876312 0.0167511031031608582 -0.043042697012424469 0 255 0
-0.0193350799381732941 0.013001907616853714 -0.0478733368217945099 0 255 0
-0.0189559329301118851 -0.00361955631524324417 -0.0328135266900062561 0 255 0
-0.0131303966045379639 0.0143937524408102036 -0.0343752726912498474 0 255 0
-0.0224447343498468399 -0.00138997216708958149 -0.0302297566086053848 0 255 0
-0.0174198951572179794 0.00242858566343784332 -0.0329835899174213409 0 255 0
-0.0155573487281799316 0.00614015525206923485 -0.033864099532365799 0 255 0
-0.0174196828156709671 0.0156034613028168678 -0.0378048494458198547 0 255 0
-0.0184394847601652145 0.00397339556366205215 -0.0318357795476913452 0 255 0
-0.0148401306942105293 0.0104899154976010323 -0.0336594842374324799 0 255 0
-0.0194937102496623993 0.00696951569989323616 -0.0488624721765518188 0 255 0
-0.0261172596365213394 0.00608064699918031693 -0.0307708103209733963 0 255 0
-0.0201206952333450317 -0.00367206986993551254 -0.0319059193134307861 0 255 0
-0.0303236804902553558 0.0102765252813696861 -0.0368032939732074738 0 255 0
-0.0257104653865098953 0.0114383082836866379 -0.032881610095500946 0 255 0
-0.0262588132172822952 0.00647206977009773254 -0.0432473085820674896 0 255 0
-0.0264063253998756409 0.00598252937197685242 -0.0432139821350574493 0 255 0
-0.016730261966586113 0.0048724636435508728 -0.0331104956567287445 0 255 0
-0.019941236823797226 0.00297014648094773293 -0.0492293983697891235 0 255 0
-0.0303327310830354691 0.0012842109426856041 -0.0407758727669715881 0 255 0
-0.0263638049364089966 0.00722745759412646294 -0.0312870815396308899 0 255 0
-0.0251254625618457794 0.00732488417997956276 -0.0299102645367383957 0 255 0
-0.0171536002308130264 0.00658087804913520813 -0.0324352867901325226 0 255 0
-0.0297204870730638504 0.00834577437490224838 -0.0399778671562671661 0 255 0
-0.0264894720166921616 0.0100789871066808701 -0.0423812493681907654 0 255 0
-0.0258509013801813126 -0.00191502121742814779 -0.0451527796685695648 0 255 0
-0.0230637043714523315 0.0162946507334709167 -0.0441145077347755432 0 255 0
-0.00887390505522489548 0.00938212592154741287 -0.0393560230731964111 0 255 0
-0.0295570623129606247 0.0104855597019195557 -0.0397174134850502014 0 255 0
-0.0246626026928424835 0.0060320049524307251 -0.0446759648621082306 0 255 0
-0.0112428274005651474 0.0080404914915561676 -0.0371505320072174072 0 255 0
-0.0289696026593446732 0.00303882034495472908 -0.0415993183851242065 0 255 0
-0.0231403466314077377 0.0059682982973754406 -0.0459721609950065613 0 255 0
-0.0157955046743154526 0.00861257314682006836 -0.0487671494483947754 0 255 0
-0.0217080786824226379 0.016551382839679718 -0.042633984237909317 0 255 0
-0.0146351633593440056 0.008483164943754673 -0.0342059880495071411 0 255 0
-0.0166076850146055222 0.0103456834331154823 -0.0321950390934944153 0 255 0
-0.021156705915927887 -0.00189063954167068005 -0.0471035800874233246 0 255 0
-0.027781045064330101 0.00642782077193260193 -0.0419712290167808533 0 255 0
-0.0129215316846966743 0.00830789655447006226 -0.0356844179332256317 0 255 0
-0.0192874409258365631 -0.00341529911383986473 -0.0324958078563213348 0 255 0
-0.0242691114544868469 0.00775986909866333008 -0.0446863025426864624 0 255 0
-0.0216011982411146164 0.0134261967614293098 -0.0316534750163555145 0 255 0
-0.011731298640370369 0.00535274390131235123 -0.0442130714654922485 0 255 0
-0.0233846530318260193 0.00714685209095478058 -0.0455466434359550476 0 255 0
-0.0247966106981039047 0.00712560862302780151 -0.0443593189120292664 0 255 0
-0.0288110058754682541 0.00230854214169085026 -0.0353449806571006775 0 255 0
-0.023482130840420723 -0.00141538376919925213 -0.0319236442446708679 0 255 0
-0.0253489874303340912 0.0131165226921439171 -0.0343725085258483887 0 255 0
-0.0235086213797330856 0.0161534249782562256 -0.0437654182314872742 0 255 0
-0.0219393670558929443 0.00631093746051192284 -0.0469216518104076385 0 255 0
-0.00924725551158189774 0.0107532916590571404 -0.0385935977101325989 0 255 0
-0.0142546892166137695 0.0075066201388835907 -0.0347087867558002472 0 255 0
-0.010607515461742878 0.00561196077615022659 -0.0381386354565620422 0 255 0
-0.0137980803847312927 0.00534139340743422508 -0.0354971028864383698 0 255 0
-0.0190225224941968918 0.00499446410685777664 -0.0496276877820491791 0 255 0
-0.0161210931837558746 0.00456515001133084297 -0.0336816646158695221 0 255 0
-0.0267332512885332108 0.0118809649720788002 -0.0418401211500167847 0 255 0
-0.0217908136546611786 0.0084592476487159729 -0.0466470643877983093 0 255 0
-0.0274338852614164352 0.00740444427356123924 -0.0420823246240615845 0 255 0
-0.0148291075602173805 0.00475889025256037712 -0.0347356535494327545 0 255 0
-0.0267233327031135559 0.00631667161360383034 -0.0428843200206756592 0 255 0
-0.0158808007836341858 0.00593245262280106544 -0.0336298681795597076 0 255 0
-0.0135914552956819534 0.00764154363423585892 -0.0462558791041374207 0 255 0
-0.0282572228461503983 0.00768250878900289536 -0.0413359068334102631 0 255 0
-0.0209790635854005814 0.00617128564044833183 -0.0477578639984130859 0 255 0
-0.0171728823333978653 0.00473169656470417976 -0.032763257622718811 0 255 0
-0.0226503387093544006 0.00640906998887658119 -0.0463035330176353455 0 255 0
-0.0212569199502468109 0.00825155992060899734 -0.0471361763775348663 0 255 0
-0.0283439494669437408 0.00202016695402562618 -0.0423168167471885681 0 255 0
-0.0280827432870864868 0.00749223260208964348 -0.0415185354650020599 0 255 0
-0.0247646663337945938 0.00675673177465796471 -0.0444549396634101868 0 255 0
-0.0246593635529279709 0.000724082638043910265 -0.0456668026745319366 0 255 0
-0.0303309299051761627 0.00587539281696081161 -0.039922710508108139 0 255 0
-0.0163420327007770538 0.0143945319578051567 -0.0316654480993747711 0 255 0
-0.02075914666056633 0.00416537048295140266 -0.0298429261893033981 0 255 0
-0.0156701672822237015 0.00558577850461006165 -0.033872116357088089 0 255 0
-0.0217346604913473129 -0.00267043965868651867 -0.045382227748632431 0 255 0
-0.0141905667260289192 0.0053824777714908123 -0.0351583100855350494 0 255 0
-0.0238196589052677155 -5.86728529015090317e-05 -0.0465209819376468658 0 255 0
-0.021440356969833374 0.0133730731904506683 -0.0314244553446769714 0 255 0
-0.0301761794835329056 0.00827194470912218094 -0.0396071411669254303 0 255 0
-0.032001107931137085 0.00618552649393677711 -0.0378416292369365692 0 255 0
-0.01618146151304245 0.00533578451722860336 -0.0334872715175151825 0 255 0
-0.0227848775684833527 0.016346445307135582 -0.0443401113152503967 0 255 0
-0.0148082040250301361 0.00169084372464567423 -0.0460829213261604309 0 255 0
-0.0229933690279722214 0.0124397780746221542 -0.0314257107675075531 0 255 0
-0.0240721236914396286 -0.00157585891429334879 -0.033231586217880249 0 255 0
-0.0162903182208538055 0.00421279575675725937 -0.0336044803261756897 0 255 0
-0.0159827284514904022 0.00291869603097438812 -0.0481393560767173767 0 255 0
-0.0168053712695837021 0.00197476008906960487 -0.0483249053359031677 0 255 0
-0.0234955437481403351 -0.00301772193051874638 -0.0364875607192516327 0 255 0
-0.0314953885972499847 0.00815559085458517075 -0.0372864417731761932 0 255 0
-0.0164154600352048874 -0.00343315652571618557 -0.0403272286057472229 0 255 0
-0.0176237337291240692 0.0104694608598947525 -0.0313147492706775665 0 255 0
-0.0213511548936367035 1.74769556906539947e-05 -0.0301156025379896164 0 255 0
-0.0142650147899985313 0.00697379047051072121 -0.0347992666065692902 0 255 0
-0.0287205148488283157 0.0103645874187350273 -0.0404457338154315948 0 255 0
-0.0122817549854516983 0.0065369708463549614 -0.0448394007980823517 0 255 0
-0.0176116768270730972 -0.000308140675770118833 -0.0468484945595264435 0 255 0
-0.0237970799207687378 -0.000367845932487398386 -0.0465975850820541382 0 255 0
-0.0247881356626749039 0.00176290888339281082 -0.0302989780902862549 0 255 0
-0.0258700121194124222 -0.00271589937619864941 -0.040645945817232132 0 255 0
-0.0143641214817762375 0.0149578563868999481 -0.0345257669687271118 0 255 0
-0.0229111965745687485 -0.00326202460564672947 -0.0430885180830955505 0 255 0
-0.0191937908530235291 0.00849887728691101074 -0.030356917530298233 0 255 0
-0.0277505367994308472 0.014706779271364212 -0.0404557846486568451 0 255 0
-0.0239625200629234314 0.00971639435738325119 -0.029763808473944664 0 255 0
-0.0292167123407125473 0.00619246345013380051 -0.040803760290145874 0 255 0
-0.0231274589896202087 0.00850400049239397049 -0.0455109961330890656 0 255 0
-0.0207101181149482727 0.0160312075167894363 -0.0458398014307022095 0 255 0
-0.0218695774674415588 -0.00274753803387284279 -0.0452576912939548492 0 255 0
-0.0168796330690383911 0.000965012935921549797 -0.0475936271250247955 0 255 0
-0.023618726059794426 -0.00286039547063410282 -0.0359182283282279968 0 255 0
-0.0145353293046355247 0.00539347901940345764 -0.0348653830587863922 0 255 0
-0.0135665852576494217 -0.00292290514335036278 -0.0393803082406520844 0 255 0
-0.0235398337244987488 0.00782248657196760178 -0.0452899448573589325 0 255 0
-0.011660626158118248 0.00173200212884694338 -0.0428817383944988251 0 255 0
-0.0160718671977519989 0.0101653384044766426 -0.048475213348865509 0 255 0
-0.0230631474405527115 0.00732495682314038277 -0.0457847453653812408 0 255 0
-0.0171460229903459549 0.0129986824467778206 -0.0312469638884067535 0 255 0
-0.0199027340859174728 0.0156285837292671204 -0.0459230653941631317 0 255 0
-0.017336040735244751 0.00314386771060526371 -0.032921183854341507 0 255 0
-0.0300155486911535263 0.0103211309760808945 -0.0393611975014209747 0 255 0
-0.0182591341435909271 0.0137741826474666595 -0.0477574318647384644 0 255 0
-0.0162814781069755554 0.00885300152003765106 -0.0327481329441070557 0 255 0
-0.0219094976782798767 -0.00343574653379619122 -0.0423123389482498169 0 255 0
-0.0236302372068166733 0.014458770863711834 -0.0439782813191413879 0 255 0
-0.0131659358739852905 0.00745184952393174171 -0.0356375724077224731 0 255 0
-0.0102505171671509743 0.00217048265039920807 -0.039080493152141571 0 255 0
-0.0244974996894598007 0.00790576823055744171 -0.0444664470851421356 0 255 0
-0.0183103643357753754 -0.00363028701394796371 -0.0406560935080051422 0 255 0
-0.0230537820607423782 0.00918795820325613022 -0.0454458370804786682 0 255 0
-0.0195532049983739853 0.0123929260298609734 -0.0478026717901229858 0 255 0
-0.0171220730990171432 0.00377069436945021152 -0.0329850204288959503 0 255 0
-0.0237061362713575363 0.0156027628108859062 -0.0377720221877098083 0 255 0
