ply
format ascii 1.0
element vertex 740
property float x
property float y
property float z
end_header
0.950491368770599365 0.0455720648169517517 0.322584450244903564
-0.0746390968561172485 -0.924208700656890869 -0.228508129715919495
-0.820887207984924316 -0.176525548100471497 0.0555278658866882324
0.645215809345245361 0.302565127611160278 0.651551783084869385
0.130584463477134705 -0.867857813835144043 -0.148246318101882935
0.595358967781066895 0.319654166698455811 0.732207179069519043
0.115231700241565704 0.882535994052886963 -0.0147216487675905228
0.712534904479980469 0.281690925359725952 -0.272534608840942383
0.188478618860244751 0.659273803234100342 0.828811883926391602
-0.548035264015197754 0.310222715139389038 -0.819030225276947021
0.460090607404708862 -0.537182807922363281 0.0831061229109764099
0.824226498603820801 0.174377769231796265 -0.0658770725131034851
0.00367416488006711006 -0.989107608795166016 -0.0796490758657455444
-0.339228242635726929 -0.635386884212493896 -0.538294613361358643
-0.435616821050643921 0.536155998706817627 -0.556679964065551758
0.172781988978385925 -0.825610876083374023 -0.26250806450843811
0.0423762053251266479 -0.292133033275604248 -0.993178069591522217
0.0457188263535499573 0.942922294139862061 -0.420521944761276245
-0.641467869281768799 -0.0723457187414169312 -0.923566043376922607
-0.316039413213729858 0.485657989978790283 -0.870068252086639404
0.546774804592132568 -0.447277069091796875 -0.28074309229850769
0.285013079643249512 0.54915153980255127 0.841759741306304932
-0.0324608981609344482 -0.223989054560661316 -0.995096564292907715
0.926105976104736328 0.0681202337145805359 -0.330023318529129028
0.54033350944519043 0.456403136253356934 -0.289345026016235352
-0.276363134384155273 -0.714629709720611572 0.403565138578414917
0.757934331893920898 -0.23589150607585907 -0.336510896682739258
0.000214311032323166728 0.445965558290481567 -0.987350165843963623
0.473564952611923218 -0.522980809211730957 0.227125063538551331
-0.261685699224472046 0.730387389659881592 -0.37414124608039856
0.226004630327224731 0.520724475383758545 -0.907527565956115723
0.574332058429718018 -0.425429582595825195 -0.0112491846084594727
-0.108898788690567017 0.889046132564544678 -0.269765853881835938
-0.099065735936164856 0.179086104035377502 0.997686862945556641
0.561182379722595215 -0.305919557809829712 -0.806598067283630371
-0.93836134672164917 0.0362884625792503357 -0.543681085109710693
-0.236955553293228149 -0.65484464168548584 -0.771878898143768311
-0.380524516105651855 0.269403576850891113 -0.950477302074432373
0.584626257419586182 0.230439141392707825 0.859959423542022705
0.681244611740112305 -0.311349391937255859 -0.349552720785140991
0.755489945411682129 -0.0863758549094200134 0.834421277046203613
0.625247061252593994 -0.366921395063400269 -0.369638919830322266
-0.904044687747955322 -0.0156958270817995071 0.724077999591827393
-0.357999801635742188 -0.639698147773742676 -0.108653545379638672
0.553790032863616943 -0.305382966995239258 -0.817743957042694092
0.6722450852394104 0.281014531850814819 0.63284146785736084
-0.135486185550689697 -0.789497196674346924 0.715062320232391357
0.321263670921325684 -0.383706152439117432 -0.92973637580871582
-0.826243579387664795 -0.172608911991119385 -0.255060642957687378
0.378470897674560547 -0.61949622631072998 -0.0542013794183731079
-0.457768380641937256 -0.508845210075378418 -0.579990863800048828
-0.872011303901672363 -0.0469780229032039642 0.725369691848754883
-0.441349178552627563 0.556387722492218018 -0.00863118097186088562
-0.269158601760864258 -0.721882641315460205 -0.42284238338470459
-0.447262972593307495 0.551521480083465576 -0.0573706217110157013
0.280995100736618042 0.0444119721651077271 -0.994360804557800293
0.76322561502456665 0.235100716352462769 -0.125296100974082947
-0.0408583842217922211 -0.799438953399658203 -0.836861252784729004
-0.267761558294296265 0.215400755405426025 -0.982533454895019531
-0.285940676927566528 0.233837336301803589 -0.977703094482421875
0.90062326192855835 -0.0957130640745162964 0.268577277660369873
-0.0905847623944282532 0.880665183067321777 0.571402490139007568
0.245839312672615051 0.743313074111938477 -0.412238270044326782
0.351961612701416016 0.645482063293457031 0.0494077391922473907
0.113506950438022614 0.6778373122215271 -0.878194153308868408
-0.026722567155957222 0.296740591526031494 0.996558070182800293
-0.350162357091903687 0.64782404899597168 -0.0580083690583705902
-0.234505921602249146 -0.762346506118774414 -0.287469178438186646
0.00139194831717759371 0.2284870445728302 -0.995376348495483398
0.14317639172077179 0.802760899066925049 0.657848060131072998
0.73497694730758667 -0.0467460080981254578 -0.885745704174041748
0.962419271469116211 0.0302431993186473846 -0.346320509910583496
0.367620557546615601 0.0665372386574745178 0.987361729145050049
-0.461005181074142456 0.53522568941116333 -0.297540634870529175
0.955535411834716797 -0.04299897700548172 -0.166477367281913757
0.645163893699645996 0.340793579816818237 0.450861573219299316
0.534529685974121094 0.352351337671279907 -0.778793931007385254
-0.551061749458312988 0.42892765998840332 -0.519555151462554932
0.854184508323669434 0.136614084243774414 0.405389606952667236
-0.0726496800780296326 0.885825812816619873 -0.624020218849182129
0.0179166421294212341 -0.603652894496917725 -0.957473933696746826
0.441597074270248413 -0.521431207656860352 0.599480390548706055
-0.582628428936004639 -0.415017932653427124 -0.274603724479675293
0.00545958150178194046 -0.00829913187772035599 -0.997979640960693359
0.057749677449464798 -0.0446697212755680084 -0.996740043163299561
-0.580286026000976562 0.404099583625793457 0.465625494718551636
-0.182709082961082458 0.7475166916847229 -0.699290990829467773
0.728539228439331055 -0.23292483389377594 -0.603257834911346436
-0.433281272649765015 -0.119244202971458435 0.974226653575897217
0.389022767543792725 0.0115817924961447716 -0.990387201309204102
0.543114423751831055 -0.448662132024765015 -0.36971697211265564
0.408116579055786133 -0.231927469372749329 -0.951329588890075684
-0.620643734931945801 0.220850914716720581 0.834774971008300781
-0.0115442071110010147 0.372975736856460571 -0.991066396236419678
0.932001113891601562 -0.066068209707736969 -0.0911267697811126709
-0.151825636625289917 -0.691797614097595215 0.832746565341949463
-0.755992770195007324 0.233942970633506775 -0.399545192718505859
-0.117123425006866455 0.552511811256408691 -0.941488087177276611
0.624646663665771484 0.349832713603973389 -0.544450998306274414
-0.358194023370742798 0.635481119155883789 -0.298526853322982788
-0.121605090796947479 0.835452258586883545 0.619871854782104492
0.0965453609824180603 -0.10616716742515564 -0.995669901371002197
0.397251099348068237 0.601594448089599609 -0.22805456817150116
0.472627580165863037 -0.50702822208404541 -0.50669097900390625
0.299522042274475098 -0.330784231424331665 -0.954568207263946533
0.0342735946178436279 -0.337840616703033447 -0.993862390518188477
-0.220556750893592834 0.755547642707824707 0.543409824371337891
-0.776135623455047607 0.214774727821350098 0.404339879751205444
-0.591252624988555908 -0.331268727779388428 0.719295978546142578
0.283883720636367798 0.712254703044891357 0.307745963335037231
-0.374734282493591309 0.623806774616241455 -0.167789846658706665
-0.71503680944442749 -0.278405636548995972 -0.309507250785827637
-0.11594584584236145 -0.71174246072769165 0.847931027412414551
0.173980385065078735 -0.166244670748710632 -0.99293673038482666
0.812536299228668213 0.145103409886360168 -0.620537519454956055
0.96447598934173584 0.00472506601363420486 -0.572239279747009277
-0.447997540235519409 0.53254467248916626 -0.517057359218597412
0.131316393613815308 0.632377982139587402 0.897793471813201904
-0.382383078336715698 -0.559651494026184082 -0.673908889293670654
-0.312619835138320923 0.685231029987335205 -0.031182367354631424
-0.376617759466171265 0.622702240943908691 -0.0320947766304016113
0.121641315519809723 0.851105093955993652 -0.550010621547698975
-0.167089611291885376 0.810927212238311768 -0.516966700553894043
-0.211738616228103638 -0.769470274448394775 0.49546399712562561
0.615706980228424072 0.38340681791305542 -0.0418275855481624603
0.245802342891693115 -0.72027885913848877 -0.59179997444152832
0.750444471836090088 -0.245192766189575195 -0.205917418003082275
0.457821816205978394 0.533824563026428223 -0.394279241561889648
-0.430365532636642456 -0.565933644771575928 0.275924056768417358
0.0476582497358322144 -0.859489381313323975 -0.748028755187988281
-0.122400537133216858 0.502359747886657715 0.955749750137329102
-0.248270764946937561 -0.171242475509643555 0.988578379154205322
-0.684948623180389404 -0.188612461090087891 -0.79751819372177124
0.0322191491723060608 -0.230005830526351929 -0.995034933090209961
0.224621668457984924 -0.6203499436378479 -0.831457972526550293
0.757518172264099121 -0.207386896014213562 -0.58771061897277832
-0.454160094261169434 0.54406970739364624 -0.106186822056770325
-0.438981354236602783 -0.141281813383102417 -0.969723939895629883
0.612736105918884277 -0.313127338886260986 0.713548839092254639
0.19747510552406311 -0.799618661403656006 0.11865699291229248
0.878443419933319092 -0.025264151394367218 -0.755337357521057129
-0.504244506359100342 0.487789630889892578 -0.375979125499725342
0.824710965156555176 0.174093320965766907 -0.056436978280544281
-0.0507718659937381744 0.626364052295684814 -0.939016222953796387
0.0539747849106788635 -0.159302204847335815 -0.998296976089477539
0.494315236806869507 -0.499012649059295654 -0.314914703369140625
-0.0741119906306266785 -0.854166209697723389 -0.703135251998901367
0.833224177360534668 -0.161917775869369507 -0.229294419288635254
-0.938587486743927002 0.0593400709331035614 -0.0463725142180919647
-0.0973900705575942993 0.782313764095306396 -0.788883090019226074
0.235513195395469666 -0.66879957914352417 -0.754051625728607178
0.372496545314788818 0.43596765398979187 -0.864757180213928223
0.823167920112609863 -0.155446514487266541 -0.513219773769378662
0.759057521820068359 -0.238870531320571899 -0.0977935418486595154
0.816313862800598145 0.171080157160758972 -0.458174318075180054
-0.448134571313858032 0.549759805202484131 -0.0397966131567955017
-0.124209657311439514 -0.476997166872024536 -0.962877154350280762
0.0886839926242828369 0.2987385094165802 -0.990943849086761475
0.409480512142181396 -0.588976204395294189 -0.151096269488334656
0.580743670463562012 -0.407485216856002808 -0.427202165126800537
-0.759730219841003418 0.23749600350856781 0.0924384593963623047
-0.21734677255153656 0.552959084510803223 -0.894706666469573975
0.294433623552322388 0.657338201999664307 0.637922525405883789
0.138909950852394104 0.847373723983764648 0.447797477245330811
-0.364090144634246826 -0.620676636695861816 -0.483301073312759399
-0.14006197452545166 -0.813186287879943848 -0.637947976589202881
-0.348585754632949829 -0.649601399898529053 -0.0977400615811347961
-0.0628087371587753296 0.922927677631378174 0.452937602996826172
0.141597852110862732 -0.230827599763870239 -0.99385911226272583
-0.250031650066375732 0.741870880126953125 -0.367674857378005981
-0.253579914569854736 0.111471273005008698 0.993102967739105225
0.0401188656687736511 -0.955878973007202148 0.335572093725204468
-0.377615123987197876 -0.237162202596664429 -0.960308730602264404
-0.23242776095867157 0.0640460103750228882 -0.994669497013092041
-0.177980154752731323 -0.221838176250457764 -0.990420401096343994
0.364024937152862549 0.579939067363739014 -0.669809639453887939
0.499639719724655151 -0.39108315110206604 -0.778571188449859619
-0.765423834323883057 0.234097659587860107 -0.0225850138813257217
-0.0665437951683998108 0.581242382526397705 0.949859976768493652
-0.661267757415771484 -0.32823103666305542 -0.406625360250473022
-0.3748931884765625 -0.553021609783172607 0.710021376609802246
0.900321006774902344 -0.0312460698187351227 0.703740894794464111
-0.95098721981048584 0.0458282530307769775 0.173738390207290649
0.617331087589263916 -0.382583349943161011 -0.00403912784531712532
-0.116060085594654083 -0.388526260852813721 -0.979707181453704834
0.981332540512084961 -0.0175741482526063919 -0.254182279109954834
-0.348067998886108398 -0.248607009649276733 -0.965753436088562012
-0.403819799423217773 -0.592290222644805908 0.313367605209350586
-0.757366597652435303 -0.238928332924842834 0.276771485805511475
-0.195439115166664124 0.630892932415008545 0.849223434925079346
-0.190100595355033875 0.617201387882232666 -0.8685302734375
0.0525407120585441589 -0.613437056541442871 -0.943716466426849365
-0.369324862957000732 -0.615501224994659424 -0.48233950138092041
0.270877599716186523 -0.728402137756347656 -0.0339946374297142029
-0.677815794944763184 0.314762651920318604 -0.350286692380905151
-0.364695221185684204 -0.462620317935943604 0.848286211490631104
0.0348633714020252228 0.891410291194915771 0.712843477725982666
0.305656403303146362 0.674547314643859863 0.504905760288238525
0.622498154640197754 -0.355338841676712036 0.527135848999023438
-0.469489216804504395 -0.331549108028411865 -0.872562885284423828
-0.756010174751281738 -0.242771103978157043 -0.215336769819259644
0.168121293187141418 -0.0813038870692253113 -0.996770679950714111
-0.793596744537353516 0.131408706307411194 -0.710088491439819336
0.197415933012962341 0.181687206029891968 -0.991295099258422852
-0.706692039966583252 -0.235969275236129761 -0.666156649589538574
-0.18108898401260376 0.812843978404998779 -0.28635561466217041
0.0671680942177772522 -0.277179330587387085 0.994823038578033447
0.360772162675857544 -0.476944446563720703 -0.841797709465026855
-0.229902356863021851 0.71896064281463623 -0.649632453918457031
0.392710715532302856 -0.595301330089569092 -0.430716097354888916
-0.814060688018798828 -0.0124103948473930359 -0.850624024868011475
-0.806760609149932861 0.182274386286735535 0.42195439338684082
-0.832799434661865234 -0.146844729781150818 0.510161340236663818
0.579056322574615479 -0.35974845290184021 0.682206451892852783
-0.13146345317363739 0.261749505996704102 -0.990699350833892822
0.0301779750734567642 0.777998268604278564 -0.864983141422271729
-0.250037878751754761 -0.742371916770935059 -0.358246862888336182
0.267526477575302124 -0.675544798374176025 -0.671706259250640869
0.0366855375468730927 0.60971987247467041 -0.951961219310760498
0.134524121880531311 -0.581766724586486816 -0.92597121000289917
-0.294939279556274414 0.700902163982391357 0.358022928237915039
0.0422712415456771851 0.95254361629486084 -0.320484548807144165
-0.468253046274185181 0.257100433111190796 -0.921289384365081787
-0.902718722820281982 0.0946904569864273071 0.0562318339943885803
-0.417693674564361572 0.377525210380554199 -0.875153064727783203
-0.381828576326370239 -0.437355548143386841 -0.856343388557434082
-0.547923564910888672 -0.292731970548629761 0.835574507713317871
-0.948109090328216553 -0.0448198020458221436 -0.333747178316116333
-0.156679108738899231 -0.818725526332855225 -0.533344447612762451
-0.320565074682235718 -0.678024649620056152 -0.177420571446418762
0.51746135950088501 0.429070383310317993 0.655817925930023193
-0.595278263092041016 0.400791287422180176 0.321375787258148193
0.746428191661834717 0.250738382339477539 0.104252144694328308
-0.772288203239440918 0.149380803108215332 -0.722090303897857666
-0.161596536636352539 -0.835248827934265137 0.167827501893043518
0.238768145442008972 0.711332559585571289 -0.646334528923034668
0.203741535544395447 0.254097461700439453 -0.987970530986785889
0.189485788345336914 -0.745290517807006836 0.69596409797668457
-0.976995110511779785 0.0208762772381305695 -0.0352457240223884583
-0.309227943420410156 -0.688180148601531982 0.056452680379152298
0.396050035953521729 -0.358501315116882324 -0.90640556812286377
-0.213107720017433167 -0.74277341365814209 0.623888790607452393
0.14063069224357605 0.746686041355133057 -0.77818143367767334
-0.0676275640726089478 -0.257449090480804443 -0.993576347827911377
0.126807183027267456 0.2948780357837677 -0.990643501281738281
0.64814835786819458 0.173651278018951416 -0.858243942260742188
-0.797565221786499023 -0.165708348155021667 -0.59508204460144043
-0.165044501423835754 -0.825838208198547363 -0.430323958396911621
-0.304715424776077271 0.69413989782333374 -0.229999229311943054
0.389417290687561035 0.609389543533325195 -0.220395177602767944
-0.00996512360870838165 -0.635396242141723633 -0.949561178684234619
0.256533712148666382 -0.236199319362640381 0.982495367527008057
0.222313001751899719 0.635896146297454834 0.818847715854644775
-0.70516735315322876 -0.292441904544830322 -0.112839162349700928
0.800261735916137695 0.196227192878723145 0.238374695181846619
0.0672180280089378357 -0.913545131683349609 -0.516059041023254395
0.142940163612365723 -0.747952878475189209 0.773684382438659668
-0.144913285970687866 -0.851745247840881348 0.204804539680480957
-0.477341204881668091 -0.0313160382211208344 0.981172382831573486
0.20356200635433197 0.439265847206115723 0.951128244400024414
0.449555128812789917 0.531977415084838867 -0.494924277067184448
-0.746401965618133545 0.173072218894958496 -0.727938413619995117
-0.834793984889984131 -0.158782869577407837 -0.303163021802902222
-0.852837264537811279 -0.143216803669929504 0.324445724487304688
0.756526410579681396 -0.223092406988143921 -0.50692296028137207
-0.99132537841796875 0.00154059426859021187 -0.219520255923271179
0.825654268264770508 -0.172120213508605957 -0.0160641279071569443
-0.236118406057357788 -0.75536501407623291 -0.401971250772476196
-0.608407914638519287 0.316482454538345337 -0.71350705623626709
0.00427217129617929459 0.111957818269729614 -0.996592700481414795
-0.101403847336769104 0.894621491432189941 0.330122530460357666
0.102139405906200409 0.205258756875991821 0.997686862945556641
0.0264198500663042068 0.882958412170410156 -0.747168838977813721
0.231532752513885498 -0.70311892032623291 -0.6895943284034729
0.0312112178653478622 -0.8942413330078125 -0.712009072303771973
0.278104513883590698 -0.500452101230621338 -0.888230860233306885
-0.529250681400299072 -0.467707425355911255 0.145512431859970093
-0.71144181489944458 0.283509701490402222 0.366381794214248657
-0.373606115579605103 0.558476746082305908 -0.694342732429504395
-0.108636491000652313 -0.610449790954589844 0.92116701602935791
0.226502597332000732 -0.0678054466843605042 -0.994875550270080566
-0.439856559038162231 -0.557284951210021973 0.109213188290596008
0.104476869106292725 0.252032846212387085 -0.994028925895690918
-0.182627469301223755 -0.721784830093383789 0.750436544418334961
-0.460558086633682251 0.50629734992980957 0.586410284042358398
-0.121433518826961517 0.82109755277633667 0.669480681419372559
0.0366250090301036835 0.0717488303780555725 -0.996676504611968994
0.0983845144510269165 -0.811632454395294189 -0.74193263053894043
-0.0476869083940982819 -0.0152415689080953598 -0.997161388397216797
-0.222190067172050476 -0.714746832847595215 0.688585460186004639
-0.307566225528717041 0.676505565643310547 -0.479003727436065674
0.440061837434768677 0.541252434253692627 -0.513568997383117676
-0.122030079364776611 -0.54586869478225708 0.944715380668640137
0.818727552890777588 -0.178559169173240662 -0.128063693642616272
0.0692327618598937988 0.92961430549621582 -0.228362217545509338
0.686848104000091553 -0.310037612915039062 0.159839555621147156
0.333278089761734009 0.658689558506011963 -0.366620570421218872
0.184017881751060486 0.513929843902587891 -0.932071805000305176
0.197589889168739319 0.80004197359085083 0.0121613340452313423
0.553839743137359619 0.444375276565551758 -0.103258818387985229
-0.457692205905914307 0.540800750255584717 -0.15827372670173645
0.124624326825141907 -0.817475259304046631 0.670954406261444092
0.555810928344726562 -0.441536754369735718 0.0684084594249725342
0.844889819622039795 0.152383431792259216 -0.128699645400047302
0.0835446789860725403 -0.913745880126953125 -0.280369162559509277
-0.791670024394989014 -0.145712941884994507 0.68706214427947998
0.260106205940246582 0.73788762092590332 -0.0594910718500614166
0.28624454140663147 0.499383330345153809 -0.882484257221221924
0.374324321746826172 -0.624838829040527344 -0.0394978970289230347
-0.284413069486618042 -0.309777796268463135 0.963569104671478271
-0.456093519926071167 -0.541958212852478027 -0.0709496438503265381
-0.0546326860785484314 -0.129613578319549561 -0.999522805213928223
-0.130662247538566589 -0.866441965103149414 0.116590291261672974
-0.370177090167999268 0.552913248538970947 -0.718303084373474121
0.294738113880157471 0.695558249950408936 -0.393700838088989258
-0.270736664533615112 -0.482700496912002563 -0.90320885181427002
0.675178766250610352 -0.321494549512863159 -0.157015711069107056
-0.074944913387298584 -0.0655110776424407959 0.997686862945556641
-0.694395780563354492 -0.286058098077774048 -0.517456471920013428
0.704948663711547852 -0.239736884832382202 -0.668276607990264893
0.097141653299331665 0.832348883152008057 -0.701249897480010986
0.118756562471389771 0.0129381027072668076 -0.996427655220031738
0.149204805493354797 0.630349814891815186 0.889483034610748291
-0.87267535924911499 -0.121563762426376343 0.373073399066925049
-0.186092540621757507 -0.795440077781677246 0.492423087358474731
-0.771906256675720215 0.219737708568572998 0.397448956966400146
0.798112630844116211 -0.180357933044433594 0.521184444427490234
-0.532658755779266357 0.463258326053619385 -0.192709267139434814
-0.487363427877426147 0.4565410315990448 0.664790451526641846
0.0366014912724494934 -0.941256344318389893 -0.52918630838394165
0.180836290121078491 -0.036451246589422226 -0.998127639293670654
-0.469303995370864868 0.527352094650268555 0.205287203192710876
0.140374630689620972 0.856940627098083496 -0.279968708753585815
0.249819830060005188 0.676503360271453857 -0.707288801670074463
-0.790268301963806152 -0.189917787909507751 -0.518666505813598633
-0.646631777286529541 0.348634898662567139 0.363421499729156494
0.545645654201507568 0.436290711164474487 -0.510758280754089355
0.0998474955558776855 0.854013264179229736 -0.636316001415252686
0.435058176517486572 0.563252389430999756 -0.122174672782421112
0.73854905366897583 -0.252693206071853638 -0.413355141878128052
0.840422511100769043 0.15311846137046814 -0.341126054525375366
-0.0231515541672706604 0.564654946327209473 0.965202152729034424
0.603920042514801025 -0.1059403195977211 -0.928109884262084961
-0.252566397190093994 0.695445358753204346 -0.661209821701049805
0.76031804084777832 0.235418021678924561 -0.201253041625022888
0.243134185671806335 -0.741991877555847168 -0.477479517459869385
-0.526953995227813721 0.470109641551971436 0.124619469046592712
0.3222694993019104 0.179425254464149475 -0.980088651180267334
-0.0836566910147666931 -0.894764125347137451 -0.526642441749572754
-0.670373022556304932 0.327803432941436768 -0.0860689952969551086
-0.371458679437637329 0.627192676067352295 -0.189628168940544128
-0.327396303415298462 -0.653542041778564453 -0.515267550945281982
-0.815053999423980713 -0.139851838350296021 -0.632889986038208008
-0.591684222221374512 -0.393270790576934814 -0.480251282453536987
0.70399850606918335 -0.282895684242248535 -0.44882887601852417
0.0895938575267791748 -0.9080008864402771 0.0195001158863306046
-0.978768706321716309 0.0200656633824110031 -0.225851133465766907
-0.166822746396064758 0.334351867437362671 -0.981809854507446289
0.846457242965698242 -0.108097411692142487 -0.634467124938964844
0.499625295400619507 -0.14430353045463562 -0.950037598609924316
-0.607770383358001709 -0.356834977865219116 -0.601052701473236084
0.0999329984188079834 0.889311790466308594 -0.410740405321121216
0.647626519203186035 -0.127359092235565186 0.891877114772796631
-0.113982483744621277 0.879404544830322266 -0.312125027179718018
0.151089295744895935 0.847285032272338867 -0.0767304077744483948
-0.142746403813362122 0.0683393031358718872 -0.995580554008483887
-0.142699599266052246 0.833661437034606934 0.540998876094818115
0.313232719898223877 -0.684861242771148682 -0.0792946591973304749
0.145034700632095337 0.418931841850280762 -0.969925463199615479
0.769620358943939209 -0.124743953347206116 0.767715096473693848
0.147173792123794556 0.445710659027099609 -0.96445232629776001
0.370845705270767212 -0.586594581604003906 -0.621438443660736084
0.16718389093875885 -0.181609600782394409 -0.992574930191040039
-0.838404953479766846 0.00479176454246044159 0.833153009414672852
0.106835432350635529 0.891696691513061523 -0.0692816600203514099
-0.895353257656097412 -0.000931184622459113598 -0.765575230121612549
-0.0292121712118387222 0.969215154647827148 -0.0742288306355476379
-0.481832683086395264 -0.123497463762760162 0.960719764232635498
0.587566554546356201 0.348621398210525513 0.691143214702606201
0.434320896863937378 0.52833026647567749 0.600768208503723145
0.204749688506126404 0.554619073867797852 0.900059998035430908
0.45391884446144104 0.541001379489898682 -0.239759549498558044
-0.714100420475006104 -0.21561489999294281 -0.700650930404663086
0.211098715662956238 -0.781576275825500488 -0.345730066299438477
-0.46457257866859436 -0.389523208141326904 -0.824881196022033691
0.171109601855278015 -0.542446017265319824 0.924064934253692627
0.00255869259126484394 -0.960760056972503662 -0.609119653701782227
-0.247923985123634338 0.750040769577026367 -0.0537353642284870148
0.543415188789367676 0.452528983354568481 0.346188515424728394
0.0435826294124126434 -0.0407552793622016907 0.997686862945556641
0.116428717970848083 0.0717462599277496338 0.997686862945556641
0.282167136669158936 0.709109306335449219 -0.411741405725479126
0.136372089385986328 -0.46860039234161377 -0.962164461612701416
-0.0249873660504817963 0.517034828662872314 0.976913273334503174
0.148470714688301086 0.817732453346252441 -0.581845462322235107
-0.594530105590820312 -0.0892196819186210632 -0.936793804168701172
-0.0185918714851140976 0.967478692531585693 -0.453960895538330078
0.00977341644465923309 0.0911115929484367371 -0.998909294605255127
0.0364657677710056305 0.907457113265991211 0.664727509021759033
-0.918818116188049316 -0.0545189827680587769 -0.549612164497375488
0.975523948669433594 -0.0183915197849273682 -0.28718075156211853
-0.417003244161605835 -0.574651837348937988 -0.371684908866882324
-0.13446846604347229 -0.862803041934967041 -0.128782168030738831
-0.477189362049102783 -0.510530948638916016 0.434303551912307739
0.619577944278717041 -0.373365968465805054 0.385238558053970337
-0.277438759803771973 -0.713791370391845703 -0.413927346467971802
0.0936387628316879272 0.826680302619934082 -0.725687205791473389
-0.353280574083328247 0.639958977699279785 -0.346011132001876831
-0.129861027002334595 -0.869277417659759521 -0.0406638160347938538
-0.385268360376358032 -0.611976504325866699 0.0887476876378059387
0.198351934552192688 -0.724152743816375732 -0.719863653182983398
0.225098416209220886 -0.720105648040771484 -0.659381508827209473
-0.00747336307540535927 -0.981039106845855713 0.413942217826843262
-0.640359997749328613 -0.356707900762557983 -0.283976852893829346
-0.685541272163391113 0.25576135516166687 0.673676133155822754
-0.144389599561691284 -0.760910928249359131 -0.751953005790710449
0.917607128620147705 0.04351816326379776 -0.604788601398468018
0.597081482410430908 -0.40047726035118103 0.0266327764838933945
0.954058706760406494 0.0407937318086624146 -0.242958366870880127
0.391750723123550415 -0.604353547096252441 0.314505100250244141
-0.521701812744140625 -0.477259039878845215 -0.253304481506347656
0.349152684211730957 0.446558386087417603 0.878402173519134521
-0.601611137390136719 0.386294543743133545 -0.432438910007476807
-0.146643713116645813 0.713768243789672852 -0.816002309322357178
-0.0231147892773151398 0.0892641842365264893 -0.999031901359558105
0.276725023984909058 -0.354027986526489258 -0.95441967248916626
0.137986660003662109 -0.732587218284606934 -0.801862716674804688
0.162618339061737061 0.803556203842163086 -0.591214656829833984
-0.391973763704299927 0.565349698066711426 0.618962883949279785
-0.323327004909515381 0.470520377159118652 -0.876229524612426758
0.253390610218048096 -0.591159462928771973 -0.831945180892944336
0.148130133748054504 0.850635886192321777 -0.212323933839797974
-0.148706242442131042 0.220528051257133484 -0.991711795330047607
-0.192893221974372864 -0.326057076454162598 -0.977812290191650391
0.566259562969207764 0.393737763166427612 -0.609884977340698242
0.798764348030090332 0.197224587202072144 0.337333738803863525
-0.0360146202147006989 -0.961210727691650391 0.0926211923360824585
0.756936132907867432 -0.196530938148498535 -0.63736492395401001
0.859331965446472168 -0.105650775134563446 -0.598686873912811279
-0.748074948787689209 -0.249221876263618469 0.0784709379076957703
0.28522646427154541 0.488904237747192383 -0.889886200428009033
-0.622178196907043457 0.367488473653793335 -0.443925380706787109
0.0256011523306369781 0.958016097545623779 0.472842544317245483
-0.13844636082649231 -0.852961182594299316 -0.405553579330444336
0.183380827307701111 -0.730694770812988281 -0.740565657615661621
0.499798625707626343 0.37082284688949585 -0.801650524139404297
-0.136894166469573975 -0.861285388469696045 -0.0962385237216949463
-0.622426986694335938 -0.354675322771072388 0.534036636352539062
-0.0468385964632034302 -0.924036562442779541 0.572682380676269531
-0.0985976532101631165 -0.899747252464294434 -0.078117959201335907
0.174623310565948486 -0.818249762058258057 -0.336382448673248291
-0.519395887851715088 -0.469687134027481079 -0.447584748268127441
-0.155442222952842712 0.454465121030807495 -0.961230456829071045
-0.97662663459777832 -0.00143699080217629671 -0.496630430221557617
0.200631812214851379 0.753857553005218506 -0.634641051292419434
-0.698428452014923096 0.206917479634284973 -0.751856625080108643
0.0351445339620113373 -0.00352607946842908859 -0.997420251369476318
0.192051231861114502 -0.284551233053207397 -0.986460506916046143
-0.268895834684371948 0.649886488914489746 -0.729781866073608398
0.954232215881347656 0.038753751665353775 -0.33105430006980896
-0.741406440734863281 0.252165347337722778 -0.303403466939926147
-0.13228173553943634 -0.57844078540802002 -0.927823126316070557
-0.295214533805847168 -0.703503727912902832 -0.202863022685050964
0.53601914644241333 -0.457177072763442993 0.38286888599395752
-0.77399057149887085 -0.195051133632659912 -0.56902015209197998
0.72878563404083252 0.26814994215965271 0.149966821074485779
-0.313383132219314575 -0.675466001033782959 0.423700243234634399
0.488860636949539185 0.0208775456994771957 0.981082558631896973
0.929043769836425781 -0.0682045593857765198 0.088066980242729187
0.248847588896751404 -0.749448955059051514 -0.264068722724914551
-0.719157576560974121 -0.2803497314453125 -0.0232540611177682877
-0.511250019073486328 0.487193167209625244 -0.148417741060256958
-0.831237077713012695 -0.155836805701255798 -0.445917427539825439
-0.657073974609375 0.340770363807678223 -0.0298950541764497757
-0.0205617602914571762 0.788535475730895996 0.865646421909332275
0.0430641919374465942 0.0566318631172180176 -0.996769070625305176
0.196382641792297363 -0.796036422252655029 -0.357811212539672852
0.0390437617897987366 0.737001359462738037 -0.888653695583343506
0.841860294342041016 0.154426842927932739 0.278308898210525513
0.721604645252227783 0.23209284245967865 0.631346166133880615
-0.57865828275680542 0.417695373296737671 0.265152782201766968
-0.724283337593078613 -0.0846292376518249512 -0.867493391036987305
0.832948982715606689 -0.164271354675292969 0.0936120301485061646
0.407690167427062988 -0.555256187915802002 -0.611454248428344727
-0.0485176295042037964 -0.947616338729858398 0.308625370264053345
0.664616227149963379 -0.0758934244513511658 -0.912320554256439209
0.397824376821517944 -0.554978489875793457 -0.642391622066497803
0.633179366588592529 -0.320701956748962402 -0.637518823146820068
0.420676290988922119 -0.122660189867019653 -0.974595308303833008
0.0875835046172142029 0.512834310531616211 -0.963026523590087891
-0.688467442989349365 0.291344195604324341 -0.505713760852813721
-0.89234548807144165 -0.0983144789934158325 -0.387809634208679199
0.243501052260398865 -0.344062954187393188 0.96526414155960083
0.680761814117431641 -0.317058742046356201 -0.102866813540458679
0.195335805416107178 0.424037575721740723 -0.958204329013824463
0.196781784296035767 0.801316678524017334 -0.0897505432367324829
-0.348888516426086426 -0.49030768871307373 -0.840636372566223145
0.729880392551422119 -0.266994863748550415 -0.14748363196849823
-0.274841874837875366 0.683626294136047363 -0.616794407367706299
-0.206516042351722717 0.0833611860871315002 0.997686862945556641
-0.0328954011201858521 0.362116485834121704 0.990613877773284912
0.315984338521957397 -0.633895516395568848 0.644383907318115234
-0.0132860532030463219 0.0438613817095756531 0.997686862945556641
-0.0486981011927127838 0.832283437252044678 -0.787087023258209229
-0.881404697895050049 0.102195531129837036 -0.502203881740570068
0.0132934423163533211 -0.0246814675629138947 -0.997711360454559326
-0.547765493392944336 -0.0763409361243247986 -0.958543062210083008
0.0272308550775051117 0.106756299734115601 -0.996403217315673828
-0.653347194194793701 -0.34517320990562439 -0.0698336809873580933
-0.0589776746928691864 0.299432963132858276 -0.994008660316467285
0.792661964893341064 0.18685595691204071 -0.507555544376373291
0.591582596302032471 -0.408316612243652344 -0.00475664949044585228
-0.43165510892868042 0.255491852760314941 -0.935663938522338867
-0.0404448620975017548 0.959502458572387695 -0.00248583103530108929
0.91721642017364502 0.0775628536939620972 0.367999762296676636
-0.581486761569976807 0.414352089166641235 -0.303892374038696289
-0.852498710155487061 -0.0777278542518615723 -0.699288845062255859
0.637127399444580078 0.356042921543121338 -0.347133040428161621
-0.0933162495493888855 0.0143394209444522858 0.997686862945556641
-0.256923466920852661 -0.708139538764953613 -0.586996793746948242
0.934040367603302002 0.063427358865737915 0.0446500480175018311
0.204735845327377319 0.361757069826126099 0.970653951168060303
-0.137655407190322876 0.840405702590942383 0.525030791759490967
-0.11466352641582489 -0.794712364673614502 0.741901099681854248
-0.185610905289649963 -0.27196502685546875 -0.987981677055358887
0.375705599784851074 -0.430123627185821533 -0.869478464126586914
-0.188035756349563599 0.62134253978729248 -0.867193520069122314
-0.14768846333026886 0.761593461036682129 -0.747304260730743408
-0.348949015140533447 -0.631393134593963623 -0.502387881278991699
-0.117340505123138428 -0.825931072235107422 -0.664530634880065918
0.425725668668746948 0.571396470069885254 -0.283098012208938599
-0.0898832827806472778 0.890502452850341797 -0.502114355564117432
-0.242327019572257996 0.753928422927856445 0.284588634967803955
-0.757222294807434082 0.239061072468757629 0.279055953025817871
0.974081695079803467 0.0244957581162452698 -0.175001278519630432
0.0315278731286525726 -0.665000498294830322 0.932986855506896973
0.751393020153045654 -0.244241580367088318 -0.206039786338806152
-0.261058896780014038 0.664268076419830322 -0.712343692779541016
0.391812741756439209 0.00922767538577318192 0.990113019943237305
-0.180871337652206421 0.437972217798233032 -0.958380520343780518
0.27823406457901001 -0.72058635950088501 -0.223093524575233459
-0.207104951143264771 -0.769567966461181641 0.538069546222686768
0.649461507797241211 0.262478440999984741 -0.737847089767456055
-0.603787362575531006 0.389335930347442627 -0.324572533369064331
-0.181643977761268616 0.814362287521362305 0.333905786275863647
-0.616211652755737305 0.376506149768829346 -0.343711733818054199
-0.0581847839057445526 0.927631616592407227 0.452186554670333862
0.00135736830998212099 0.0148314898833632469 -0.998004794120788574
0.223572984337806702 -0.773735880851745605 0.0760891065001487732
0.881298065185546875 -0.0921548604965209961 -0.545581221580505371
0.824973881244659424 0.173819810152053833 -0.217797338962554932
-0.693328678607940674 0.30366399884223938 0.138664856553077698
-0.00918662641197443008 0.0696805194020271301 0.997686862945556641
0.566887140274047852 0.339684933423995972 -0.751113533973693848
-0.461931765079498291 -0.534506261348724365 0.248451277613639832
-0.945337533950805664 0.0515158139169216156 0.166247382760047913
0.514690876007080078 -0.475457221269607544 -0.440907001495361328
0.750384867191314697 0.230080932378768921 0.502443671226501465
0.239263713359832764 -0.409903347492218018 -0.948295414447784424
-0.260885745286941528 0.257481843233108521 -0.977889180183410645
-0.550972461700439453 -0.132743135094642639 -0.936244606971740723
0.151014730334281921 0.515992939472198486 0.94494330883026123
0.225527122616767883 -0.24314609169960022 -0.984444856643676758
-0.328530728816986084 0.66359943151473999 0.392882168292999268
-0.217539817094802856 0.319643348455429077 -0.974994659423828125
0.990817427635192871 -0.00708773918449878693 -0.0419299378991127014
-0.602747857570648193 -0.392142146825790405 0.366959661245346069
0.167662456631660461 0.830846965312957764 -0.161534041166305542
0.177386820316314697 0.81948477029800415 0.162632957100868225
0.809814512729644775 -0.129554137587547302 0.680280804634094238
-0.674931526184082031 -0.0603569038212299347 -0.914519965648651123
0.784153223037719727 -0.172910109162330627 -0.627782881259918213
-0.889757931232452393 -0.0930548682808876038 -0.506798207759857178
0.0357422716915607452 -0.00298185716383159161 -0.99824601411819458
0.732047379016876221 0.0701314061880111694 -0.869690418243408203
0.597734034061431885 0.391862750053405762 -0.40503731369972229
0.21861286461353302 -0.666416645050048828 -0.781396687030792236
0.826550304889678955 -0.171001598238945007 0.0279843918979167938
-0.278799235820770264 0.68537217378616333 0.595576584339141846
-0.648337364196777344 -0.0643496289849281311 0.92452007532119751
0.0369274429976940155 0.94574815034866333 0.481687635183334351
0.903508365154266357 0.0744522064924240112 -0.528722107410430908
-0.749767482280731201 0.0380693525075912476 -0.881062090396881104
-0.661143004894256592 -0.232377573847770691 -0.775337159633636475
0.0372878722846508026 -0.858812570571899414 -0.765833914279937744
-0.0594398342072963715 0.400630265474319458 -0.985579788684844971
0.261076748371124268 0.721780836582183838 -0.506595730781555176
0.313004523515701294 0.52919614315032959 -0.83466106653213501
0.0156506337225437164 0.0600802861154079437 -0.998640894889831543
0.513792455196380615 -0.412927508354187012 0.712075948715209961
0.510951876640319824 -0.487082749605178833 -0.0675578713417053223
0.246107593178749084 -0.535194754600524902 -0.886075794696807861
0.0313625968992710114 0.951407253742218018 -0.487166792154312134
-0.21623675525188446 -0.779577195644378662 -0.197574600577354431
0.426965236663818359 -0.449357986450195312 -0.793635368347167969
0.586630046367645264 -0.382601171731948853 0.57829660177230835
0.712007701396942139 0.284816354513168335 -0.149901121854782104
-0.873991191387176514 0.123319618403911591 -0.126927107572555542
0.484427601099014282 -0.418822377920150757 -0.755783557891845703
-0.485541015863418579 -0.0130451591685414314 -0.982299745082855225
-0.855411350727081299 0.117188826203346252 -0.552941858768463135
-0.681486725807189941 0.315516293048858643 -0.285028338432312012
0.449167907238006592 -0.210805714130401611 0.946742534637451172
-0.633419275283813477 0.185342907905578613 -0.856674492359161377
-0.900694847106933594 0.0552338734269142151 -0.630806028842926025
0.374232172966003418 -0.624799370765686035 -0.045708872377872467
-0.40298578143119812 0.592995643615722656 -0.189671501517295837
0.343103349208831787 0.560718059539794922 -0.754980266094207764
-0.158442333340644836 -0.272098571062088013 -0.989123165607452393
-0.0570957064628601074 0.941488444805145264 -0.176325887441635132
0.784104228019714355 0.21279674768447876 0.156819865107536316
-0.350296527147293091 0.605660080909729004 0.623631000518798828
-0.154084697365760803 -0.82433319091796875 -0.514452099800109863
0.589632868766784668 0.353611230850219727 0.667045533657073975
0.407452970743179321 -0.56024014949798584 -0.575113475322723389
-0.512802958488464355 -0.462505698204040527 0.550883889198303223
0.863842546939849854 -0.134610861539840698 -0.150449484586715698
0.859571576118469238 -0.130517497658729553 0.412053972482681274
0.192594870924949646 0.616598308086395264 0.865555047988891602
-0.536337971687316895 0.429032623767852783 -0.596255123615264893
0.119486935436725616 -0.794342696666717529 -0.740911364555358887
0.0520810075104236603 0.860472559928894043 -0.742705225944519043
0.263681352138519287 -0.729391753673553467 -0.326940357685089111
0.512549638748168945 0.485483646392822266 -0.0672958269715309143
0.713235199451446533 -0.284504473209381104 -0.00917602330446243286
0.196437150239944458 0.752680540084838867 -0.658860266208648682
0.755161046981811523 0.0483952052891254425 -0.870941817760467529
0.117112480103969574 -0.870072722434997559 -0.44411352276802063
0.247624650597572327 -0.719523727893829346 -0.577574551105499268
0.333023011684417725 0.66379624605178833 0.172992795705795288
-0.163237899541854858 -0.833112120628356934 0.265867769718170166
-0.589977383613586426 0.40765911340713501 0.011244162917137146
-0.595216691493988037 0.38280823826789856 0.525370359420776367
-0.22386622428894043 0.746760427951812744 -0.561858773231506348
-0.282151192426681519 -0.102869078516960144 -0.993724703788757324
0.614372670650482178 0.263391613960266113 -0.791609585285186768
-0.0270463321357965469 0.970419585704803467 0.0450022779405117035
-0.765764355659484863 0.170143172144889832 -0.684152066707611084
0.709148883819580078 -0.26899254322052002 0.524276018142700195
0.275417476892471313 -0.615729033946990967 -0.772797822952270508
0.442410081624984741 -0.370017051696777344 0.862473428249359131
-0.669018685817718506 -0.075566515326499939 -0.908907830715179443
0.460150539875030518 -0.518372178077697754 0.520694613456726074
0.786774694919586182 -0.0170152038335800171 -0.868425905704498291
-0.73934173583984375 0.258085519075393677 0.0526533499360084534
0.543460249900817871 -0.264481812715530396 0.866747260093688965
-0.893136382102966309 0.104149378836154938 -0.128109872341156006
-0.605561494827270508 0.393356353044509888 -0.242364615201950073
0.370750874280929565 0.627949535846710205 -0.0613386631011962891
-0.322508692741394043 -0.24894966185092926 0.969383835792541504
0.0142039638012647629 0.379553496837615967 0.99071812629699707
0.185614705085754395 -0.80067211389541626 -0.458670347929000854
0.417839288711547852 -0.545751571655273438 -0.607413530349731445
0.0520451106131076813 0.306602060794830322 0.993634998798370361
0.548721373081207275 0.449377387762069702 -0.0802578702569007874
-0.215836524963378906 0.777264237403869629 -0.348259449005126953
0.370974123477935791 -0.17622704803943634 0.975588560104370117
0.218373477458953857 -0.719157218933105469 -0.683477699756622314
0.1492280513048172 0.749495089054107666 0.76021963357925415
-0.11436288058757782 0.86102372407913208 -0.54035186767578125
-0.0927749276161193848 -0.0125796105712652206 0.997686862945556641
-0.988376259803771973 0.00179695489350706339 0.33746066689491272
0.70715641975402832 0.281006604433059692 0.430144786834716797
0.744388937950134277 0.243689820170402527 -0.429634630680084229
-0.35602414608001709 0.625794947147369385 0.489732325077056885
0.885909974575042725 -0.109958983957767487 -0.194979101419448853
-0.285828858613967896 0.57452094554901123 -0.813681304454803467
-0.0124219032004475594 -0.153251409530639648 -0.999600589275360107
-0.893739998340606689 0.0916071012616157532 0.456594347953796387
0.61386185884475708 0.379200935363769531 -0.327426910400390625
0.239286556839942932 0.467588931322097778 -0.929102599620819092
-0.636545360088348389 -0.027688935399055481 -0.944450914859771729
0.41724810004234314 0.489624321460723877 0.746206045150756836
0.767875850200653076 -0.228331208229064941 0.294164180755615234
0.245378151535987854 -0.0323103182017803192 0.997686862945556641
-0.270640164613723755 0.101118236780166626 -0.993866205215454102
-0.439395725727081299 -0.500973880290985107 0.676862359046936035
-0.78869175910949707 0.204337581992149353 -0.329006433486938477
0.499371498823165894 -0.152748674154281616 0.948751389980316162
-0.241488680243492126 0.752529680728912354 -0.282326340675354004
0.67442399263381958 -0.311725974082946777 -0.465974152088165283
-0.224342525005340576 -0.312386214733123779 0.978267252445220947
0.234829068183898926 0.258558601140975952 -0.983283638954162598
0.308571606874465942 -0.589116334915161133 -0.768126547336578369
-0.855291247367858887 -0.114324510097503662 -0.569639146327972412
-0.693167328834533691 -0.0765477493405342102 -0.895170390605926514
0.482152700424194336 0.491805016994476318 0.562155008316040039
0.655497550964355469 0.344115287065505981 -0.018274255096912384
0.543024957180023193 0.14627973735332489 -0.933890223503112793
-0.121533490717411041 -0.856626629829406738 -0.527820467948913574
0.276318401098251343 0.655866503715515137 -0.694070935249328613
-0.381894618272781372 0.511931657791137695 -0.769030749797821045
0.375325560569763184 -0.620809614658355713 0.308388471603393555
0.634251773357391357 0.346834033727645874 -0.497725367546081543
-0.0989765897393226624 0.864734053611755371 -0.593107342720031738
-0.481387019157409668 -0.515417337417602539 0.17594476044178009
-0.869491875171661377 0.0937783122062683105 0.598654210567474365
0.536264121532440186 -0.35986897349357605 -0.765788018703460693
-0.256776720285415649 0.712562978267669678 -0.567673623561859131
-0.155102774500846863 0.237378329038619995 -0.993645131587982178
0.14699205756187439 -0.8494148850440979 0.254594296216964722
0.119927674531936646 -0.699628353118896484 -0.856051504611968994
0.761037945747375488 0.201470762491226196 0.601254880428314209
0.657549083232879639 0.22123602032661438 0.794505298137664795
-0.641153514385223389 -0.11142953485250473 -0.903758764266967773
-0.475459694862365723 0.104760043323040009 0.967142760753631592
0.507322967052459717 -0.365258067846298218 -0.798895895481109619
0.759870469570159912 -0.232906028628349304 -0.353513956069946289
-0.162674069404602051 0.747168838977813721 -0.74651569128036499
0.637640476226806641 -0.333822637796401978 -0.558056473731994629
0.480021744966506958 0.422542929649353027 -0.757765591144561768
-0.922054290771484375 0.0751023665070533752 0.106211729347705841
-0.133190959692001343 0.857414424419403076 -0.388693660497665405
-0.611971795558929443 0.333192586898803711 -0.667259395122528076
0.40076833963394165 -0.59610295295715332 0.16269172728061676
-0.0363077148795127869 0.963111519813537598 -0.0274118799716234207
-0.666891813278198242 0.330670446157455444 0.0259378906339406967
0.634546160697937012 0.36148408055305481 0.329155951738357544
0.280490338802337646 -0.719167530536651611 -0.016148105263710022
0.610698819160461426 -0.385201334953308105 0.354908138513565063
-0.611993253231048584 0.357196658849716187 0.578437626361846924
-0.377641469240188599 -0.509423971176147461 -0.778534650802612305
-0.129485011100769043 -0.861639142036437988 -0.380288094282150269
-0.0685575008392333984 0.929041802883148193 0.0186010319739580154
-0.116942077875137329 -0.00298314657993614674 0.997686862945556641
0.440857857465744019 0.523252904415130615 -0.604153931140899658
-0.299179971218109131 0.698187172412872314 0.0645565465092658997
0.960033535957336426 -0.038736637681722641 -0.213145121932029724
0.559158384799957275 -0.177825033664703369 -0.913801908493041992
0.129640564322471619 0.501144349575042725 0.954208731651306152
0.311032414436340332 0.685145795345306396 0.299863874912261963
-0.865905702114105225 -0.105220235884189606 -0.559602737426757812
0.688178777694702148 -0.283772051334381104 -0.554998636245727539
-0.160167738795280457 -0.834714949131011963 0.36702805757522583
-0.295340865850448608 -0.36368793249130249 -0.945015609264373779
0.882437944412231445 0.109718270599842072 -0.370216667652130127
0.241260841488838196 0.364926397800445557 -0.962589800357818604
-0.198734432458877563 0.522035717964172363 -0.9242401123046875
-0.610133230686187744 0.38653099536895752 0.203681051731109619
-0.384646505117416382 -0.424447178840637207 0.865649878978729248
