ply
format ascii 1.0
element vertex 741
property float x
property float y
property float z
end_header
0.670642614364624023 -0.940919399261474609 0.0924174860119819641
-0.795058488845825195 0.873593986034393311 -0.234118461608886719
0.0241448525339365005 -0.991790711879730225 0.374472469091415405
-0.560788512229919434 -0.398988723754882812 -0.966260194778442383
-0.146198853850364685 0.990103542804718018 0.390356272459030151
-0.263499259948730469 -0.610585451126098633 -0.958662331104278564
0.551958322525024414 0.970365822315216064 -0.139486595988273621
0.588685989379882812 -0.231111630797386169 -0.964188873767852783
-0.0576466992497444153 -0.129094198346138 -0.999220311641693115
-0.188238322734832764 -0.0772508233785629272 0.997686862945556641
0.992331087589263916 -0.266142815351486206 -0.0547391623258590698
-0.99331897497177124 -0.158650487661361694 -0.290257304906845093
0.586115419864654541 0.880774319171905518 0.716771066188812256
-0.340374976396560669 0.453899770975112915 -0.984471321105957031
0.070500396192073822 0.532095193862915039 -0.976025223731994629
-0.211667373776435852 -0.914950132369995117 -0.726693212985992432
0.530634403228759766 0.912032485008239746 -0.675302445888519287
0.955532550811767578 0.57384026050567627 -0.449991911649703979
-0.73918914794921875 0.91107630729675293 -0.0694130733609199524
-0.32686316967010498 -0.902557551860809326 -0.746190309524536133
0.812459468841552734 0.824952781200408936 0.548684060573577881
-0.368018358945846558 0.221163272857666016 0.991836428642272949
-0.993345379829406738 -0.195572927594184875 0.209964483976364136
0.945252418518066406 0.649969279766082764 0.121638260781764984
-0.881457030773162842 -0.213840857148170471 -0.785076022148132324
0.0216329153627157211 -0.123938620090484619 -0.999160587787628174
0.783965647220611572 0.877616822719573975 -0.305768787860870361
-0.313844025135040283 0.740005791187286377 0.906619668006896973
0.992485284805297852 -0.270712822675704956 0.305285871028900146
-0.88623654842376709 0.748771011829376221 0.472335398197174072
-0.127346843481063843 -0.569288492202758789 0.969629049301147461
0.786909580230712891 -0.328803122043609619 -0.874860942363739014
-0.545156002044677734 -0.544850945472717285 -0.948075056076049805
0.859567701816558838 -0.344977378845214844 -0.805071353912353516
0.629270672798156738 0.759709775447845459 -0.842306196689605713
0.304610788822174072 0.941568315029144287 -0.663634538650512695
-0.206383839249610901 0.261209070682525635 -0.994796574115753174
0.499704986810684204 -0.428311377763748169 -0.972601175308227539
-0.885383069515228271 -0.122109323740005493 0.778710484504699707
0.050983726978302002 0.11174851655960083 0.997686862945556641
-0.489001065492630005 0.947297871112823486 -0.596663713455200195
0.908957183361053467 -0.731222152709960938 -0.367424875497817993
0.991167902946472168 -0.351682484149932861 -0.120705559849739075
0.618052542209625244 -0.95121079683303833 0.378930568695068359
-0.154309973120689392 0.105347052216529846 -0.999563694000244141
-0.572817742824554443 -0.389835119247436523 0.961590290069580078
0.408231675624847412 -0.0506797060370445251 -0.990036189556121826
0.0124975405633449554 -0.972078621387481689 0.56005406379699707
0.69867473840713501 -0.481483489274978638 -0.913599967956542969
0.948261797428131104 -0.648881673812866211 -0.0349417664110660553
0.166615217924118042 0.979906082153320312 -0.480608135461807251
0.652776122093200684 -0.848657488822937012 -0.732369601726531982
0.94984281063079834 -0.170060768723487854 0.639951705932617188
0.973773479461669922 0.495982050895690918 -0.336896717548370361
-0.661140978336334229 0.187922403216362 0.945809543132781982
-0.0587383359670639038 -0.624819278717041016 -0.958133935928344727
-0.235377267003059387 -0.725978314876556396 -0.918251574039459229
0.922974765300750732 0.6068076491355896 0.593368411064147949
0.950837254524230957 -0.634362995624542236 0.166834264993667603
-0.894366145133972168 -0.690749645233154297 -0.58449864387512207
0.602270841598510742 -0.955624938011169434 -0.351534813642501831
-0.992593884468078613 -0.0499376244843006134 -0.229305073618888855
-0.991044282913208008 0.374985426664352417 -0.0189380478113889694
0.287070661783218384 0.776907563209533691 -0.885195374488830566
-0.00358411087654531002 -0.996034681797027588 -0.0868639498949050903
-0.842062532901763916 0.307053595781326294 -0.832651615142822266
0.119077965617179871 0.290280789136886597 0.997686862945556641
-0.446734815835952759 0.985319733619689941 0.156425788998603821
-0.853162646293640137 0.288766294717788696 -0.818018853664398193
-0.904928863048553467 0.580049335956573486 -0.669788062572479248
-0.952357292175292969 -0.604461967945098877 -0.381058543920516968
-0.859819769859313965 -0.744305312633514404 -0.603644609451293945
0.499797582626342773 -0.822995901107788086 -0.822935104370117188
0.261125087738037109 0.574421584606170654 0.966891169548034668
0.150357484817504883 0.385976612567901611 -0.990862667560577393
-0.56836092472076416 -0.903447806835174561 -0.675836443901062012
0.758634269237518311 0.863030493259429932 0.566236197948455811
-0.36387324333190918 -0.357953488826751709 -0.989177465438842773
-0.770353198051452637 0.457334846258163452 -0.875939488410949707
0.139099419116973877 0.992540597915649414 0.298788189888000488
0.984452664852142334 0.122876420617103577 0.440542697906494141
0.657253384590148926 0.937596023082733154 -0.416424661874771118
-0.406885266304016113 0.359035670757293701 0.985244631767272949
0.995299994945526123 -0.154791533946990967 -0.136918634176254272
0.424905508756637573 0.959014058113098145 -0.568026900291442871
0.473865509033203125 0.91857224702835083 0.685995340347290039
-0.0447923094034194946 -0.994213700294494629 0.35611802339553833
-0.400729387998580933 -0.678581416606903076 0.931640982627868652
-0.986988484859466553 -0.28274884819984436 -0.39865189790725708
0.779097914695739746 -0.0140887591987848282 -0.885482668876647949
-0.969175517559051514 0.350988030433654785 -0.525775134563446045
-0.612965583801269531 0.956530094146728516 -0.094630122184753418
-0.818321704864501953 -0.594393312931060791 -0.798075020313262939
-0.142670497298240662 -0.939023017883300781 -0.672733008861541748
0.833807647228240967 -0.841331243515014648 0.0100385742262005806
0.98407292366027832 -0.460771799087524414 -0.0499696582555770874
-0.949313104152679443 -0.635617673397064209 0.341623306274414062
0.331765711307525635 0.994674921035766602 -0.225766167044639587
0.216527536511421204 0.775404095649719238 0.890715897083282471
-0.822242856025695801 0.841139435768127441 -0.385151147842407227
-0.878862738609313965 -0.720884084701538086 -0.583463907241821289
-0.953096389770507812 -0.628920912742614746 0.0292950943112373352
-0.837330520153045654 0.33619651198387146 0.831955432891845703
0.993797957897186279 0.237868741154670715 0.0777904540300369263
-0.662141740322113037 -0.53666841983795166 -0.919068694114685059
-0.907564878463745117 -0.653460562229156494 -0.597517788410186768
0.475033402442932129 0.679240822792053223 0.921135306358337402
-0.977077484130859375 -0.524443984031677246 -0.125787138938903809
-0.245000392198562622 0.994500100612640381 0.175647944211959839
0.00680217798799276352 0.0401645898818969727 -0.997408211231231689
0.505954861640930176 -0.0771031081676483154 -0.979423820972442627
0.0290633682161569595 0.983651220798492432 0.451102316379547119
0.957283139228820801 -0.621471881866455078 -0.0999708697199821472
-0.0753348246216773987 0.70492100715637207 0.927365005016326904
-0.518379271030426025 0.0965240523219108582 -0.978419303894042969
0.540558874607086182 -0.757628083229064941 -0.867598295211791992
0.214025244116783142 -0.809364855289459229 -0.865994095802307129
0.944856464862823486 0.401580303907394409 -0.63281548023223877
-0.300764471292495728 0.287291020154953003 0.994299232959747314
0.969356775283813477 -0.0688556134700775146 -0.559045493602752686
0.193077579140663147 0.295015811920166016 -0.994273543357849121
-0.592476189136505127 -0.586153566837310791 -0.930417299270629883
-0.788672506809234619 0.739703893661499023 -0.736565649509429932
-0.495633900165557861 0.850922524929046631 0.796786308288574219
0.996258795261383057 -0.0779127627611160278 -0.250067859888076782
-0.410089403390884399 -0.979478120803833008 -0.392943263053894043
-0.980176627635955811 -0.410848289728164673 0.410176128149032593
-0.857532501220703125 -0.816838443279266357 -0.135599613189697266
-0.0501972697675228119 0.119216211140155792 -0.999119222164154053
0.70386970043182373 -0.171163126826286316 0.92724001407623291
-0.510444164276123047 -0.112260736525058746 -0.979605257511138916
-0.992405891418457031 -0.167961239814758301 0.342173218727111816
-0.729964733123779297 -0.826884031295776367 0.70342332124710083
-0.982984602451324463 0.0387491136789321899 -0.478532791137695312
-0.457446038722991943 -0.982357621192932129 0.218462914228439331
0.545101583003997803 0.214815005660057068 -0.972506880760192871
0.408303231000900269 -0.653480947017669678 -0.93867039680480957
0.070623740553855896 0.98904496431350708 -0.408833444118499756
0.95794987678527832 0.537734448909759521 -0.492471992969512939
-0.973334133625030518 -0.393305331468582153 0.491160154342651367
-0.137027904391288757 0.668937623500823975 -0.941816329956054688
-0.983376979827880859 -0.459464013576507568 0.254788249731063843
-0.464286625385284424 -0.983753085136413574 -0.242747753858566284
-0.613124728202819824 0.0204784460365772247 0.958389937877655029
-0.359196245670318604 0.343488782644271851 -0.989616036415100098
0.995301365852355957 0.314010798931121826 -0.0381009429693222046
0.964146971702575684 0.0633387863636016846 -0.587939560413360596
0.333006173372268677 -0.992337167263031006 -0.071245633065700531
-0.826658248901367188 -0.42023468017578125 -0.833992481231689453
-0.590876400470733643 -0.105867929756641388 -0.966935992240905762
-0.898637533187866211 -0.758943378925323486 -0.131746426224708557
0.766763210296630859 0.175135239958763123 -0.892240524291992188
-0.677998602390289307 0.929068267345428467 -0.444966733455657959
-0.170503288507461548 -0.975814104080200195 0.54335474967956543
0.944336116313934326 -0.118644170463085175 0.653808116912841797
-0.371359378099441528 -0.323708474636077881 -0.991189777851104736
0.0412380918860435486 0.987126171588897705 -0.417475908994674683
0.983162462711334229 0.275214821100234985 -0.449880897998809814
0.855091750621795654 -0.815543472766876221 0.302273750305175781
0.499203383922576904 0.960548698902130127 0.515450537204742432
0.983860611915588379 -0.449407786130905151 -0.219495028257369995
0.793097198009490967 0.861724257469177246 -0.422645270824432373
-0.688996016979217529 0.933540999889373779 -0.200185477733612061
-0.30349355936050415 -0.168487966060638428 -0.994176030158996582
0.710353493690490723 -0.914760828018188477 -0.395660072565078735
0.103752970695495605 -0.994242668151855469 0.0359864905476570129
0.69956207275390625 -0.499442428350448608 0.909039735794067383
0.851296901702880859 -0.658655703067779541 -0.718523979187011719
-0.294213443994522095 -0.991347014904022217 0.207263857126235962
-0.458233505487442017 0.959985554218292236 -0.553220629692077637
0.475381910800933838 -0.0805343762040138245 -0.986406326293945312
-0.994602799415588379 0.293267130851745605 -0.0761085227131843567
0.722800612449645996 -0.6203957200050354 -0.869435310363769531
0.984280943870544434 -0.423758596181869507 -0.345693111419677734
0.953588783740997314 0.268406987190246582 0.622802615165710449
-0.419425070285797119 -0.178407728672027588 0.988185286521911621
0.263426750898361206 0.98908078670501709 -0.332618176937103271
-0.47617638111114502 -0.964314103126525879 0.498449921607971191
0.0740815848112106323 0.327916413545608521 0.996124923229217529
-0.355684936046600342 0.976653993129730225 0.482599437236785889
-0.539758980274200439 0.972976863384246826 0.344558775424957275
-0.992985010147094727 0.242305397987365723 -0.2806529700756073
-0.862591803073883057 -0.784695744514465332 -0.481534123420715332
-0.991469681262969971 -0.306477844715118408 -0.0533881857991218567
0.760391891002655029 0.836748600006103516 0.622959136962890625
0.294649720191955566 -0.990950167179107666 0.285050690174102783
0.885462462902069092 -0.781903922557830811 -0.15575350821018219
-0.262457221746444702 -0.994768142700195312 -0.171202480792999268
-0.92891162633895874 -0.668519020080566406 -0.434302240610122681
0.846426427364349365 -0.780208289623260498 -0.550789475440979004
0.532555162906646729 0.415321022272109985 -0.967398345470428467
0.877351284027099609 -0.722060799598693848 0.584173023700714111
0.992301523685455322 0.275339186191558838 -0.0874484926462173462
-0.662765979766845703 0.849975943565368652 -0.720102667808532715
0.783612191677093506 0.846083402633666992 0.565954804420471191
-0.950936734676361084 0.640736997127532959 -0.0962239950895309448
-0.866984188556671143 -0.387147963047027588 0.799683570861816406
-0.704132199287414551 0.0972326025366783142 -0.929637253284454346
0.939518451690673828 0.664800405502319336 -0.144520089030265808
-0.785769045352935791 0.865952730178833008 -0.428358376026153564
0.926425755023956299 0.000598023645579814911 -0.707044064998626709
0.569453656673431396 0.621886074542999268 0.924860775470733643
-0.76195991039276123 0.896349310874938965 -0.0977488309144973755
0.991104423999786377 0.336946636438369751 -0.315828710794448853
-0.80409163236618042 0.865477025508880615 0.273409068584442139
0.246225953102111816 0.682731091976165771 -0.934823930263519287
0.974217891693115234 0.538911044597625732 -0.00375014543533325195
-0.0415162257850170135 0.395319312810897827 -0.990571677684783936
0.660433948040008545 -0.396057605743408203 -0.937002718448638916
0.0220136959105730057 0.0254178848117589951 -0.998137116432189941
-0.19132620096206665 -0.994110226631164551 -0.123080402612686157
-0.645613431930541992 0.651735007762908936 -0.892465829849243164
-0.459750503301620483 0.98241955041885376 -0.129866644740104675
0.788158237934112549 0.656940579414367676 -0.800660431385040283
-0.416697472333908081 0.923850715160369873 -0.685151815414428711
0.102506481111049652 0.253948092460632324 0.997686862945556641
-0.325548887252807617 -0.35738980770111084 -0.990057826042175293
0.989207804203033447 0.272538751363754272 0.366094440221786499
-0.995992660522460938 -0.23481413722038269 0.116183526813983917
0.996206760406494141 0.10293222963809967 -0.0584785938262939453
0.229197517037391663 -0.995458364486694336 -0.014457089826464653
-0.323284000158309937 0.725358843803405762 0.913331210613250732
-0.701037824153900146 -0.733442485332489014 -0.818355262279510498
-0.961088299751281738 0.379411458969116211 0.574500203132629395
-0.392046064138412476 0.861343562602996826 -0.800369024276733398
0.986909210681915283 0.444383710622787476 -0.277482956647872925
0.431347310543060303 -0.454318016767501831 0.979496657848358154
-0.959725797176361084 0.0701856613159179688 0.601967036724090576
0.969183444976806641 0.199408799409866333 -0.553692400455474854
-0.58830571174621582 0.955495774745941162 -0.405269473791122437
-0.992088437080383301 -0.326842159032821655 -0.0465726107358932495
-0.657958149909973145 0.73729318380355835 0.8398246169090271
-0.531821668148040771 -0.590505897998809814 -0.941070258617401123
-0.356276601552963257 0.988968968391418457 0.189893528819084167
0.203829705715179443 0.192751124501228333 0.997686862945556641
0.847265720367431641 0.829901039600372314 -0.106756784021854401
-0.597604155540466309 -0.310382485389709473 -0.961496055126190186
0.942210257053375244 -0.382946372032165527 -0.646239101886749268
0.466565042734146118 -0.982589304447174072 -0.317103087902069092
-0.980859160423278809 -0.000165158417075872421 0.477439969778060913
-0.995341956615447998 -0.0161390583962202072 -0.273330122232437134
-0.961998105049133301 0.599580466747283936 0.0738874450325965881
0.848720848560333252 -0.26839214563369751 -0.822363913059234619
0.957842648029327393 -0.592748880386352539 -0.256358116865158081
0.437947303056716919 -0.965029478073120117 -0.519773125648498535
-0.984095275402069092 -0.438398361206054688 0.153902903199195862
0.340877443552017212 -0.800251662731170654 0.865987658500671387
-0.990487217903137207 -0.135646864771842957 -0.308482706546783447
0.247989952564239502 -0.34525713324546814 -0.993913352489471436
0.973109960556030273 0.225551635026931763 -0.545633673667907715
-0.931643307209014893 0.689735531806945801 -0.09666404128074646
0.97562861442565918 0.513962805271148682 0.07859782874584198
0.523830533027648926 0.78113865852355957 -0.859615325927734375
-0.222366973757743835 0.994231641292572021 -0.256416648626327515
-0.0741190314292907715 0.931798160076141357 -0.687597453594207764
-0.94957500696182251 -0.556376993656158447 0.51520305871963501
0.274319082498550415 0.58789294958114624 -0.964027285575866699
-0.409405142068862915 0.981401324272155762 0.399288445711135864
-0.87797921895980835 -0.182375192642211914 -0.788835763931274414
0.973439991474151611 0.330689579248428345 -0.521051883697509766
-0.802569746971130371 0.827246904373168945 -0.556124448776245117
-0.138761237263679504 0.99499434232711792 -0.187207236886024475
0.681259870529174805 -0.0779990255832672119 -0.936449170112609863
0.976106882095336914 0.469252228736877441 -0.423722028732299805
-0.926070451736450195 0.389710277318954468 -0.684483110904693604
-0.516849935054779053 -0.976007699966430664 -0.0627589821815490723
-0.457198113203048706 0.929959952831268311 -0.665945529937744141
-0.639657080173492432 0.937126100063323975 -0.470441579818725586
0.238546416163444519 0.952544689178466797 -0.629579067230224609
0.617419302463531494 0.285533696413040161 -0.956031441688537598
-0.347887277603149414 0.357840061187744141 0.988513350486755371
0.423239976167678833 -0.988905251026153564 -0.0691620782017707825
-0.981415629386901855 0.0782331451773643494 -0.478946775197982788
-0.48811572790145874 0.100443825125694275 0.982702136039733887
-0.00409403443336486816 -0.953908801078796387 -0.62823176383972168
-0.192108392715454102 -0.100360564887523651 -0.99576038122177124
-0.272517532110214233 0.574699223041534424 -0.966197431087493896
-0.501871466636657715 -0.936168134212493896 0.625274956226348877
-0.975815951824188232 0.520690858364105225 -0.156644657254219055
0.570009529590606689 -0.936050355434417725 0.57639777660369873
-0.571040332317352295 -0.294446855783462524 -0.966697216033935547
0.629516720771789551 0.952634632587432861 -0.0890381261706352234
-0.34596407413482666 -0.985013127326965332 -0.360029071569442749
0.7654532790184021 0.661868155002593994 -0.819464921951293945
0.565774440765380859 0.624141037464141846 -0.924132943153381348
-0.944105684757232666 0.613759100437164307 -0.465222805738449097
0.964137494564056396 0.0895188674330711365 -0.587167978286743164
0.554850578308105469 -0.680992305278778076 0.906454980373382568
-0.89668506383895874 0.0471947900950908661 0.762004852294921875
0.807958900928497314 -0.799238085746765137 0.623360872268676758
-0.942429125308990479 -0.665667295455932617 0.0911504477262496948
0.0453017242252826691 0.076841302216053009 -0.998659670352935791
-0.400111079216003418 -0.412847638130187988 0.98321235179901123
0.862988710403442383 -0.586414754390716553 -0.74457085132598877
0.664530098438262939 -0.534647822380065918 0.916757643222808838
-0.764013528823852539 -0.888528585433959961 -0.330827623605728149
0.986841797828674316 0.411049246788024902 -0.21000121533870697
-0.895090222358703613 0.756603479385375977 0.378795593976974487
-0.283794224262237549 -0.274966657161712646 -0.99427717924118042
0.99447023868560791 0.0793687999248504639 -0.181629270315170288
0.993280947208404541 -0.354394644498825073 0.0635581612586975098
0.469523578882217407 -0.685075879096984863 -0.920479774475097656
-0.636416316032409668 0.4382762610912323 -0.941433250904083252
0.223630473017692566 0.911555826663970947 -0.732787013053894043
0.528280794620513916 0.256746798753738403 0.978377103805541992
0.983068645000457764 -0.283966213464736938 -0.450686722993850708
0.740732967853546143 -0.0140942428261041641 -0.912100672721862793
0.411367148160934448 0.939444303512573242 -0.655609071254730225
0.559986352920532227 0.968785464763641357 0.226989090442657471
-0.0981839448213577271 0.68279343843460083 -0.936967849731445312
-0.990616202354431152 -0.123755179345607758 0.391476482152938843
-0.983951032161712646 -0.430119544267654419 0.350237637758255005
-0.950960814952850342 -0.566834986209869385 0.497374892234802246
0.140226572751998901 0.253114968538284302 0.997686862945556641
0.986796677112579346 0.423660159111022949 -0.0938884392380714417
0.173937156796455383 0.994651436805725098 -0.193634599447250366
0.595246315002441406 0.956101059913635254 -0.410588353872299194
-0.203551381826400757 0.44574737548828125 -0.986635684967041016
0.698990702629089355 -0.928276181221008301 -0.208572268486022949
0.919897139072418213 0.613178253173828125 -0.594560921192169189
-0.984295964241027832 -0.00807617884129285812 0.444707870483398438
-0.941189587116241455 -0.526457726955413818 -0.587918698787689209
0.000973938906099647284 -0.331650495529174805 -0.994285941123962402
-0.862011909484863281 0.0590885579586029053 -0.810312867164611816
-0.520020902156829834 -0.704480171203613281 0.902681708335876465
0.0545228198170661926 0.0933769196271896362 0.997686862945556641
-0.830970227718353271 0.242135509848594666 0.841804444789886475
-0.934164106845855713 0.0631027966737747192 -0.685235083103179932
0.415809601545333862 0.955633461475372314 0.590023338794708252
-0.826890707015991211 -0.846885859966278076 -0.14285770058631897
-0.421591192483901978 0.624868869781494141 -0.948143243789672852
0.461300909519195557 0.984833300113677979 0.131158486008644104
-0.624511182308197021 0.940153241157531738 -0.467149287462234497
0.226636722683906555 0.367424726486206055 0.991832137107849121
0.829929471015930176 0.784480690956115723 -0.609347283840179443
-0.59863966703414917 -0.316416501998901367 0.959126412868499756
0.8488120436668396 -0.724658191204071045 0.65301668643951416
0.949984431266784668 0.483548015356063843 -0.593983292579650879
-0.972811698913574219 0.117858164012432098 -0.531757712364196777
0.312497049570083618 -0.406364232301712036 0.987015604972839355
0.98151785135269165 0.460971713066101074 -0.310362279415130615
-0.362127900123596191 0.469967782497406006 -0.979193270206451416
0.527476727962493896 0.718089461326599121 -0.894156336784362793
-0.375135749578475952 0.383717954158782959 -0.986640870571136475
-0.867783069610595703 0.0378479436039924622 -0.80416184663772583
-0.736433267593383789 0.590667009353637695 -0.871085584163665771
-0.181941568851470947 0.863081395626068115 0.810564815998077393
-0.923270285129547119 -0.614819049835205078 -0.573340415954589844
0.77828669548034668 0.515416145324707031 -0.859661579132080078
-0.0203288085758686066 0.919833481311798096 0.720250785350799561
-0.651289045810699463 -0.904968857765197754 -0.609262704849243164
0.511537790298461914 -0.816424131393432617 0.829137861728668213
0.396704047918319702 0.963171243667602539 -0.549562931060791016
-0.0236963238567113876 -0.92033839225769043 0.720048308372497559
0.0308951959013938904 -0.988480329513549805 -0.435543805360794067
0.862551033496856689 0.808236896991729736 0.326301068067550659
0.620324671268463135 -0.953636229038238525 -0.172372058033943176
-0.17443491518497467 0.115254305303096771 0.997686862945556641
-0.980954229831695557 0.266275614500045776 -0.453663408756256104
0.626198351383209229 -0.954445540904998779 -0.0603632368147373199
0.684319972991943359 -0.935687482357025146 0.10709264874458313
0.609614133834838867 -0.540032327175140381 0.937260627746582031
0.966167092323303223 0.568597733974456787 0.0799486488103866577
0.785216987133026123 0.821179747581481934 0.623088061809539795
-0.613664567470550537 0.726932108402252197 0.866887867450714111
-0.835351765155792236 0.441547125577926636 -0.827629208564758301
0.954223215579986572 -0.574498593807220459 0.448432385921478271
-0.992581605911254883 0.317184865474700928 -0.275385022163391113
0.0972988158464431763 0.993801355361938477 -0.141586720943450928
-0.510687589645385742 0.975938916206359863 0.10403326153755188
0.873477756977081299 0.791825234889984131 0.111185863614082336
-0.81248772144317627 -0.212438762187957764 0.861238300800323486
0.96258920431137085 0.224884092807769775 -0.583820641040802002
0.982469081878662109 -0.387592792510986328 -0.381659358739852905
0.521341919898986816 0.97796255350112915 -0.099431358277797699
-0.994396686553955078 0.0984256863594055176 -0.179480090737342834
0.198227971792221069 0.635028243064880371 -0.952481329441070557
-0.953321278095245361 -0.624417901039123535 0.168790742754936218
0.972359120845794678 0.179335281252861023 -0.547976672649383545
0.970782220363616943 -0.56210017204284668 0.0982565358281135559
-0.075707264244556427 -0.070093892514705658 0.997686862945556641
-0.239591628313064575 -0.931098282337188721 -0.690147101879119873
-0.532145440578460693 -0.829286634922027588 -0.809714198112487793
-0.376392126083374023 0.466944277286529541 0.980984389781951904
-0.0414493046700954437 0.993938565254211426 0.287045180797576904
0.28249850869178772 0.993284285068511963 -0.0979245752096176147
-0.888291537761688232 -0.538971364498138428 -0.723278403282165527
-0.820250332355499268 0.846876263618469238 -0.343471437692642212
0.871892452239990234 0.320811212062835693 -0.79030907154083252
-0.820178568363189697 0.265892744064331055 -0.851141273975372314
-0.08325175940990448 -0.0629760846495628357 -0.998789072036743164
0.980040788650512695 -0.473466783761978149 0.215344339609146118
-0.997476041316986084 0.167332366108894348 -0.245735093951225281
-0.0811068266630172729 -0.0166518688201904297 -0.998701155185699463
-0.909843325614929199 0.282365530729293823 -0.729591310024261475
0.101209819316864014 0.984421253204345703 0.443852692842483521
-0.31796613335609436 0.932822108268737793 -0.684016644954681396
-0.986604392528533936 -0.397358685731887817 0.219636395573616028
0.579155385494232178 -0.452778220176696777 -0.955311119556427002
-0.100192084908485413 0.596532821655273438 -0.963719367980957031
-0.301590114831924438 -0.678661644458770752 -0.935821413993835449
-0.186843946576118469 0.793176710605621338 -0.876283824443817139
0.973419487476348877 0.548450946807861328 -0.0453363806009292603
-0.79870903491973877 0.849446594715118408 0.48550879955291748
-0.543436646461486816 0.909827232360839844 -0.677833080291748047
-0.705903112888336182 0.912365913391113281 0.430458486080169678
0.436866462230682373 -0.94977259635925293 0.605724811553955078
0.443845570087432861 0.785784125328063965 -0.868174433708190918
-0.0315850824117660522 0.959797978401184082 0.602239847183227539
0.641070365905761719 -0.95082390308380127 0.0906344503164291382
-0.0592078864574432373 -0.885718405246734619 -0.78286433219909668
0.293080180883407593 -0.912569105625152588 -0.738608956336975098
-0.959256172180175781 0.338754922151565552 -0.582473874092102051
0.546962976455688477 -0.95171588659286499 -0.513374865055084229
0.399625658988952637 -0.547272205352783203 -0.966033816337585449
-0.688241302967071533 -0.934372365474700928 -0.00568483071401715279
0.29628068208694458 0.223710045218467712 -0.994442403316497803
0.58491283655166626 0.859206020832061768 -0.756677091121673584
0.994150876998901367 0.321115434169769287 -0.0908304229378700256
-0.465552598237991333 -0.574686169624328613 0.95451056957244873
-0.866456151008605957 -0.800118744373321533 0.255346626043319702
0.742683291435241699 0.0133103299885988235 -0.910653173923492432
-0.25702977180480957 -0.904220044612884521 -0.749794602394104004
0.965019166469573975 0.571571409702301025 0.36995619535446167
-0.316571921110153198 0.993545830249786377 0.236715212464332581
0.255186140537261963 -0.0636086240410804749 -0.995095670223236084
0.755032062530517578 0.715574026107788086 -0.794635593891143799
0.586419939994812012 0.293310970067977905 -0.965525031089782715
-0.935382604598999023 -0.282525449991226196 -0.669601380825042725
-0.532965660095214844 -0.729592084884643555 -0.887867629528045654
-0.32807573676109314 0.827514827251434326 -0.843719482421875
0.990337014198303223 0.265567094087600708 0.34234929084777832
-0.546067357063293457 0.160777494311332703 -0.973981022834777832
0.185474798083305359 -0.826716780662536621 0.847159206867218018
-0.393991410732269287 -0.992797970771789551 -0.0393090024590492249
-0.493850469589233398 -0.744033455848693848 -0.888771951198577881
0.725059807300567627 -0.548539400100708008 0.889946341514587402
0.982119321823120117 0.407302051782608032 -0.386900812387466431
0.210366681218147278 -0.917981505393981934 -0.726244747638702393
-0.983362436294555664 0.47661060094833374 -0.102053984999656677
0.18194890022277832 -0.151166915893554688 -0.995699763298034668
-0.879922091960906982 0.762144804000854492 -0.47938576340675354
0.17893451452255249 0.99820554256439209 -0.153655692934989929
0.582502603530883789 0.966776192188262939 -0.119648642838001251
-0.132620170712471008 -0.759002447128295898 -0.901171565055847168
-0.015289895236492157 -0.993778347969055176 0.315315932035446167
0.286357879638671875 0.256175756454467773 0.996412873268127441
0.842789530754089355 -0.338455736637115479 -0.830694377422332764
0.0553444176912307739 -0.301053404808044434 -0.994619965553283691
-0.817187905311584473 -0.533757805824279785 -0.820801079273223877
0.353620767593383789 0.983907222747802734 -0.396588534116744995
-0.139306455850601196 0.820825695991516113 0.854191124439239502
-0.345992386341094971 0.992732048034667969 -0.177057370543479919
0.666311264038085938 -0.942368745803833008 0.0318384803831577301
0.89499896764755249 0.721767663955688477 0.50169682502746582
0.962752461433410645 -0.0418517030775547028 -0.607110559940338135
-0.976196646690368652 -0.521753489971160889 0.14106634259223938
0.91751861572265625 0.558219373226165771 -0.651608586311340332
-0.313284456729888916 0.90002971887588501 -0.749113023281097412
-0.662634432315826416 -0.944734394550323486 -0.221014633774757385
0.938275039196014404 0.629406869411468506 -0.478778362274169922
0.767358720302581787 0.212002351880073547 0.89489978551864624
0.429496824741363525 0.979837238788604736 -0.437174052000045776
0.21958373486995697 0.700250804424285889 -0.930709481239318848
-0.729998588562011719 0.387125402688980103 -0.907613158226013184
-0.422053515911102295 0.987206697463989258 0.184395536780357361
0.87879180908203125 -0.361267060041427612 -0.779405415058135986
-0.136469349265098572 -0.771475255489349365 -0.893619120121002197
-0.711128652095794678 0.919869780540466309 -0.198796138167381287
0.474811047315597534 0.985112488269805908 -0.146416410803794861
-0.161393105983734131 0.132114723324775696 0.997686862945556641
0.62531048059463501 -0.452824026346206665 -0.942808151245117188
0.986506521701812744 -0.241814479231834412 -0.395059645175933838
0.0940189734101295471 -0.990629673004150391 -0.38816872239112854
0.741464376449584961 0.909132599830627441 -0.00617697788402438164
-0.131518393754959106 -0.768351256847381592 -0.893827199935913086
0.991004586219787598 -0.0595344863831996918 -0.302197813987731934
0.925808846950531006 0.271010160446166992 -0.702617824077606201
0.623005092144012451 -0.911219477653503418 -0.611318826675415039
0.38810807466506958 0.13448721170425415 -0.990848243236541748
-0.432232081890106201 0.572726845741271973 0.957852542400360107
-0.834534883499145508 0.779300212860107422 -0.605343520641326904
-0.995710670948028564 -0.0819126218557357788 -0.120536781847476959
-0.348483234643936157 0.985874772071838379 -0.314558833837509155
0.0266783051192760468 -0.00116903847083449364 -0.997808516025543213
-0.775557756423950195 0.163198292255401611 -0.887280941009521484
-0.966598749160766602 0.205646827816963196 -0.565255045890808105
0.457404673099517822 0.680204272270202637 -0.923092246055603027
0.950233280658721924 -0.636932253837585449 -0.138695180416107178
0.0466172024607658386 -0.853614568710327148 -0.81874769926071167
-0.353016823530197144 -0.367782533168792725 -0.989141583442687988
-0.502345800399780273 0.978380680084228516 -0.14061109721660614
-0.759271979331970215 -0.771171867847442627 -0.743723928928375244
-0.937260270118713379 -0.0930092036724090576 -0.673518836498260498
-0.994605004787445068 0.290512382984161377 -0.0547787770628929138
-0.534334182739257812 -0.716890454292297363 0.895520329475402832
-0.834943294525146484 0.839261710643768311 -0.244187042117118835
0.957807362079620361 -0.164153426885604858 0.606908798217773438
0.00640723155811429024 0.503352224826812744 -0.981177806854248047
0.559514522552490234 0.969651877880096436 -0.251358062028884888
-0.0254947878420352936 -0.0689809024333953857 -0.998574912548065186
-0.987472772598266602 0.352420687675476074 -0.249866202473640442
0.38973313570022583 -0.270810931921005249 0.989203333854675293
0.550531923770904541 -0.90075075626373291 0.700607359409332275
0.352999359369277954 0.0148302949965000153 -0.994056880474090576
0.913987100124359131 -0.724871814250946045 -0.152179643511772156
0.228031828999519348 0.989869058132171631 -0.369847089052200317
-0.461517751216888428 -0.653774857521057129 0.934930920600891113
-0.44937896728515625 -0.72890317440032959 -0.901276886463165283
0.768878579139709473 0.247279837727546692 0.892990529537200928
-0.873551845550537109 0.0274181794375181198 0.799792706966400146
-0.962597429752349854 -0.590368926525115967 -0.145790144801139832
0.0160124283283948898 -0.0560808852314949036 -0.99843066930770874
-0.54123234748840332 0.0300612319260835648 0.97695237398147583
-0.936650395393371582 0.674648404121398926 0.302682161331176758
0.222399652004241943 -0.478885620832443237 0.98307567834854126
0.0233644992113113403 -0.988930761814117432 -0.409288078546524048
0.771242737770080566 0.474540859460830688 -0.874109566211700439
0.979905545711517334 0.470285415649414062 0.306066155433654785
0.996430754661560059 -0.032962460070848465 -0.0518481619656085968
0.532416582107543945 -0.973115861415863037 0.0546736381947994232
0.908157825469970703 0.7348594069480896 -0.326812863349914551
-0.966992020606994629 0.550921261310577393 -0.249649599194526672
0.595129847526550293 0.779076218605041504 -0.836642861366271973
-0.496986150741577148 0.817938566207885742 0.829370200634002686
-0.904184043407440186 -0.745765745639801025 -0.103649653494358063
-0.944264411926269531 -0.480692535638809204 -0.59745711088180542
-0.993283629417419434 -0.211992219090461731 0.370560735464096069
0.984100878238677979 0.442874610424041748 -0.286945760250091553
0.98240053653717041 -0.464688539505004883 0.281510204076766968
-0.450368374586105347 0.112660758197307587 -0.986797511577606201
-0.730047821998596191 -0.351735502481460571 -0.911979198455810547
0.405778378248214722 -0.61244654655456543 0.951327919960021973
0.490867078304290771 -0.437528312206268311 -0.97147667407989502
0.850593209266662598 0.819820523262023926 0.105962418019771576
0.896355807781219482 -0.741362631320953369 0.412365645170211792
-0.992522954940795898 0.316343337297439575 0.0404024943709373474
-0.388229668140411377 -0.520095348358154297 0.972916007041931152
0.0135870268568396568 0.0110931415110826492 -0.997715771198272705
-0.891377687454223633 0.766938507556915283 0.0509852804243564606
-0.389315098524093628 0.871265947818756104 0.787391364574432373
-0.0773577019572257996 -0.960201919078826904 -0.610400021076202393
-0.71739041805267334 -0.850491940975189209 -0.672263860702514648
0.180542603135108948 -0.985635817050933838 -0.454870253801345825
0.762756049633026123 -0.703741908073425293 -0.792962074279785156
-0.997150242328643799 0.0912894830107688904 -0.0432165190577507019
-0.404099106788635254 -0.387841194868087769 -0.983972489833831787
-0.0940528139472007751 0.996633768081665039 -0.00924827810376882553
-0.187124073505401611 -0.873626291751861572 0.80077892541885376
0.240758195519447327 0.993991613388061523 -0.204173073172569275
-0.69658273458480835 -0.928159773349761963 -0.0257655177265405655
0.955264508724212646 0.283711403608322144 0.61354529857635498
-0.349814325571060181 0.990062236785888672 -0.302040517330169678
-0.639992296695709229 0.0319039225578308105 0.951433777809143066
0.0612245500087738037 -0.00795456953346729279 -0.997754752635955811
0.149841248989105225 -0.446527928113937378 0.986172795295715332
-0.979797840118408203 -0.00700746523216366768 0.507323145866394043
-0.540979862213134766 -0.972055971622467041 -0.128576114773750305
0.489148616790771484 -0.963123857975006104 -0.515978395938873291
-0.977077245712280273 -0.115571402013301849 0.518550276756286621
0.0249070450663566589 -0.0339515097439289093 0.997686862945556641
-0.979299962520599365 0.500431597232818604 -0.192381501197814941
0.465177834033966064 -0.32764512300491333 0.982462227344512939
0.982317864894866943 -0.45476570725440979 0.357936561107635498
-0.604651212692260742 0.876257002353668213 0.714337706565856934
-0.0386660546064376831 0.989118218421936035 -0.405367106199264526
-0.80094444751739502 -0.864842891693115234 0.311272352933883667
-0.163286849856376648 -0.989857375621795654 0.410437136888504028
-0.219405859708786011 0.221631541848182678 -0.995040655136108398
-0.165026202797889709 0.652123630046844482 0.94819033145904541
-0.388595402240753174 -0.941066980361938477 -0.660291731357574463
0.91305309534072876 -0.167773619294166565 -0.74022984504699707
0.0240482650697231293 -0.0381305143237113953 -0.99824988842010498
0.555233478546142578 -0.860853791236877441 0.759757399559020996
-0.948430299758911133 -0.378931701183319092 -0.625719428062438965
0.96911919116973877 0.233898431062698364 -0.551277995109558105
-0.732876181602478027 0.199287191033363342 -0.914705574512481689
0.992834925651550293 0.230961114168167114 0.275759845972061157
-0.738025963306427002 0.814600706100463867 -0.701543986797332764
-0.788579285144805908 0.882706761360168457 -0.155275747179985046
-0.699446439743041992 0.0956626981496810913 -0.930899262428283691
-0.435057580471038818 0.984910130500793457 0.294320791959762573
0.882470905780792236 -0.784496188163757324 -0.0609741136431694031
0.627408146858215332 -0.900395333766937256 -0.643023967742919922
-0.659973204135894775 -0.869385600090026855 -0.680658400058746338
-0.605638802051544189 -0.872848331928253174 -0.72293555736541748
0.917043626308441162 0.0326503627002239227 -0.725534200668334961
-0.166370153427124023 -0.23203626275062561 0.997686862945556641
0.209622129797935486 -0.996103048324584961 0.00485675642266869545
-0.846652865409851074 -0.564017951488494873 0.777511537075042725
0.945009887218475342 0.205823346972465515 -0.657899320125579834
0.202298879623413086 0.298993557691574097 -0.994475901126861572
0.15535910427570343 -0.124347135424613953 -0.996027350425720215
0.458425462245941162 -0.957160651683807373 -0.552805244922637939
0.993073523044586182 -0.0119257643818855286 -0.221401423215866089
0.0808014646172523499 -0.331716388463973999 -0.993254482746124268
0.942921698093414307 0.320618003606796265 -0.659404873847961426
-0.97955632209777832 -0.494956374168395996 -0.0886730924248695374
0.989870309829711914 -0.389065027236938477 -0.0831527411937713623
0.0155865643173456192 0.99512636661529541 0.113278530538082123
0.924689173698425293 -0.103537857532501221 -0.705104351043701172
0.0354603230953216553 0.83036118745803833 -0.846121609210968018
0.749393701553344727 0.220854729413986206 0.90389549732208252
0.884034216403961182 0.732847094535827637 -0.529798686504364014
0.980999529361724854 -0.21931535005569458 -0.469051927328109741
-0.958325862884521484 0.619280695915222168 -0.136541858315467834
0.560593843460083008 0.949293076992034912 0.504528224468231201
0.643251001834869385 -0.948065459728240967 0.0676496997475624084
-0.569939672946929932 -0.89383167028427124 -0.698235571384429932
0.99822312593460083 0.0023793212603777647 -0.114849761128425598
0.927371323108673096 -0.466100424528121948 -0.668475210666656494
0.906907796859741211 0.734193801879882812 -0.323346525430679321
-0.353727549314498901 -0.971159398555755615 0.516713500022888184
0.117975488305091858 0.0562268160283565521 -0.999103724956512451
0.491357713937759399 0.661519944667816162 0.926963746547698975
-0.994145214557647705 0.295542329549789429 -0.102760285139083862
0.789122402667999268 -0.874738395214080811 -0.163687348365783691
0.785377264022827148 -0.878759205341339111 0.0871089249849319458
-0.742743194103240967 0.733587384223937988 0.795669496059417725
-0.794857382774353027 -0.872145950794219971 -0.022118760272860527
0.326355904340744019 -0.901255011558532715 0.743576467037200928
0.830657303333282471 -0.845214366912841797 -0.151119932532310486
-0.743664264678955078 0.107977941632270813 -0.908027887344360352
-0.249410718679428101 0.993687033653259277 0.33695414662361145
0.179650411009788513 0.999152481555938721 -0.0264448020607233047
0.975382447242736816 0.523502051830291748 0.087360776960849762
-0.854373514652252197 -0.522123456001281738 -0.782586932182312012
-0.300134509801864624 0.446569263935089111 -0.98748546838760376
0.989193081855773926 0.417365014553070068 -0.0677938461303710938
0.76693570613861084 -0.892185628414154053 0.225438758730888367
-0.362775832414627075 0.990502297878265381 -0.165315896272659302
0.0275011602789163589 0.00114919804036617279 -0.997544348239898682
0.713889777660369873 0.874462485313415527 -0.617417395114898682
-0.481449604034423828 0.964875578880310059 -0.499491184949874878
-0.195847108960151672 -0.997067630290985107 -0.0920878499746322632
-0.421328872442245483 -0.093209780752658844 -0.990499734878540039
0.302633672952651978 0.308715969324111938 0.99312126636505127
-0.920468389987945557 -0.701904296875 -0.314445734024047852
0.702048957347869873 -0.922504782676696777 -0.332566052675247192
0.535405337810516357 -0.200603365898132324 0.977518618106842041
-0.768762290477752686 -0.894627988338470459 -0.0185449663549661636
0.073723427951335907 0.991158187389373779 -0.308858901262283325
-0.845162332057952881 -0.824602782726287842 0.350952118635177612
-0.980263948440551758 0.116847187280654907 -0.487356185913085938
-0.608665049076080322 0.107067003846168518 -0.961117386817932129
0.850992739200592041 0.806031525135040283 -0.454578101634979248
-0.620823442935943604 -0.326523751020431519 -0.953321397304534912
-0.422891348600387573 0.521997034549713135 -0.970696687698364258
0.748938441276550293 -0.839076220989227295 -0.647329568862915039
0.306782335042953491 -0.779845595359802246 -0.883315086364746094
0.719599723815917969 0.880425691604614258 -0.587588667869567871
-0.949944257736206055 -0.302277624607086182 -0.636820733547210693
-0.9815712571144104 0.300930619239807129 0.456429988145828247
0.778888285160064697 -0.17631809413433075 -0.88508903980255127
0.739997565746307373 -0.908289253711700439 0.230054065585136414
-0.889997541904449463 -0.132849812507629395 -0.777808725833892822
0.946275234222412109 0.647703289985656738 0.00109294324647635221
-0.883438766002655029 0.114993661642074585 -0.781580150127410889
0.98993217945098877 -0.145535960793495178 -0.329650908708572388
0.394789546728134155 0.988942086696624756 -0.129663676023483276
-0.981218218803405762 -0.304811745882034302 -0.43615606427192688
0.6188201904296875 0.279337793588638306 -0.958270549774169922
0.830506801605224609 -0.479905813932418823 0.821458339691162109
-0.689934372901916504 -0.851682007312774658 -0.69073951244354248
-0.608665585517883301 -0.94321054220199585 0.478218406438827515
0.951958894729614258 0.285381346940994263 0.624831616878509521
0.835092306137084961 -0.00422758935019373894 -0.842325270175933838
-0.89875030517578125 -0.759417831897735596 0.0207465197890996933
0.1524210125207901 -0.346143543720245361 -0.994098126888275146
-0.0676666796207427979 -0.131385505199432373 0.997686862945556641
-0.00516615854576230049 0.693485736846923828 -0.93151777982711792
-0.992172718048095703 0.0480782017111778259 -0.321360081434249878
-0.585836648941040039 0.899093389511108398 0.684763252735137939
0.0300686992704868317 0.994877755641937256 0.0659657791256904602
0.932374894618988037 0.697273790836334229 -0.0836535096168518066
-0.275934368371963501 -0.207226976752281189 0.997686862945556641
0.10477844625711441 -0.108698256313800812 -0.999191641807556152
-0.829827785491943359 0.746018588542938232 0.663702666759490967
-0.559940338134765625 -0.963659226894378662 -0.366857439279556274
-0.732055246829986572 0.10672297328710556 0.913186788558959961
0.960448980331420898 -0.290457814931869507 -0.603967487812042236
-0.523058831691741943 0.975433290004730225 -0.0457564964890480042
0.476303577423095703 -0.57441335916519165 0.953172683715820312
-0.990019500255584717 -0.297124296426773071 0.272863686084747314
0.982951819896697998 -0.457723915576934814 0.205432027578353882
-0.501323044300079346 0.661363363265991211 -0.924029767513275146
0.359613806009292603 -0.423355042934417725 -0.984043002128601074
-0.763544321060180664 0.236340701580047607 -0.894794702529907227
-0.927270889282226562 -0.120021045207977295 -0.699429154396057129
0.0400480851531028748 -0.0588790066540241241 -0.997200191020965576
-0.182501047849655151 -0.808975636959075928 -0.861445009708404541
0.0219384655356407166 0.00429673446342349052 0.997686862945556641
0.993591427803039551 0.0265213847160339355 -0.275954395532608032
-0.35862278938293457 -0.458926171064376831 -0.980542182922363281
-0.995477676391601562 -0.173260673880577087 -0.0634028464555740356
0.0427364856004714966 0.597091495990753174 -0.965154528617858887
-0.819569885730743408 -0.853341162204742432 -0.175278246402740479
-0.709662258625030518 -0.713928580284118652 -0.826333403587341309
0.138554409146308899 0.078146807849407196 0.997686862945556641
-0.522806286811828613 -0.952408850193023682 -0.544484376907348633
-0.824530720710754395 -0.818652749061584473 -0.530079543590545654
0.65550076961517334 0.941580355167388916 0.326946854591369629
-0.981134176254272461 -0.402515381574630737 -0.400918364524841309
-0.610952138900756836 0.518848896026611328 -0.938181817531585693
-0.853816390037536621 0.807890415191650391 -0.34829142689704895
-0.981696128845214844 0.1551523357629776 0.462188273668289185
0.976225972175598145 0.444654643535614014 -0.399329721927642822
0.925628721714019775 -0.596853733062744141 -0.60540693998336792
0.66872018575668335 -0.550717771053314209 -0.9138527512550354
0.0318727865815162659 0.427233189344406128 -0.989238083362579346
0.711261391639709473 -0.472938656806945801 -0.907784700393676758
0.837851941585540771 0.425226658582687378 0.825082778930664062
0.0249559395015239716 0.132377222180366516 -0.999245524406433105
0.359299689531326294 0.246025368571281433 -0.991347551345825195
0.0671881437301635742 0.996567428112030029 -0.0937659367918968201
0.449084222316741943 0.777832090854644775 0.874262869358062744
-0.105963945388793945 -0.440253794193267822 0.986751377582550049
0.914075851440429688 -0.458645850419998169 -0.701971113681793213
-0.351470679044723511 -0.884761989116668701 0.769922137260437012
0.359732747077941895 -0.942932307720184326 -0.652587831020355225
0.983047366142272949 0.139212101697921753 -0.463369399309158325
0.246181681752204895 -0.820662736892700195 -0.857358634471893311
0.56032031774520874 -0.681022107601165771 -0.907948553562164307
0.502574026584625244 0.972192764282226562 -0.350961208343505859
0.631273508071899414 0.118697360157966614 0.953556656837463379
-0.317877471446990967 0.91883242130279541 0.714180469512939453
-0.16922430694103241 -0.493383258581161499 -0.980721175670623779
-0.23709501326084137 -0.995098650455474854 -0.122444115579128265
-0.659260809421539307 0.613774538040161133 -0.898624420166015625
-0.995361030101776123 -0.121461763978004456 0.127865210175514221
-0.539560973644256592 -0.97206193208694458 -0.231894850730895996
-0.765022337436676025 -0.81820446252822876 0.66397780179977417
-0.815162956714630127 -0.761519908905029297 0.672324180603027344
-0.161127358675003052 -0.993658721446990967 -0.278760910034179688
0.35682976245880127 0.97250598669052124 -0.501940608024597168
0.1799459308385849 0.46402287483215332 -0.987532973289489746
0.31789696216583252 0.368261158466339111 -0.991913437843322754
-0.798598706722259521 -0.795734524726867676 -0.645008742809295654
0.909922957420349121 0.729916989803314209 -0.3485909104347229
0.0985117480158805847 -0.994784712791442871 -0.0604323409497737885
-0.246653318405151367 -0.366255879402160645 -0.99105149507522583
