ply
format ascii 1.0
element vertex 740
property float x
property float y
property float z
end_header
-0.984762907028198242 -0.137750715017318726 -0.0709048360586166382
-0.511660456657409668 -0.431945353746414185 -0.940988779067993164
0.0105016389861702919 0.0462130159139633179 -0.998283445835113525
-0.440267026424407959 -0.892307043075561523 -0.145434588193893433
0.310025274753570557 0.31883704662322998 0.98638451099395752
-0.243291765451431274 0.946242094039916992 0.508438169956207275
-0.69717782735824585 0.192043736577033997 -0.922193050384521484
0.748528420925140381 0.454001158475875854 -0.791709184646606445
-0.698965787887573242 -0.709802329540252686 -0.0959531664848327637
-0.482569038867950439 -0.729673027992248535 -0.793909370899200439
-0.579732775688171387 -0.766912937164306641 -0.594252884387969971
-0.319365084171295166 0.327564120292663574 -0.987939953804016113
-0.897599339485168457 -0.425917953252792358 0.0534403435885906219
-0.965094804763793945 0.196056768298149109 -0.450721204280853271
0.470897942781448364 -0.873011767864227295 -0.323725759983062744
0.732764184474945068 -0.651386737823486328 -0.473633706569671631
-0.591992557048797607 0.39603838324546814 -0.922888517379760742
-0.20595744252204895 -0.250531822443008423 -0.994367778301239014
-0.187389463186264038 -0.974949359893798828 -0.212017551064491272
0.668649017810821533 -0.610934972763061523 -0.745731234550476074
-0.569230139255523682 0.218415111303329468 -0.961086153984069824
0.994688868522644043 -0.0186492074280977249 -0.0988239273428916931
-0.681146502494812012 0.724014461040496826 -0.0674316510558128357
-0.411349833011627197 -0.8675728440284729 -0.589127659797668457
0.125124290585517883 0.984675049781799316 0.0977588295936584473
0.553170382976531982 -0.769267559051513672 -0.659704387187957764
0.0553713776171207428 -0.97243267297744751 -0.523674190044403076
0.772570013999938965 -0.522825777530670166 0.691744625568389893
0.143575102090835571 -0.977484703063964844 -0.374420911073684692
0.642001748085021973 -0.671359777450561523 0.703558504581451416
0.458360821008682251 0.00642073014751076698 -0.985528469085693359
0.449011653661727905 -0.770900726318359375 0.766328394412994385
0.962914109230041504 -0.162314161658287048 -0.522146463394165039
-0.679935812950134277 -0.0500418990850448608 -0.937256038188934326
0.809316098690032959 0.38855355978012085 -0.758348464965820312
0.536940991878509521 0.181649312376976013 -0.968961119651794434
-0.0789075717329978943 -0.149653613567352295 -0.9996451735496521
-0.444923847913742065 0.427987009286880493 -0.959351658821105957
0.69862067699432373 0.667836844921112061 -0.561771094799041748
-0.0677320510149002075 0.059582248330116272 -0.996865987777709961
0.952463746070861816 -0.254754483699798584 0.446719169616699219
0.732499778270721436 0.672832131385803223 0.0332533344626426697
-0.0862058103084564209 0.617093145847320557 -0.95819544792175293
-0.485372096300125122 0.549743592739105225 -0.913952291011810303
-0.771871328353881836 0.325293838977813721 -0.8356209397315979
0.419809848070144653 0.266175240278244019 -0.982239425182342529
0.644776225090026855 0.757964193820953369 0.00804091896861791611
-0.49126705527305603 -0.684155046939849854 0.830450713634490967
-0.909380674362182617 -0.312351435422897339 0.601519763469696045
0.455560773611068726 0.299010664224624634 -0.974080860614776611
0.458303153514862061 -0.735203683376312256 0.8074149489402771
-0.094689294695854187 0.266564667224884033 -0.995305061340332031
-0.162544921040534973 -0.49673876166343689 0.979885697364807129
0.947495222091674805 -0.315072447061538696 -0.16993461549282074
-0.255304604768753052 0.960078060626983643 -0.0705284476280212402
-0.403726190328598022 0.535196900367736816 -0.940548181533813477
0.0106723066419363022 0.994178295135498047 -0.217774346470832825
0.489922106266021729 -0.340472310781478882 -0.965285778045654297
0.637605965137481689 -0.705657362937927246 -0.63315427303314209
-0.564394652843475342 -0.770299017429351807 0.62068551778793335
0.278954416513442993 0.671362161636352539 0.916272759437561035
-0.27035948634147644 -0.896294891834259033 -0.678438425064086914
-0.85318225622177124 -0.031623300164937973 0.821253538131713867
0.494921267032623291 -0.517781436443328857 0.921524345874786377
-0.192516908049583435 0.973149895668029785 0.214278116822242737
0.831081092357635498 0.220990583300590515 -0.81152188777923584
-0.858485937118530273 0.404506534337997437 0.634975314140319824
0.628581881523132324 0.107548415660858154 0.951685428619384766
-0.0406417250633239746 -0.992157936096191406 0.18395666778087616
0.787681996822357178 -0.605819046497344971 0.0892803296446800232
-0.480229437351226807 0.745429515838623047 0.773785948753356934
-0.779446601867675781 0.156417042016983032 -0.872656583786010742
-0.253804266452789307 0.360430359840393066 -0.988681197166442871
-0.615170717239379883 -0.768082261085510254 -0.49146232008934021
-0.351278871297836304 -0.925880491733551025 -0.25328788161277771
-0.950025975704193115 0.256484866142272949 -0.452473849058151245
0.932174444198608398 -0.326530963182449341 -0.418528348207473755
0.843631744384765625 -0.455615460872650146 -0.6005706787109375
0.427422195672988892 -0.530681133270263672 0.939386725425720215
-0.582426905632019043 -0.30791550874710083 -0.944449007511138916
-0.684447050094604492 0.646037161350250244 0.662404358386993408
0.506942987442016602 -0.106547653675079346 -0.978492438793182373
0.176511213183403015 0.726643562316894531 0.904380917549133301
-0.66070258617401123 -0.387103289365768433 -0.893047094345092773
0.728776693344116211 0.5211295485496521 -0.763154387474060059
0.174636885523796082 -0.039816591888666153 0.997686862945556641
-0.974961936473846436 -0.190101325511932373 0.0553268902003765106
-0.576986074447631836 -0.463466227054595947 -0.911771714687347412
0.298057675361633301 0.917363584041595459 -0.569084703922271729
0.611890554428100586 0.783416688442230225 -0.0181430596858263016
0.276435315608978271 -0.295796334743499756 0.989675760269165039
0.510584414005279541 0.46017301082611084 0.936779916286468506
-0.934287726879119873 0.0930752083659172058 -0.670210659503936768
0.7989310622215271 0.588864564895629883 -0.170638188719749451
0.347882956266403198 0.704313814640045166 -0.881584107875823975
0.857674956321716309 0.490418761968612671 -0.365833878517150879
0.734713315963745117 -0.667496383190155029 0.0860062688589096069
-0.628048479557037354 0.672993600368499756 -0.71417534351348877
0.235806688666343689 0.646021842956542969 -0.933391094207763672
-0.414184778928756714 -0.013512476347386837 0.988912761211395264
-0.19506305456161499 -0.970058739185333252 -0.395484715700149536
0.595885515213012695 0.797769725322723389 -0.128327742218971252
-0.375016599893569946 0.856494724750518799 -0.67599332332611084
0.717441320419311523 -0.685937762260437012 0.244320794939994812
-0.14509989321231842 -0.818126320838928223 -0.844858050346374512
-0.0473542697727680206 0.394563853740692139 -0.993573129177093506
0.169562339782714844 -0.136107310652732849 0.997686862945556641
-0.559581875801086426 0.644711852073669434 -0.818273842334747314
-0.961050868034362793 0.252295494079589844 -0.273627042770385742
0.440536737442016602 -0.264287501573562622 -0.978306591510772705
0.869317591190338135 -0.469325512647628784 -0.358561158180236816
-0.446201503276824951 0.848246276378631592 -0.598580360412597656
0.454821884632110596 -0.711007475852966309 0.829895436763763428
0.748547911643981934 -0.135183319449424744 0.897953510284423828
-0.366488158702850342 -0.777133584022521973 0.815376818180084229
-0.440639108419418335 -0.80641251802444458 -0.716475486755371094
-0.363809019327163696 0.498429656028747559 -0.959658026695251465
0.240335926413536072 0.661208868026733398 -0.930125951766967773
-0.993343234062194824 0.0521186180412769318 -0.134146034717559814
-0.952115476131439209 -0.149454474449157715 -0.588966131210327148
0.335536569356918335 0.00179996888618916273 -0.994254529476165771
0.0601440221071243286 0.63378530740737915 0.952049374580383301
-0.286924064159393311 -0.953748106956481934 0.271388053894042969
-0.716737806797027588 0.569786310195922852 0.726942002773284912
-0.0195901580154895782 0.992245674133300781 0.166510194540023804
0.0492133945226669312 0.0359080992639064789 -0.99723285436630249
-0.222258567810058594 -0.642974257469177246 0.940876245498657227
0.680289149284362793 0.719392895698547363 -0.313788503408432007
-0.721394002437591553 -0.628629624843597412 0.617120146751403809
-0.860714375972747803 0.492741644382476807 0.321286678314208984
-0.538574397563934326 0.830478250980377197 -0.326880037784576416
-0.994652986526489258 0.00213407864794135094 -0.224148884415626526
0.249578401446342468 0.377472460269927979 -0.986450910568237305
-0.0275925081223249435 -0.00149851455353200436 0.997686862945556641
-0.179133594036102295 0.530062675476074219 -0.972297251224517822
0.714218854904174805 -0.693219006061553955 -0.310589820146560669
-0.867973446846008301 0.486055374145507812 -0.223821982741355896
-0.140633180737495422 0.968033552169799805 0.510749340057373047
-0.688072323799133301 -0.15308380126953125 -0.928676187992095947
0.302907377481460571 0.300339162349700928 0.987835407257080078
0.111915953457355499 -0.581496775150299072 -0.96431499719619751
0.593153178691864014 -0.22053217887878418 -0.956559419631958008
-0.659834980964660645 0.623441040515899658 -0.738113224506378174
0.391503661870956421 0.914353847503662109 -0.201066240668296814
-0.0457827560603618622 -0.992480695247650146 0.11977946013212204
0.564227759838104248 -0.820526957511901855 -0.294454455375671387
-0.0895348638296127319 0.911696493625640869 0.730109155178070068
-0.974548459053039551 -0.205430984497070312 0.0723780542612075806
0.266347914934158325 0.575530469417572021 -0.95232778787612915
-0.559284329414367676 0.100555680692195892 -0.971211731433868408
0.26751244068145752 -0.393488556146621704 0.98375624418258667
0.658444106578826904 0.404372543096542358 -0.890022039413452148
-0.404938727617263794 0.0849999785423278809 -0.991494655609130859
-0.53518366813659668 -0.837124347686767578 -0.158990845084190369
0.737272441387176514 -0.373432368040084839 -0.851211428642272949
-0.322475016117095947 -0.937616586685180664 0.321748554706573486
0.486725151538848877 0.726497769355773926 -0.795702278614044189
0.181045770645141602 -0.0147710712626576424 -0.999620914459228516
0.0673312172293663025 0.00244905496947467327 -0.997133433818817139
0.920385003089904785 -0.00362564902752637863 -0.715703666210174561
0.731726706027984619 -0.306350588798522949 0.877376317977905273
0.0645228549838066101 0.961678445339202881 -0.580503284931182861
0.116171233355998993 -0.985289990901947021 0.204143807291984558
0.449058562517166138 -0.569561541080474854 -0.921083569526672363
-0.304727107286453247 -0.921693503856658936 -0.540891647338867188
0.944139301776885986 0.0823570340871810913 -0.651952147483825684
-0.618279755115509033 0.689740777015686035 -0.698870420455932617
0.129942506551742554 0.985795378684997559 -0.155705511569976807
-0.0453212372958660126 -0.967425107955932617 -0.555215775966644287
0.668613970279693604 0.568382918834686279 0.796516895294189453
0.983387529850006104 0.150260791182518005 -0.0375482961535453796
-0.97178041934967041 -0.190448954701423645 -0.392360925674438477
-0.662078201770782471 -0.739283740520477295 0.194973140954971313
0.616902470588684082 -0.0849157199263572693 0.956146121025085449
0.743538200855255127 0.638157010078430176 -0.481010198593139648
0.125479847192764282 -0.806565701961517334 -0.855877339839935303
-0.792217910289764404 -0.605507969856262207 -0.0918591395020484924
-0.37256208062171936 -0.495656073093414307 0.956578314304351807
-0.290719151496887207 -0.946932196617126465 -0.405634671449661255
-0.302406013011932373 0.702376961708068848 -0.894106388092041016
-0.618631660938262939 0.776618897914886475 0.142198115587234497
-0.0144444266334176064 -0.9920235276222229 -0.159115344285964966
0.705967068672180176 -0.568617105484008789 -0.747567713260650635
-0.725075125694274902 -0.0971704721450805664 -0.914774417877197266
0.438746988773345947 -0.464556634426116943 0.951568841934204102
-0.812074005603790283 -0.486070096492767334 -0.650566756725311279
-0.0363461673259735107 0.728173792362213135 0.914634108543395996
-0.956728100776672363 -0.0243673138320446014 -0.620248377323150635
0.645923614501953125 -0.754760146141052246 -0.0931295976042747498
-0.310249596834182739 0.277196526527404785 0.988707244396209717
0.143706575036048889 -0.984160840511322021 0.345380336046218872
0.0461059771478176117 -0.297461181879043579 0.997686862945556641
-0.100559264421463013 -0.165706232190132141 0.997686862945556641
-0.353707313537597656 0.191291958093643188 0.989908754825592041
-0.37599596381187439 -0.92034602165222168 0.227469056844711304
0.388929039239883423 -0.908303737640380859 -0.355867952108383179
0.872076153755187988 0.0243732836097478867 -0.795650601387023926
-0.573847472667694092 -0.814587891101837158 0.165866956114768982
-0.897891521453857422 0.421918988227844238 -0.332882016897201538
-0.233127892017364502 -0.963741838932037354 0.364682585000991821
0.976921141147613525 0.196356803178787231 0.133476212620735168
0.208774104714393616 0.953563034534454346 -0.517619073390960693
0.400398403406143188 -0.905051827430725098 -0.294705957174301147
0.313037216663360596 -0.94389498233795166 0.138882696628570557
-0.824213743209838867 0.231140390038490295 -0.818055093288421631
-0.944604635238647461 -0.31866791844367981 0.0662574693560600281
0.0724492445588111877 -0.374863862991333008 -0.99374014139175415
-0.571276545524597168 -0.0684216544032096863 -0.967678844928741455
0.221373647451400757 -0.96856534481048584 -0.111785188317298889
-0.388897180557250977 -0.90418553352355957 -0.475961506366729736
0.931504964828491211 -0.34543958306312561 0.356346458196640015
-0.315819650888442993 -0.896304845809936523 -0.634399950504302979
-0.493978291749954224 -0.470310598611831665 -0.936716258525848389
0.148506000638008118 0.948904514312744141 0.606714725494384766
-0.448559075593948364 -0.885850191116333008 -0.161480575799942017
-0.247806176543235779 0.9621925950050354 0.251305907964706421
-0.879078447818756104 -0.354817837476730347 -0.641466319561004639
-0.422738432884216309 -0.463866889476776123 -0.957862377166748047
0.5843392014503479 -0.8039284348487854 0.360914736986160278
0.0243418067693710327 -0.99379199743270874 -0.0450696051120758057
-0.97018200159072876 0.211648315191268921 0.0257248934358358383
0.588101625442504883 -0.746477305889129639 -0.651272177696228027
0.00848710536956787109 0.00898728147149085999 -0.997758388519287109
-0.858522891998291016 -0.364290982484817505 0.688943386077880859
0.601650893688201904 -0.287672251462936401 -0.943258583545684814
0.85517042875289917 0.459386289119720459 -0.534731149673461914
0.0131474025547504425 -0.592924714088439941 -0.966773748397827148
0.498669207096099854 -0.722342967987060547 -0.786742210388183594
0.613575398921966553 -0.773735523223876953 -0.37176048755645752
0.977772057056427002 -0.193887040019035339 0.11099126935005188
-0.609937787055969238 -0.700745165348052979 -0.697995126247406006
-0.754219174385070801 0.505565226078033447 -0.747577071189880371
-0.768417418003082275 -0.518484592437744141 0.706120193004608154
0.475510239601135254 0.813965141773223877 0.65779423713684082
0.23847787082195282 -0.962641417980194092 -0.314494132995605469
-0.613381683826446533 -0.77312391996383667 0.439861953258514404
-0.176757097244262695 0.943185508251190186 -0.613316237926483154
0.917828500270843506 -0.363150745630264282 -0.431871503591537476
0.175750687718391418 -0.511952102184295654 0.976663291454315186
-0.336586177349090576 0.926873683929443359 0.410148859024047852
-0.198254033923149109 0.831930875778198242 0.818614184856414795
-0.660694420337677002 -0.730106949806213379 0.424284696578979492
0.680968523025512695 -0.711017608642578125 -0.413616031408309937
-0.404258191585540771 -0.476791441440582275 -0.958064675331115723
-0.797699332237243652 0.59007948637008667 -0.298392891883850098
0.953693747520446777 0.251689314842224121 -0.392586708068847656
0.317945629358291626 -0.882166624069213867 -0.681844532489776611
0.861590147018432617 -0.432507872581481934 -0.59574049711227417
-0.36176726222038269 -0.243980899453163147 -0.988813996315002441
-0.0522494390606880188 0.0189521126449108124 -0.997247517108917236
0.517387926578521729 -0.172624215483665466 0.975473701953887939
-0.204805701971054077 -0.971189439296722412 0.339343875646591187
0.361490011215209961 0.84608924388885498 -0.717446982860565186
-0.388475149869918823 0.899201571941375732 0.503680109977722168
-0.48777925968170166 0.865736901760101318 0.282094806432723999
-0.0770235359668731689 0.83615410327911377 -0.837163567543029785
0.502548754215240479 0.79612356424331665 0.658488571643829346
0.946888983249664307 -0.233916863799095154 0.517800211906433105
0.971988558769226074 -0.0458380430936813354 -0.527038037776947021
0.435022652149200439 -0.270386487245559692 -0.978392720222473145
-0.625553727149963379 -0.693506240844726562 -0.688561379909515381
-0.253296762704849243 0.958976089954376221 0.372443288564682007
0.661312222480773926 0.191657662391662598 0.936407029628753662
-0.32990536093711853 -0.928495287895202637 -0.40299069881439209
0.985802292823791504 0.120079942047595978 0.0607672035694122314
-0.836615324020385742 0.468946695327758789 0.599239766597747803
0.454892873764038086 0.884951293468475342 -0.241689488291740417
0.917234420776367188 0.385871559381484985 -0.194668412208557129
-0.693770527839660645 -0.556214809417724609 -0.772094249725341797
0.555133640766143799 -0.824194431304931641 0.364533185958862305
0.978104472160339355 -0.190277382731437683 0.244044408202171326
-0.318187475204467773 -0.93951570987701416 0.232014626264572144
-0.144591256976127625 0.478994101285934448 0.981698393821716309
0.170563220977783203 0.975393354892730713 0.369618922472000122
0.755305945873260498 -0.18459010124206543 -0.885429441928863525
-0.496677130460739136 0.843452751636505127 0.476879030466079712
0.505608320236206055 -0.7849540114402771 0.692445039749145508
-0.574155330657958984 -0.666471421718597412 -0.78528141975402832
0.788217425346374512 0.586833596229553223 0.443219006061553955
-0.50477898120880127 -0.852806925773620605 -0.218528017401695251
-0.15372118353843689 -0.524531126022338867 -0.973876655101776123
-0.0425684750080108643 0.750246167182922363 0.902390778064727783
0.908828377723693848 0.187009617686271667 -0.694664239883422852
-0.271705090999603271 0.116935648024082184 -0.994662225246429443
0.258223623037338257 0.0696321204304695129 -0.994966864585876465
-0.159430831670761108 -0.482835739850997925 0.98099130392074585
0.398720651865005493 -0.910840690135955811 -0.25133204460144043
-0.340892583131790161 -0.932438373565673828 -0.143443107604980469
0.97388225793838501 0.196380972862243652 -0.0160685908049345016
-0.662493407726287842 -0.476443588733673096 -0.861128091812133789
-0.506770670413970947 0.681766986846923828 -0.821685194969177246
0.546263992786407471 -0.725140213966369629 0.740927219390869141
0.938209295272827148 0.263543814420700073 -0.518019020557403564
0.761150896549224854 0.626725733280181885 -0.44066968560218811
-0.223446384072303772 0.554906070232391357 0.961832284927368164
0.981095552444458008 0.111603319644927979 -0.384112119674682617
-0.382566332817077637 -0.699827492237091064 -0.870453119277954102
0.546460509300231934 -0.830399453639984131 0.148305967450141907
-0.364338397979736328 0.786732494831085205 -0.801221787929534912
-0.199333235621452332 0.734309017658233643 -0.8974418044090271
0.959313690662384033 0.252093970775604248 0.336477100849151611
-0.344754725694656372 0.892258942127227783 0.606868743896484375
-0.325754672288894653 -0.810907185077667236 -0.794104337692260742
-0.774947643280029297 -0.615611732006072998 -0.269002437591552734
0.574879467487335205 0.535394966602325439 -0.881675779819488525
0.33715057373046875 -0.938842117786407471 -0.114110574126243591
-0.440898656845092773 -0.891569197177886963 0.242178037762641907
0.253740102052688599 0.112430840730667114 -0.995529413223266602
0.195540517568588257 0.130787849426269531 0.997686862945556641
-0.87560582160949707 -0.465118139982223511 -0.325957238674163818
0.111867263913154602 -0.958913981914520264 -0.577865540981292725
0.95242154598236084 -0.290391117334365845 -0.272583723068237305
-0.632384121417999268 0.0821239352226257324 0.951773226261138916
-0.224090307950973511 -0.145427361130714417 0.997686862945556641
-0.337027490139007568 0.154088854789733887 -0.991583406925201416
0.205687522888183594 -0.693572580814361572 -0.920609474182128906
-0.448790937662124634 0.430780619382858276 0.956368327140808105
-0.097842678427696228 0.134841740131378174 -0.996049284934997559
-0.0603384077548980713 0.881238579750061035 -0.782418787479400635
-0.599523484706878662 0.120432294905185699 -0.959948599338531494
-0.710095584392547607 0.262215912342071533 -0.903605341911315918
-0.00527684669941663742 0.986540913581848145 -0.419087439775466919
0.952490329742431641 -0.0883136466145515442 -0.623138248920440674
-0.0328758098185062408 -0.906558215618133545 -0.745216965675354004
-0.590690970420837402 -0.801777064800262451 -0.222566708922386169
-0.00670709135010838509 0.0732490867376327515 0.997686862945556641
0.0708765387535095215 -0.944344162940979004 0.643821001052856445
-0.569771945476531982 -0.553175210952758789 -0.873461246490478516
0.363585352897644043 0.893680036067962646 -0.583519220352172852
-0.512004375457763672 -0.362478137016296387 -0.957683563232421875
-0.217092961072921753 0.665297210216522217 -0.928606271743774414
-0.688696086406707764 0.705200493335723877 -0.394127070903778076
0.000668888213112950325 0.0839464738965034485 -0.99693530797958374
0.360661894083023071 0.920919895172119141 0.405528396368026733
-0.0646052807569503784 -0.966746866703033447 -0.557443559169769287
-0.440284520387649536 0.864289760589599609 -0.540694892406463623
-0.354908496141433716 -0.882054150104522705 0.633398532867431641
-0.166155904531478882 0.9767417311668396 -0.231740966439247131
0.993766486644744873 0.0677241310477256775 0.247782543301582336
0.0148260742425918579 0.337130337953567505 0.995271146297454834
0.480365365743637085 -0.870441079139709473 0.302378684282302856
0.931760191917419434 -0.318970978260040283 0.420783102512359619
0.294688135385513306 -0.939760982990264893 -0.40959089994430542
-0.208810955286026001 0.907600283622741699 -0.688419938087463379
0.576633095741271973 0.00664055347442626953 -0.969860732555389404
0.788908600807189941 0.603542804718017578 0.148181751370429993
-0.0130734117701649666 0.71720278263092041 -0.920735836029052734
-0.954662084579467773 -0.266289979219436646 -0.324328482151031494
0.738761842250823975 0.664934456348419189 -0.167450055480003357
-0.185894429683685303 0.498927414417266846 -0.97585529088973999
0.0342941693961620331 -0.197851061820983887 -0.995692789554595947
0.739500701427459717 0.446957588195800781 0.809432685375213623
-0.27493855357170105 -0.932214856147766113 0.545623958110809326
-0.391138762235641479 0.76831209659576416 -0.807224631309509277
0.229828968644142151 -0.108266651630401611 -0.995110273361206055
-0.973043560981750488 0.161251917481422424 -0.384156525135040283
-0.805991828441619873 0.350714832544326782 -0.789947748184204102
0.983388662338256836 -0.0883347243070602417 -0.381826430559158325
-0.269034385681152344 -0.957933127880096436 -0.0698091238737106323
-0.922174155712127686 0.118311308324337006 -0.690434157848358154
-0.230095565319061279 -0.879492104053497314 -0.741637229919433594
-0.13125532865524292 -0.241679295897483826 -0.994903504848480225
0.2983856201171875 -0.923551023006439209 -0.548733413219451904
-0.35767027735710144 -0.756506383419036865 0.837582707405090332
0.0187935680150985718 -0.723355114459991455 0.918586909770965576
0.336508423089981079 0.242407813668251038 -0.991313636302947998
0.25765758752822876 -0.070020727813243866 -0.994973123073577881
0.806965649127960205 -0.287826657295227051 -0.81468886137008667
0.119144566357135773 -0.133356988430023193 0.997686862945556641
0.0334026403725147247 -0.923888921737670898 -0.703348219394683838
-0.446349352598190308 -0.889108657836914062 -0.128333315253257751
0.726877808570861816 -0.676102221012115479 0.343859344720840454
0.363352447748184204 0.909099698066711426 0.489738017320632935
-0.0495292618870735168 0.985299229621887207 -0.381852298974990845
0.914809823036193848 0.323384553194046021 -0.555283784866333008
0.699833333492279053 0.0407686419785022736 -0.928791701793670654
-0.857616603374481201 0.38369867205619812 0.672271907329559326
-0.0132774068042635918 -0.101491555571556091 -0.996744394302368164
-0.172158688306808472 0.492024719715118408 -0.977266371250152588
-0.684893250465393066 0.308184951543807983 -0.906952083110809326
0.0164922997355461121 0.0180971566587686539 -0.998084306716918945
-0.545549929141998291 0.832391321659088135 -0.0943698883056640625
0.988092303276062012 0.0671039894223213196 -0.324521183967590332
0.614365041255950928 -0.208250373601913452 0.948911309242248535
0.0744725316762924194 0.964551627635955811 -0.57331538200378418
0.953475594520568848 0.28737291693687439 -0.193325638771057129
0.236404091119766235 0.241063311696052551 -0.994213640689849854
-0.982877254486083984 -0.0732931569218635559 -0.409962177276611328
0.604388535022735596 -0.743085503578186035 -0.600625157356262207
-0.938267171382904053 -0.316715151071548462 -0.273995965719223022
0.151670828461647034 -0.013138829730451107 -0.996228039264678955
-0.703402698040008545 0.694304466247558594 -0.37384563684463501
0.077711053192615509 0.950632393360137939 -0.63225865364074707
-0.216881304979324341 -0.695878922939300537 -0.918437957763671875
-0.114918097853660583 -0.19109363853931427 -0.995443522930145264
0.164868921041488647 -0.903374850749969482 -0.717964470386505127
-0.658365070819854736 -0.179647758603096008 -0.936378300189971924
-0.402462899684906006 0.909197032451629639 -0.328948140144348145
-0.849580466747283936 -0.503237724304199219 -0.438189685344696045
-0.496030747890472412 0.862138330936431885 -0.013299192301928997
-0.689988851547241211 -0.568969130516052246 0.760856807231903076
-0.600138247013092041 -0.464337706565856934 -0.899012327194213867
0.989569604396820068 0.0957618355751037598 -0.154042825102806091
0.889192759990692139 -0.0941072776913642883 -0.771942138671875
0.0478150658309459686 0.99590456485748291 -0.151037782430648804
0.191428646445274353 -0.972011923789978027 -0.312968611717224121
0.389087140560150146 0.917308926582336426 -0.0196475517004728317
0.17324027419090271 -0.960565328598022461 0.529262959957122803
-0.975139737129211426 0.0353876687586307526 0.520405173301696777
0.769000470638275146 -0.441995471715927124 -0.782079756259918213
0.406244188547134399 -0.912172257900238037 -0.256574004888534546
-0.177031442523002625 -0.93134993314743042 -0.644134581089019775
-0.661687850952148438 -0.681939482688903809 -0.642839372158050537
0.815726995468139648 -0.538411915302276611 0.525844275951385498
0.93664395809173584 0.325028389692306519 -0.34775957465171814
-0.88445889949798584 0.456134676933288574 -0.0113199641928076744
0.16694110631942749 -0.615017354488372803 -0.954572319984436035
0.800244927406311035 0.0727625191211700439 -0.869439423084259033
-0.153517171740531921 0.978317916393280029 -0.272939860820770264
0.146659061312675476 -0.98063504695892334 -0.314485549926757812
0.385191500186920166 -0.880946874618530273 0.590780019760131836
0.0421489998698234558 -0.00549015915021300316 0.997686862945556641
-0.484133630990982056 0.0329679138958454132 -0.982233941555023193
-0.90953826904296875 0.380810320377349854 -0.445548862218856812
0.59824758768081665 -0.787820577621459961 -0.361736714839935303
-0.974274992942810059 -0.212705805897712708 -0.0404158309102058411
0.867205142974853516 -0.485357344150543213 -0.0550361424684524536
0.884073793888092041 -0.138815104961395264 -0.769711017608642578
0.174380466341972351 0.569750010967254639 -0.96346282958984375
0.319728821516036987 0.349610000848770142 0.984058201313018799
-0.143838211894035339 0.869868695735931396 0.783104658126831055
-0.790564537048339844 -0.138765409588813782 -0.867206871509552002
-0.544207513332366943 0.832278728485107422 0.169191077351570129
-0.844811737537384033 0.179218530654907227 -0.807317078113555908
0.925062000751495361 0.361570477485656738 -0.328851282596588135
0.00612289039418101311 0.0207340028136968613 -0.997606813907623291
0.973577916622161865 -0.201614022254943848 -0.0638940483331680298
0.0609528683125972748 0.434222698211669922 -0.988754808902740479
0.638876974582672119 -0.710299372673034668 -0.613800704479217529
0.46447417140007019 -0.750260531902313232 0.782554984092712402
-0.180561721324920654 0.227864295244216919 0.997686862945556641
0.838574230670928955 0.5344124436378479 -0.0871943756937980652
-0.963029921054840088 -0.220402255654335022 -0.390184402465820312
-0.146965235471725464 0.184100240468978882 -0.995308935642242432
-0.919628024101257324 -0.318826913833618164 -0.519133448600769043
0.677878737449645996 0.425338447093963623 -0.872300684452056885
0.434116214513778687 0.895559370517730713 -0.05229206383228302
0.685502171516418457 -0.720263779163360596 -0.240568861365318298
0.864668130874633789 0.493401110172271729 -0.00896028988063335419
-0.13989943265914917 0.683851301670074463 -0.929297447204589844
0.179411008954048157 -0.980144917964935303 -0.102301746606826782
-0.395576387643814087 0.403534978628158569 -0.969398200511932373
0.118950851261615753 -0.955819427967071533 -0.581934452056884766
-0.323800384998321533 -0.937628030776977539 -0.165283843874931335
-0.539983212947845459 -0.833923697471618652 0.357048690319061279
0.483775466680526733 0.866197764873504639 0.189226999878883362
0.823259830474853516 -0.254206180572509766 -0.810408115386962891
-0.547503948211669922 -0.816833257675170898 -0.433740526437759399
0.895413458347320557 0.316465198993682861 -0.643211185932159424
0.985252976417541504 -0.0856104195117950439 -0.384472876787185669
-0.385937601327896118 -0.559996128082275391 -0.937613546848297119
0.796459376811981201 0.372797280550003052 -0.784738779067993164
0.276623964309692383 -0.330403059720993042 0.987466216087341309
0.425095289945602417 0.868429064750671387 -0.565768241882324219
-0.314420074224472046 0.887384712696075439 -0.672979831695556641
0.944376826286315918 -0.295665055513381958 -0.331871777772903442
0.827624201774597168 0.0744234472513198853 -0.843211650848388672
0.0367500931024551392 -0.993051052093505859 -0.110390596091747284
0.870313405990600586 -0.480237483978271484 -0.0220142733305692673
-0.0663703903555870056 -0.487888425588607788 0.982401669025421143
-0.545053541660308838 -0.775269389152526855 -0.647323071956634521
0.484306991100311279 -0.853311538696289062 0.474088519811630249
-0.718185067176818848 -0.168073579668998718 -0.912362217903137207
-0.402480959892272949 -0.899569034576416016 0.451669991016387939
-0.143214896321296692 0.908824801445007324 -0.716021239757537842
0.774376213550567627 0.600368380546569824 -0.490805864334106445
0.468978554010391235 0.814806282520294189 -0.661374270915985107
-0.600848197937011719 0.74861222505569458 0.596929728984832764
-0.259565472602844238 0.161006733775138855 -0.994558811187744141
-0.772484123706817627 0.616965115070343018 -0.414428830146789551
-0.792320728302001953 0.22278866171836853 -0.853565514087677002
0.490801721811294556 0.821289658546447754 -0.60760962963104248
0.986379861831665039 -0.135436564683914185 0.257762700319290161
-0.762420535087585449 -0.620558738708496094 -0.481154173612594604
-0.483248203992843628 0.767233014106750488 0.741090655326843262
0.243780717253684998 -0.904129385948181152 -0.676653206348419189
-0.680006504058837891 0.70677870512008667 -0.471078962087631226
0.811522543430328369 0.574741065502166748 -0.16453966498374939
0.615028142929077148 0.374925345182418823 0.919620752334594727
0.165112972259521484 -0.979355156421661377 0.0447885766625404358
0.996623992919921875 0.0558295473456382751 -0.0501024834811687469
0.627979278564453125 0.775458693504333496 -0.0689762458205223083
-0.900300204753875732 -0.365153074264526367 -0.532607316970825195
-0.444220453500747681 0.88173288106918335 0.426394611597061157
-0.544298231601715088 -0.713557600975036621 -0.759894728660583496
0.578233063220977783 0.761728465557098389 0.607273399829864502
0.0242813117802143097 -0.430949926376342773 0.987498164176940918
-0.579823136329650879 -0.642985939979553223 0.811330258846282959
-0.733017563819885254 0.263462990522384644 -0.886679887771606445
0.939919769763946533 0.327156484127044678 0.234845027327537537
-0.0932202339172363281 -0.389241784811019897 -0.990385830402374268
-0.850714147090911865 -0.47644507884979248 -0.534204840660095215
-0.190968111157417297 0.972617387771606445 -0.290735512971878052
-0.982302427291870117 0.154575049877166748 0.0948471799492835999
0.820760011672973633 -0.412058383226394653 0.719262182712554932
-0.914205431938171387 0.011884862557053566 0.726451337337493896
0.836986362934112549 0.487507015466690063 -0.548679232597351074
-0.202312782406806946 0.972627520561218262 -0.0561207719147205353
-0.113492473959922791 0.642354846000671387 -0.949119031429290771
-0.584141910076141357 0.802180290222167969 0.163734287023544312
0.125835567712783813 0.920168101787567139 -0.695739626884460449
-0.434154301881790161 -0.7663993239402771 -0.785285711288452148
-0.830489099025726318 0.542386412620544434 0.343449205160140991
-0.801714241504669189 0.111963339149951935 0.864527046680450439
-0.718382358551025391 0.386486947536468506 0.856730997562408447
-0.801378309726715088 0.286136597394943237 -0.821467876434326172
-0.893973290920257568 -0.157071337103843689 -0.738152861595153809
0.347892463207244873 0.931888937950134277 -0.189952120184898376
-0.503989577293395996 -0.74033510684967041 -0.770592868328094482
0.287761330604553223 0.72402644157409668 -0.884358644485473633
-0.995050430297851562 -0.0667948275804519653 -0.114894144237041473
0.263837754726409912 0.95673602819442749 -0.142708852887153625
0.359708726406097412 0.0629604533314704895 -0.991857588291168213
0.827492415904998779 0.422307521104812622 -0.695400416851043701
-0.819833576679229736 -0.539516329765319824 -0.471246719360351562
0.177740082144737244 0.0699006617069244385 -0.995786011219024658
-0.383204519748687744 -0.916805565357208252 -0.310187309980392456
0.377041339874267578 -0.842114090919494629 -0.707250237464904785
-0.43094944953918457 -0.165724888443946838 -0.987718343734741211
0.672618508338928223 0.704428732395172119 0.535852253437042236
0.389939785003662109 -0.910748124122619629 -0.315579682588577271
0.178930282592773438 -0.975719809532165527 -0.314424008131027222
-0.814976811408996582 0.295089751482009888 -0.804370403289794922
0.700758755207061768 -0.707242667675018311 -0.229283571243286133
-0.717536985874176025 -0.590158462524414062 -0.693900883197784424
-0.111843518912792206 -0.985903620719909668 -0.289657920598983765
-0.436257094144821167 -0.268506646156311035 -0.978550851345062256
-0.901932239532470703 0.0809033960103988647 -0.747329771518707275
0.333781301975250244 0.707168400287628174 0.886961042881011963
-0.409782975912094116 0.473496854305267334 0.954644262790679932
-0.762255668640136719 0.626436531543731689 0.412799656391143799
0.554228663444519043 0.811514973640441895 -0.502158045768737793
-0.224113941192626953 -0.967789351940155029 0.0194652620702981949
-0.112252771854400635 -0.150600001215934753 0.997686862945556641
-0.274709850549697876 -0.261299192905426025 -0.991280555725097656
0.555173397064208984 0.0194772742688655853 -0.972785890102386475
0.56206047534942627 0.178777605295181274 0.964018464088439941
0.110192649066448212 -0.962650537490844727 -0.553278088569641113
-0.29603654146194458 -0.893933653831481934 -0.662186741828918457
0.144748598337173462 -0.320689350366592407 -0.994081437587738037
0.418937563896179199 0.899917304515838623 -0.329000979661941528
0.838593721389770508 0.458377182483673096 -0.61010134220123291
-0.849715769290924072 -0.0342918448150157928 0.824652314186096191
0.779167652130126953 0.601553440093994141 -0.417795270681381226
0.0961738377809524536 0.548755109310150146 -0.972449004650115967
-0.818053305149078369 -0.530171871185302734 -0.52441871166229248
-0.608295917510986328 0.766541719436645508 0.518099188804626465
0.279497742652893066 -0.497794568538665771 -0.968113064765930176
0.557326197624206543 0.824687540531158447 -0.233727544546127319
0.474730551242828369 -0.518878459930419922 -0.926817655563354492
-0.937923789024353027 -0.329837828874588013 0.0154562611132860184
0.771698355674743652 -0.500512599945068359 -0.712984561920166016
-0.304069250822067261 0.746781051158905029 -0.867896378040313721
0.21415315568447113 -0.964566826820373535 -0.381127357482910156
0.976224958896636963 -0.203931808471679688 -0.0701501443982124329
-0.151228442788124084 -0.491322755813598633 0.980683326721191406
0.319581955671310425 0.826124608516693115 -0.782790303230285645
-0.391599029302597046 -0.916831672191619873 -0.0869728624820709229
-0.910815834999084473 0.356369763612747192 0.484378606081008911
0.265118926763534546 -0.59941709041595459 -0.945310771465301514
0.462205886840820312 -0.877433061599731445 0.347312331199645996
-0.325074672698974609 0.707920312881469727 0.888314127922058105
0.514192938804626465 0.199175074696540833 -0.97215956449508667
0.640702307224273682 -0.731672048568725586 -0.530672669410705566
-0.415782541036605835 -0.868507087230682373 -0.597083091735839844
0.245997220277786255 -0.621711432933807373 -0.941308915615081787
0.586110174655914307 0.770167410373687744 0.567904949188232422
-0.87199091911315918 -0.479814410209655762 -0.1801280677318573
-0.517961740493774414 -0.218766391277313232 0.971227049827575684
-0.440109759569168091 0.88883519172668457 0.2612343430519104
-0.398048609495162964 0.909813225269317627 -0.127245157957077026
-0.748677313327789307 0.504206538200378418 -0.748981714248657227
-0.695089280605316162 0.6545218825340271 -0.62484896183013916
-0.221501350402832031 0.69223254919052124 -0.917535901069641113
0.40739777684211731 -0.906399369239807129 -0.0632027313113212585
0.930491864681243896 0.0808223113417625427 0.688596367835998535
0.0270585045218467712 -0.334044516086578369 -0.9930877685546875
0.0641381219029426575 -0.714043974876403809 0.920681297779083252
0.27474251389503479 0.00457817409187555313 -0.995647549629211426
-0.689043045043945312 0.114263415336608887 0.931133270263671875
0.14939253032207489 -0.861748099327087402 0.80014723539352417
-0.0284813102334737778 0.984876573085784912 0.454383641481399536
0.889278888702392578 0.437480747699737549 -0.385598421096801758
0.505034565925598145 0.425706624984741211 -0.943581461906433105
0.26397627592086792 -0.232646942138671875 -0.992422878742218018
0.902233719825744629 -0.419019371271133423 0.328205466270446777
0.993641972541809082 -0.00108048331458121538 -0.0165071357041597366
-0.240100577473640442 0.965018510818481445 -0.00734996097162365913
0.421869248151779175 0.0587428584694862366 -0.989300847053527832
0.511636972427368164 -0.375552117824554443 -0.956454575061798096
0.203019887208938599 -0.0580177977681159973 -0.995569586753845215
0.784551620483398438 -0.611847221851348877 -0.0242517329752445221
0.936619818210601807 -0.320178389549255371 -0.275618076324462891
-0.565483152866363525 -0.793507516384124756 -0.512862086296081543
-0.742193877696990967 -0.397468119859695435 0.830690383911132812
0.702030599117279053 -0.654151380062103271 -0.592077314853668213
0.121007390320301056 0.421200335025787354 -0.988717317581176758
-0.882218480110168457 0.451230257749557495 -0.285308092832565308
0.295974165201187134 0.927228391170501709 0.553422272205352783
0.76121288537979126 0.38401302695274353 -0.819336414337158203
0.0595433078706264496 -0.965849876403808594 0.568251252174377441
0.0440267100930213928 -0.262481778860092163 0.997686862945556641
0.874235808849334717 -0.450425952672958374 -0.43088570237159729
-0.0631861686706542969 -0.287676423788070679 0.997686862945556641
0.128379732370376587 0.984737873077392578 0.00259598181582987309
-0.803531289100646973 -0.154662474989891052 -0.858477890491485596
-0.697806894779205322 0.702312767505645752 -0.25705718994140625
-0.726244747638702393 -0.547826409339904785 -0.741686403751373291
-0.391641169786453247 -0.730496883392333984 0.846005797386169434
0.0314517766237258911 -0.997315406799316406 -0.0334346406161785126
-0.0838846340775489807 0.988529980182647705 -0.347963124513626099
-0.949823975563049316 0.298516243696212769 0.128661274909973145
-0.670569539070129395 -0.603431940078735352 -0.754383683204650879
-0.302659034729003906 0.145982936024665833 0.995512723922729492
0.509124994277954102 0.138113752007484436 0.979570627212524414
-0.920491278171539307 0.370209246873855591 0.273160576820373535
0.841043591499328613 -0.400957703590393066 -0.68474346399307251
-0.0656736642122268677 0.984852612018585205 -0.395571261644363403
0.365041285753250122 -0.892954170703887939 0.578538179397583008
0.692362606525421143 -0.709662079811096191 0.373050451278686523
0.982834160327911377 -0.0869220122694969177 -0.414432436227798462
-0.484729737043380737 0.187280431389808655 0.9801979660987854
-0.745976805686950684 -0.622018873691558838 -0.553504407405853271
0.11891571432352066 -0.112629637122154236 -0.999582231044769287
-0.435840815305709839 -0.894904732704162598 -0.107155226171016693
-0.334639877080917358 0.841611981391906738 -0.749591052532196045
-0.604822456836700439 -0.416608214378356934 -0.913265585899353027
0.969981908798217773 -0.0888402312994003296 -0.524314343929290771
-0.177942603826522827 0.0224792547523975372 -0.995919585227966309
-0.744583427906036377 -0.648411989212036133 -0.42528650164604187
-0.992376029491424561 -0.0858317092061042786 -0.0361284203827381134
0.970238327980041504 -0.232873573899269104 -0.0194857530295848846
-0.449850648641586304 -0.840362608432769775 -0.636458694934844971
0.87501215934753418 -0.389585196971893311 -0.618835747241973877
-0.920659959316253662 0.00132344779558479786 -0.719049513339996338
-0.379357725381851196 -0.706122040748596191 -0.869474887847900391
-0.873935282230377197 -0.0133719919249415398 0.800626814365386963
-0.554256021976470947 -0.821230530738830566 -0.313784420490264893
0.372771471738815308 -0.22349993884563446 0.987240433692932129
-0.967544794082641602 -0.165530949831008911 0.462948918342590332
-0.833408653736114502 -0.00611959537491202354 0.839015483856201172
0.00796809140592813492 0.421705275774002075 -0.990382611751556396
-0.0936244875192642212 -0.163814917206764221 -0.995815277099609375
0.70061028003692627 -0.703996181488037109 0.226561963558197021
-0.915647625923156738 -0.389665842056274414 -0.157956555485725403
0.834101617336273193 -0.539868175983428955 0.0215777549892663956
0.598904848098754883 -0.794820249080657959 -0.0709390714764595032
-0.590739607810974121 -0.777119994163513184 -0.500434815883636475
0.027824675664305687 0.940184593200683594 -0.676494419574737549
0.915446162223815918 -0.366094499826431274 -0.457962781190872192
0.0090068913996219635 -0.926320910453796387 0.705367326736450195
-0.866321027278900146 0.484042525291442871 0.221757769584655762
-0.285600781440734863 -0.0022435532882809639 -0.99519038200378418
-0.931133091449737549 -0.326523631811141968 -0.415867418050765991
-0.958442926406860352 0.0167006254196166992 -0.611522972583770752
0.676290571689605713 0.729034364223480225 -0.0885817259550094604
0.741112947463989258 0.661684691905975342 0.219516769051551819
0.336377412080764771 0.809277594089508057 -0.793159902095794678
-0.913486182689666748 0.140054225921630859 -0.707893788814544678
-0.582478106021881104 -0.339840531349182129 0.942284345626831055
0.200098320841789246 0.477366179227828979 -0.977764725685119629
0.432598769664764404 -0.332452386617660522 -0.973034977912902832
0.29323279857635498 -0.94862055778503418 0.220209136605262756
-0.869073331356048584 -0.373513013124465942 -0.653815329074859619
-0.641209959983825684 -0.758469521999359131 -0.190472230315208435
0.865514457225799561 -0.237190186977386475 0.756723463535308838
0.536228358745574951 -0.384537428617477417 0.946210265159606934
-0.184660464525222778 -0.365475505590438843 0.989260375499725342
-0.687909364700317383 0.537697792053222656 -0.792499244213104248
0.311008274555206299 0.272001713514328003 0.989064037799835205
-0.0733731463551521301 0.143123388290405273 -0.996109306812286377
0.115629956126213074 0.196037068963050842 -0.995393633842468262
-0.261144578456878662 0.140696316957473755 -0.994735360145568848
-0.626449644565582275 -0.76675260066986084 -0.415986210107803345
-0.739847481250762939 -0.431726902723312378 0.817512154579162598
-0.854899227619171143 -0.501829087734222412 -0.337126731872558594
0.497720628976821899 0.137799754738807678 0.980472981929779053
0.26869356632232666 0.955844402313232422 0.0684662088751792908
0.0864474326372146606 0.662786722183227539 -0.941389083862304688
-0.4519844651222229 -0.883198916912078857 0.345710009336471558
-0.48918643593788147 0.867955565452575684 -0.254171758890151978
0.824571669101715088 0.362447887659072876 -0.756448030471801758
0.197923094034194946 -0.971173286437988281 -0.306146383285522461
0.0942600443959236145 -0.975047171115875244 -0.501542150974273682
-0.770885467529296875 -0.630163788795471191 -0.122956015169620514
-0.0627496093511581421 0.986673712730407715 0.401110202074050903
-0.73313593864440918 0.67068105936050415 -0.190979659557342529
0.961930751800537109 0.248631209135055542 -0.116864867508411407
0.351541012525558472 0.926848649978637695 -0.206070572137832642
-0.127156466245651245 0.972580611705780029 -0.472884833812713623
0.852287650108337402 -0.412274420261383057 0.654480993747711182
0.69158780574798584 -0.321879178285598755 0.896465599536895752
0.330339133739471436 -0.548991858959197998 -0.953274548053741455
0.134329110383987427 -0.080622456967830658 0.997686862945556641
-0.154621854424476624 -0.914821386337280273 0.703315496444702148
-0.201823726296424866 0.829164981842041016 -0.820515215396881104
-0.793609857559204102 0.586585879325866699 0.4383106529712677
-0.448843061923980713 0.841177940368652344 -0.635278165340423584
-0.425296664237976074 -0.855730831623077393 0.619336128234863281
0.0536902137100696564 -0.541445314884185791 0.975819766521453857
0.355761677026748657 -0.797005712985992432 -0.795228540897369385
-0.23643241822719574 -0.536937892436981201 -0.96560436487197876
-0.212995067238807678 -0.66440272331237793 -0.929001331329345703
0.78958594799041748 0.507893919944763184 -0.666516244411468506
-0.659311354160308838 -0.639612972736358643 0.719593822956085205
0.72025221586227417 -0.237725988030433655 -0.897982358932495117
0.0117377052083611488 0.994789063930511475 0.2167319655418396
-0.89503026008605957 0.0375030487775802612 -0.763844430446624756
0.554820775985717773 -0.63044285774230957 0.832771658897399902
-0.138223469257354736 0.984413087368011475 0.0796890556812286377
-0.034523986279964447 -0.215081572532653809 -0.995499074459075928
-0.783918082714080811 -0.553184866905212402 0.604453325271606445
-0.961694657802581787 -0.239886462688446045 -0.209415823221206665
0.835232794284820557 -0.544482052326202393 0.117865577340126038
-0.125807777047157288 0.614854693412780762 -0.957336962223052979
-0.425334692001342773 -0.714611053466796875 0.841154813766479492
0.378246843814849854 0.873727738857269287 -0.626883983612060547
-0.489138543605804443 0.238075405359268188 0.975815653800964355
-0.17949579656124115 0.366627424955368042 -0.98998647928237915
0.344956815242767334 -0.515587210655212402 0.956612229347229004
0.864528298377990723 -0.455922454595565796 -0.510881543159484863
-0.367276966571807861 0.923984885215759277 -0.167952343821525574
0.685827016830444336 -0.257558166980743408 -0.915220856666564941
-0.577827394008636475 -0.379042565822601318 -0.933390915393829346
-0.194746404886245728 0.150754287838935852 -0.995196163654327393
-0.517592489719390869 0.84015733003616333 -0.421473652124404907
0.55343937873840332 0.797837018966674805 -0.559450984001159668
-0.174580305814743042 0.748849332332611084 0.893331766128540039
0.00321834883652627468 0.615999281406402588 -0.958729386329650879
-0.973157227039337158 -0.203058809041976929 -0.068098410964012146
