ply
format ascii 1.0
element vertex 740
property float x
property float y
property float z
end_header
-0.950986921787261963 0.0735059678554534912 0.55188298225402832
0.66157454252243042 0.431834310293197632 -0.70213627815246582
-0.45668831467628479 0.200387150049209595 0.970498621463775635
0.326531797647476196 -0.823312699794769287 -0.120564915239810944
0.53902137279510498 0.641475439071655273 -0.132767543196678162
0.963874757289886475 0.0703311935067176819 0.421294301748275757
-0.946218430995941162 -0.130062714219093323 -0.170656219124794006
0.570052862167358398 0.609747111797332764 -0.20285893976688385
-0.372738510370254517 0.240953311324119568 -0.978235363960266113
-0.991370081901550293 0.00308417086489498615 0.0768305957317352295
-0.639347195625305176 0.541291177272796631 0.298240482807159424
0.536627590656280518 0.647756636142730713 -0.134931564331054688
0.370717674493789673 0.779978692531585693 0.40158534049987793
-0.0845537185668945312 0.271042853593826294 -0.994042158126831055
-0.181088715791702271 0.907608985900878906 -0.429569154977798462
0.907198786735534668 0.165156811475753784 0.533035457134246826
-0.951976239681243896 -0.114265426993370056 0.262135565280914307
0.977341771125793457 0.0622473284602165222 -0.101564995944499969
0.773511290550231934 -0.389062374830245972 -0.0836904644966125488
0.250707834959030151 -0.862199544906616211 -0.445353150367736816
0.510614335536956787 0.0303883980959653854 -0.977649390697479248
-0.877888143062591553 -0.157351672649383545 -0.661366879940032959
-0.229858502745628357 0.33506399393081665 -0.983069837093353271
-0.0258190203458070755 0.986002564430236816 0.373555570840835571
-0.174823582172393799 0.139388591051101685 0.997686862945556641
0.0901915356516838074 0.439769983291625977 0.983494162559509277
-0.550435006618499756 0.628743112087249756 -0.356980890035629272
0.295241832733154297 0.487117141485214233 -0.943570315837860107
0.861768245697021484 -0.269431620836257935 -0.247015327215194702
-0.803873002529144287 0.307351589202880859 -0.581943929195404053
-0.211924880743026733 0.85370481014251709 -0.636991977691650391
0.170107334852218628 0.924310266971588135 -0.114919751882553101
0.0144786108285188675 0.0493493117392063141 0.997686862945556641
0.706251084804534912 -0.466200351715087891 -0.20356401801109314
-0.111679777503013611 -0.948983550071716309 -0.353975832462310791
0.58460766077041626 -0.600174367427825928 -0.100921943783760071
-0.961107373237609863 0.10227280855178833 -0.237121343612670898
0.887461602687835693 0.190201759338378906 0.555281221866607666
-0.664771914482116699 -0.517006874084472656 -0.0237828902900218964
0.549096882343292236 -0.635679185390472412 -0.131806880235671997
0.319502353668212891 0.824288308620452881 0.268442034721374512
-0.103879854083061218 -0.382991105318069458 -0.989036679267883301
0.316561311483383179 0.817299962043762207 0.431190907955169678
0.994586706161499023 0.00359001918695867062 -0.199680984020233154
0.0865887701511383057 -0.808239519596099854 0.837105929851531982
-0.861875593662261963 0.247878417372703552 -0.494511961936950684
-0.0221899915486574173 0.863309502601623535 -0.802070200443267822
0.347145557403564453 -0.210809573531150818 0.983928322792053223
-0.723178267478942871 -0.447368413209915161 -0.299320816993713379
0.912970364093780518 0.184800684452056885 -0.294220864772796631
-0.445761263370513916 -0.56388169527053833 -0.822565913200378418
-0.315962940454483032 -0.807896196842193604 -0.51465153694152832
0.448003619909286499 -0.705303728580474854 0.506849706172943115
0.603791296482086182 -0.53950268030166626 0.598806560039520264
-0.425092786550521851 -0.740273416042327881 -0.241363391280174255
-0.296862959861755371 -0.843255996704101562 -0.159514158964157104
0.423471421003341675 0.139164283871650696 -0.980944812297821045
0.0796403288841247559 0.969367504119873047 0.0579794347286224365
0.0889978781342506409 -0.208185255527496338 0.997686862945556641
-0.0492458604276180267 -0.980494856834411621 -0.197801411151885986
-0.106024764478206635 0.932287752628326416 0.572433650493621826
0.285338878631591797 -0.720974922180175781 -0.797231853008270264
-0.677552700042724609 0.0726835429668426514 -0.929499328136444092
-0.939530789852142334 0.136460766196250916 0.320358932018280029
-0.371465623378753662 -0.714059710502624512 -0.700661540031433105
0.300498753786087036 0.437605381011962891 -0.955894529819488525
0.893744826316833496 0.224256470799446106 -0.0805833861231803894
-0.690017879009246826 -0.478058516979217529 -0.423587292432785034
-0.667226612567901611 0.327366471290588379 -0.825158953666687012
-0.0824783444404602051 -0.96717369556427002 0.284694433212280273
0.965166807174682617 0.0878789201378822327 -0.116217523813247681
-0.264275550842285156 0.862691938877105713 0.346807241439819336
-0.805757701396942139 -0.34778296947479248 -0.248799696564674377
-0.611106574535369873 0.101015716791152954 -0.948563218116760254
0.603523612022399902 -0.580882370471954346 0.284548580646514893
0.364258140325546265 0.353907108306884766 -0.962029874324798584
0.0633754879236221313 -0.0875494778156280518 0.997686862945556641
-0.953422784805297852 -0.114177890121936798 -0.106551192700862885
-0.00524083757773041725 0.0444765053689479828 0.997686862945556641
-0.798346936702728271 0.356158137321472168 -0.0864922776818275452
-0.875490963459014893 0.221082940697669983 0.519409835338592529
-0.236270815134048462 -0.35483887791633606 -0.981630861759185791
-0.0162321645766496658 0.157328367233276367 -0.999577701091766357
-0.255331963300704956 0.865046441555023193 -0.344252049922943115
-0.78583991527557373 -0.373533099889755249 0.0111590810120105743
-0.190814793109893799 -0.847021102905273438 -0.692396879196166992
-0.928737223148345947 -0.15254075825214386 -0.352841287851333618
-0.797868609428405762 -0.3475361168384552 0.402748435735702515
-0.565507709980010986 -0.183568805456161499 -0.947052299976348877
-0.472590506076812744 0.260908693075180054 -0.957900047302246094
-0.348331481218338013 -0.792208611965179443 -0.47399216890335083
0.190569743514060974 -0.0374908596277236938 -0.998547196388244629
-0.419190347194671631 -0.535024583339691162 -0.868623554706573486
0.502248287200927734 -0.520126223564147949 -0.814351141452789307
-0.449273467063903809 0.724516153335571289 0.0634132623672485352
0.0323139578104019165 -0.528694450855255127 -0.974749207496643066
0.704223811626434326 -0.336882948875427246 -0.772451639175415039
0.98410409688949585 -0.0407507792115211487 0.0938929095864295959
0.367119342088699341 -0.792862772941589355 -0.0465374290943145752
-0.480403333902359009 0.556357085704803467 0.805078685283660889
0.564362108707427979 -0.543506145477294922 -0.688038945198059082
0.80930936336517334 -0.22306455671787262 -0.731003701686859131
0.333964347839355469 0.817542970180511475 -0.162625133991241455
0.0508599616587162018 0.969795405864715576 -0.47120329737663269
0.278513252735137939 -0.768275439739227295 0.731583356857299805
-0.759353756904602051 -0.405286967754364014 -0.319697409868240356
0.691062271595001221 -0.423813462257385254 -0.656404256820678711
0.458157330751419067 0.717326343059539795 -0.173190489411354065
-0.730078816413879395 0.279180079698562622 0.793888330459594727
0.738620996475219727 -0.358144938945770264 -0.662168443202972412
0.98228299617767334 -0.0233959276229143143 -0.452256649732589722
0.689102351665496826 0.426423430442810059 -0.646862447261810303
-0.355061143636703491 -0.801512479782104492 -0.0857099965214729309
0.376032441854476929 0.748193442821502686 -0.592187047004699707
-0.831938683986663818 -0.162407919764518738 -0.759197354316711426
0.279537439346313477 -0.0571818836033344269 -0.994412541389465332
-0.701909184455871582 0.190522447228431702 0.878948628902435303
0.302252620458602905 0.837146580219268799 0.222323358058929443
-0.873253583908081055 -0.247867852449417114 -0.18078942596912384
0.469549804925918579 0.468180209398269653 0.884363889694213867
-0.331155955791473389 -0.670714139938354492 -0.812260031700134277
-0.440207570791244507 -0.48581811785697937 -0.886267900466918945
0.334982365369796753 -0.793458163738250732 0.53359299898147583
-0.822610557079315186 -0.32801133394241333 -0.226589202880859375
-0.987532079219818115 0.0345192849636077881 -0.0894263163208961487
-0.736844062805175781 -0.0390582084655761719 -0.908262372016906738
-0.119441844522953033 0.18642975389957428 -0.995056867599487305
-0.256555765867233276 -0.836973905563354492 -0.579347789287567139
-0.0516972839832305908 0.345148444175720215 -0.993919551372528076
0.303011924028396606 -0.819470763206481934 0.525055348873138428
-0.334515601396560669 0.817240476608276367 -0.0206532608717679977
0.196863338351249695 0.186873257160186768 0.996538102626800537
-0.11038653552532196 0.95375216007232666 0.142325535416603088
-0.0574511624872684479 0.639122128486633301 0.946882784366607666
0.345489770174026489 0.806220769882202148 -0.173095092177391052
-0.583560347557067871 -0.526880621910095215 -0.688271522521972656
-0.489875286817550659 -0.654823184013366699 -0.586476743221282959
0.683368504047393799 -0.492981165647506714 0.146508902311325073
0.574788331985473633 0.14638577401638031 -0.949649691581726074
-0.526028752326965332 0.528092920780181885 -0.778039634227752686
0.390293478965759277 0.767137765884399414 -0.283564180135726929
0.0383411608636379242 -0.965881586074829102 -0.525351941585540771
0.529823720455169678 0.506780564785003662 0.802026331424713135
0.16987261176109314 0.881878316402435303 0.622475028038024902
-0.394540727138519287 0.319460242986679077 0.961192429065704346
0.16084425151348114 0.921495556831359863 -0.434672057628631592
-0.598480582237243652 0.585585951805114746 0.276002556085586548
0.212649911642074585 0.175866171717643738 -0.993451595306396484
-0.528721034526824951 -0.385427922010421753 -0.892550468444824219
0.130624428391456604 -0.278897583484649658 0.994098782539367676
-0.296136558055877686 -0.610661327838897705 -0.886740267276763916
0.0488527491688728333 0.979912638664245605 0.218251913785934448
0.0832771956920623779 0.151972338557243347 0.997686862945556641
-0.713915109634399414 0.21541111171245575 0.854209780693054199
-0.916601896286010742 -0.103419870138168335 -0.628858864307403564
-0.136459335684776306 0.941675543785095215 -0.121715053915977478
-0.417855888605117798 -0.735746800899505615 -0.506192862987518311
0.324616760015487671 0.327781260013580322 0.975054681301116943
0.816453039646148682 0.190860465168952942 0.749030172824859619
0.624077796936035156 0.187005624175071716 -0.925733208656311035
0.658079743385314941 0.489167988300323486 -0.557850301265716553
-0.98797142505645752 0.0292116329073905945 -0.272220432758331299
0.639430642127990723 0.539076089859008789 -0.259355634450912476
0.42773127555847168 0.428047537803649902 -0.920096635818481445
0.612275183200836182 0.483635455369949341 0.712371110916137695
0.211749568581581116 -0.14458717405796051 -0.994608581066131592
0.0372462980449199677 -0.649138391017913818 0.946338653564453125
-0.248567149043083191 -0.859223544597625732 0.479428976774215698
-0.223475873470306396 -0.892525851726531982 -0.0129269715398550034
0.205781623721122742 0.895730853080749512 0.397913038730621338
0.140770599246025085 0.928122937679290771 0.462986648082733154
0.258422344923019409 0.848005115985870361 -0.5302237868309021
0.221412241458892822 0.565741837024688721 -0.936300814151763916
0.0474360883235931396 0.0522631630301475525 0.997686862945556641
0.410734415054321289 0.753047049045562744 0.293820649385452271
0.68551933765411377 0.411586284637451172 -0.688044726848602295
-0.974038302898406982 -0.0660037696361541748 -0.119369283318519592
-0.696407735347747803 0.474771767854690552 -0.382872939109802246
-0.139992982149124146 0.910737395286560059 -0.569845199584960938
0.517701804637908936 -0.330509424209594727 -0.923872947692871094
0.772823989391326904 -0.387918829917907715 0.0551837533712387085
-0.486559689044952393 0.688871681690216064 -0.168235823512077332
0.294947415590286255 -0.118490464985370636 -0.993999242782592773
0.0785128027200698853 0.970133125782012939 -0.0559635870158672333
-0.836441993713378906 -0.220174551010131836 0.667942702770233154
-0.95615851879119873 -0.10292111337184906 0.33074614405632019
0.913386940956115723 0.0577028244733810425 0.702821075916290283
0.490748107433319092 -0.683139145374298096 -0.323014438152313232
0.920119524002075195 0.171771720051765442 0.337486058473587036
0.225742459297180176 -0.883037090301513672 -0.384391486644744873
0.447796553373336792 -0.483233153820037842 -0.882562994956970215
-0.462317854166030884 -0.253680020570755005 -0.960924446582794189
-0.554745256900787354 0.470143526792526245 -0.810732781887054443
-0.88795095682144165 -0.115643702447414398 -0.694830894470214844
-0.0417262241244316101 0.9837188720703125 -0.284336447715759277
0.831653118133544922 -0.0354015156626701355 0.834734320640563965
-0.281214237213134766 -0.290673673152923584 0.983409643173217773
-0.159439891576766968 -0.55982130765914917 -0.952290236949920654
0.159631222486495972 -0.91909259557723999 0.450866520404815674
0.699306070804595947 0.451177895069122314 0.525962769985198975
0.134940683841705322 -0.883248031139373779 0.678475558757781982
0.743466317653656006 0.425853699445724487 -0.138360157608985901
0.417560040950775146 0.719686388969421387 0.573517203330993652
0.569847345352172852 -0.595418930053710938 -0.492615818977355957
-0.165450841188430786 0.609576284885406494 0.936442255973815918
-0.639391958713531494 -0.531932294368743896 -0.438061624765396118
0.183564260601997375 -0.850444555282592773 -0.687139987945556641
-0.417141705751419067 -0.361879736185073853 -0.945734262466430664
-0.483287155628204346 0.41550782322883606 -0.900345504283905029
0.930487632751464844 -0.157768994569778442 0.0427155159413814545
0.404585212469100952 0.458638131618499756 -0.919278919696807861
-0.551940739154815674 -0.458239495754241943 0.823980212211608887
-0.00171017914544790983 0.0376370362937450409 -0.998227298259735107
-0.299794912338256836 0.768094122409820557 -0.699098169803619385
0.0212790034711360931 0.71713101863861084 -0.92336428165435791
-0.166962981224060059 0.92319101095199585 0.237497285008430481
-0.199004918336868286 -0.280554771423339844 -0.992812275886535645
0.769360184669494629 -0.395762741565704346 -0.0215737447142601013
0.880697011947631836 0.244030579924583435 -0.18072354793548584
0.445999056100845337 -0.691696405410766602 -0.582705676555633545
-0.980956196784973145 0.048640616238117218 -0.142537862062454224
-0.854276955127716064 -0.231757700443267822 -0.585032820701599121
0.178183019161224365 -0.885517358779907227 -0.598844468593597412
-0.641173601150512695 -0.462832868099212646 0.698610842227935791
0.824179232120513916 0.0941820666193962097 -0.8127593994140625
0.615518629550933838 0.567635893821716309 0.349812239408493042
0.286838918924331665 -0.391477823257446289 -0.967972695827484131
0.513761818408966064 -0.0801043882966041565 0.975479185581207275
-0.800536155700683594 0.0099844643846154213 0.868169963359832764
0.859751641750335693 -0.247982189059257507 -0.504637718200683594
0.507284879684448242 0.652335047721862793 -0.506360173225402832
-0.00255510979332029819 -0.0335850529372692108 0.997686862945556641
-0.0175207965075969696 0.370685219764709473 -0.993819773197174072
-0.344535082578659058 0.805365324020385742 0.22507062554359436
-0.2917022705078125 0.72136765718460083 0.791162490844726562
-0.0744333341717720032 -0.474183887243270874 -0.981239855289459229
0.637691736221313477 0.545570671558380127 -0.00819633714854717255
0.291272461414337158 0.8329659104347229 -0.480652123689651489
-0.496427357196807861 -0.563341081142425537 -0.771428465843200684
0.469846010208129883 0.63769066333770752 0.68669050931930542
-0.0625696256756782532 0.219745561480522156 0.997686862945556641
0.674635887145996094 -0.507888257503509521 -0.182658299803733826
-0.687187612056732178 -0.256659775972366333 -0.853292226791381836
-0.934427380561828613 -0.0668586790561676025 0.619024813175201416
-0.711706161499023438 0.464882224798202515 0.145559385418891907
0.155412450432777405 0.925028145313262939 -0.388839900493621826
-0.39499741792678833 0.76670229434967041 -0.283774912357330322
-0.861974000930786133 0.207188263535499573 -0.609353303909301758
0.961721539497375488 0.0840395614504814148 0.415753841400146484
-0.274396687746047974 0.840079724788665771 0.50945580005645752
-0.482424467802047729 0.692762076854705811 -0.283049851655960083
0.0902842059731483459 0.67022627592086792 -0.929387807846069336
0.335590392351150513 -0.634604930877685547 -0.848188936710357666
0.760429918766021729 0.401447832584381104 0.359375268220901489
-0.691026926040649414 -0.432390391826629639 -0.627123415470123291
-0.162057146430015564 0.926279962062835693 0.18873828649520874
0.685752928256988525 0.494571983814239502 -0.180597305297851562
0.802632570266723633 -0.348056763410568237 0.28584626317024231
-0.7073097825050354 -0.170679569244384766 0.884934365749359131
-0.0201605446636676788 -0.171502396464347839 -0.999742627143859863
0.739224255084991455 0.427417188882827759 -0.257500261068344116
0.258869379758834839 -0.281743407249450684 0.985603630542755127
-0.533604919910430908 0.647821009159088135 0.0231549534946680069
0.432705342769622803 -0.0660948455333709717 -0.985582113265991211
0.778304338455200195 -0.35463830828666687 -0.520510017871856689
0.246727898716926575 -0.295974642038345337 -0.987990438938140869
0.0315352082252502441 -0.637775838375091553 0.949874281883239746
-0.638043582439422607 -0.196747317910194397 -0.914078295230865479
0.19626067578792572 0.0376099534332752228 -0.995560646057128906
0.373556673526763916 -0.521228015422821045 0.900670289993286133
0.479903936386108398 -0.695404946804046631 0.110161058604717255
0.306968271732330322 -0.198060974478721619 0.987765610218048096
0.507513225078582764 0.362646669149398804 0.911440610885620117
0.966003060340881348 0.078187212347984314 -0.284209907054901123
-0.19243977963924408 -0.310218065977096558 -0.989860475063323975
-0.691733777523040771 -0.465233027935028076 -0.493483841419219971
0.136404797434806824 0.215300336480140686 0.997686862945556641
-0.0427581034600734711 -0.981734633445739746 -0.259903818368911743
-0.650352001190185547 0.529429972171783447 0.226459026336669922
0.29816010594367981 -0.0770272836089134216 -0.993146121501922607
-0.9381980299949646 -0.144424483180046082 -0.137774109840393066
-0.657052814960479736 0.495590835809707642 0.547440052032470703
0.780170083045959473 0.373682260513305664 -0.349336087703704834
0.749471962451934814 0.410337537527084351 -0.352122068405151367
0.534388601779937744 -0.630723834037780762 0.468963742256164551
0.283965855836868286 -0.843154668807983398 0.405544161796569824
-0.799649894237518311 0.0208336412906646729 -0.868609011173248291
0.783384501934051514 0.0208534076809883118 -0.878599822521209717
-0.557853817939758301 -0.626745283603668213 0.0732184797525405884
-0.867113053798675537 -0.262635320425033569 -0.0996605157852172852
-0.0824655443429946899 -0.694729864597320557 -0.918646335601806641
-0.675686538219451904 0.504846036434173584 -0.208297699689865112
-0.425046265125274658 0.091657690703868866 -0.984753012657165527
0.305280596017837524 0.835341274738311768 0.048335731029510498
-0.885474562644958496 -0.221817284822463989 -0.413718342781066895
0.0648129284381866455 -0.321090787649154663 0.994320571422576904
-0.0353274121880531311 -0.984557092189788818 0.297873795032501221
0.54387354850769043 -0.639023303985595703 0.304244697093963623
0.929507911205291748 0.123400308191776276 -0.50833815336227417
0.441906273365020752 -0.129808470606803894 0.981384932994842529
0.238051623106002808 -0.825456798076629639 0.66505122184753418
0.450955182313919067 -0.720331072807312012 0.337688356637954712
-0.223969042301177979 0.0527573861181735992 0.997686862945556641
-0.0175576247274875641 -0.110661968588829041 -0.99909287691116333
-0.217180699110031128 0.834886312484741211 -0.680975496768951416
-0.543870270252227783 0.376173615455627441 0.889738023281097412
-0.539904534816741943 0.409344226121902466 -0.87234652042388916
0.344996631145477295 -0.785755753517150879 0.52073967456817627
0.53199315071105957 0.649805843830108643 -0.0439446717500686646
0.94055938720703125 0.093858763575553894 0.549537062644958496
-0.785357356071472168 0.371820598840713501 0.0574089400470256805
0.611814677715301514 0.574445962905883789 -0.268272638320922852
0.859993934631347656 0.193047806620597839 0.644549906253814697
0.372400790452957153 0.164645031094551086 -0.985029101371765137
-0.163004413247108459 0.925061225891113281 -0.216843470931053162
-0.956351518630981445 -0.102910421788692474 0.367110878229141235
0.0438176095485687256 0.424476355314254761 -0.988221287727355957
0.635534167289733887 0.5493507981300354 -0.040413733571767807
-0.28659549355506897 -0.848430752754211426 0.311083525419235229
-0.838981747627258301 -0.223859414458274841 0.659606218338012695
0.791566908359527588 0.316339641809463501 -0.606009125709533691
-0.545199811458587646 -0.13377736508846283 -0.962202727794647217
0.0851678028702735901 0.960901021957397461 -0.382602155208587646
0.0767845287919044495 0.0716196000576019287 -0.999168932437896729
0.461653798818588257 0.713146507740020752 -0.239639177918434143
0.249895274639129639 -0.877502083778381348 -0.201008543372154236
-0.897985637187957764 0.216325744986534119 -0.0993696972727775574
-0.0444894395768642426 0.979358434677124023 -0.343276232481002808
-0.1891050785779953 -0.914392650127410889 -0.0890046358108520508
-0.333609908819198608 -0.589435338973999023 -0.881864964962005615
0.959757626056671143 -0.0262536890804767609 -0.569291114807128906
0.94993281364440918 -0.121221050620079041 -0.0805381461977958679
0.181184127926826477 -0.911286115646362305 -0.351579815149307251
-0.117207340896129608 0.0874080881476402283 -0.995992958545684814
0.762393057346343994 0.399541288614273071 0.307371139526367188
-0.653125286102294922 0.528627455234527588 -0.134616285562515259
-0.519947648048400879 0.621503293514251709 -0.592871665954589844
-0.639652073383331299 0.419438987970352173 -0.760817289352416992
-0.00523764220997691154 -0.00948037859052419662 0.997686862945556641
-0.639000654220581055 -0.540185391902923584 -0.181569039821624756
0.770020008087158203 0.061345219612121582 -0.879521846771240234
0.220615968108177185 0.87749946117401123 0.486517876386642456
-0.0763702318072319031 -0.584218740463256836 -0.960382938385009766
0.0259240921586751938 0.989069521427154541 -0.103545546531677246
0.732671141624450684 0.430481493473052979 -0.350678771734237671
-0.906681954860687256 0.193594127893447876 -0.34129747748374939
-0.330000549554824829 -0.800131082534790039 0.493394643068313599
-0.655916094779968262 -0.493535816669464111 -0.553977906703948975
0.744305253028869629 -0.291455209255218506 -0.762475669384002686
-0.958164393901824951 -0.098346412181854248 -0.335458517074584961
-0.0474497899413108826 0.0172988325357437134 -0.998436510562896729
-0.457643002271652222 -0.210632830858230591 -0.970175027847290039
0.538774192333221436 0.586684644222259521 0.651187419891357422
-0.616536200046539307 0.561207115650177002 -0.390163660049438477
-0.789028525352478027 0.0790289491415023804 -0.856944382190704346
-0.174020439386367798 0.842680037021636963 -0.721726357936859131
-0.121885478496551514 -0.170905187726020813 -0.996857583522796631
0.362422853708267212 -0.248851463198661804 -0.97790449857711792
0.973854959011077881 0.0677458867430686951 0.181524604558944702
0.69596254825592041 -0.416821449995040894 0.647918820381164551
0.0320955626666545868 -0.741625428199768066 -0.907546937465667725
0.561258196830749512 0.211473852396011353 0.943262994289398193
-0.644393742084503174 -0.186604082584381104 0.91203683614730835
0.870269536972045898 -0.205256804823875427 0.585798978805541992
-0.587485909461975098 0.591027557849884033 -0.265595942735671997
0.381950139999389648 -0.642902195453643799 0.802838325500488281
-0.670651137828826904 0.448966920375823975 -0.650817215442657471
-0.647863388061523438 0.371325016021728516 -0.803637266159057617
-0.911718308925628662 -0.173580139875411987 -0.450703531503677368
0.63515239953994751 0.343909025192260742 -0.841672062873840332
0.103476136922836304 0.707999229431152344 0.904794991016387939
-0.0837439373135566711 -0.965000510215759277 -0.300747960805892944
-0.258513182401657104 0.425165414810180664 0.966907918453216553
0.576114654541015625 0.482505172491073608 -0.77536088228225708
0.849458575248718262 0.143511071801185608 -0.742597699165344238
0.12754957377910614 0.450464248657226562 -0.978551805019378662
-0.690243244171142578 -0.398599088191986084 -0.703823268413543701
-0.705225050449371338 -0.28485560417175293 -0.815657973289489746
0.514329791069030762 -0.455286234617233276 -0.861837565898895264
0.977956891059875488 0.0253549236804246902 -0.444731622934341431
-0.58992689847946167 0.58489912748336792 0.401582717895507812
0.615830481052398682 0.306444227695465088 0.882837235927581787
0.87979811429977417 0.153707131743431091 0.662371397018432617
-0.888349711894989014 0.0556641891598701477 -0.749006569385528564
0.881744861602783203 -0.242852762341499329 -0.217362642288208008
-0.919967114925384521 -0.17470906674861908 0.0840135142207145691
-0.783070027828216553 0.188094630837440491 -0.800038754940032959
0.0688398480415344238 -0.362722337245941162 -0.990693390369415283
0.898938834667205811 -0.211387977004051208 -0.0699200332164764404
-0.56949305534362793 0.314257591962814331 -0.902663111686706543
0.0496180243790149689 -0.333547621965408325 0.994067847728729248
-0.120046667754650116 0.430854111909866333 0.98274683952331543
-0.0759067162871360779 0.775667011737823486 0.870103359222412109
-0.387995779514312744 -0.773111879825592041 -0.0161915477365255356
0.399323612451553345 -0.436679095029830933 0.928226351737976074
0.531047582626342773 0.603339076042175293 -0.632820069789886475
0.902065157890319824 -0.207062751054763794 0.0929750651121139526
-0.567957460880279541 0.0179884936660528183 0.968763530254364014
0.100239105522632599 -0.68155217170715332 0.919295191764831543
-0.0516750700771808624 -0.0530840829014778137 -0.998774945735931396
-0.67072373628616333 -0.509143352508544922 -0.168413177132606506
0.566566824913024902 0.239217057824134827 -0.931868374347686768
0.12811596691608429 0.9420967698097229 -0.260325491428375244
0.911669433116912842 -0.0560527928173542023 -0.699532508850097656
0.543646574020385742 -0.574126482009887695 -0.668556630611419678
-0.279696106910705566 -0.0732499659061431885 -0.994470775127410889
0.807230055332183838 0.26501387357711792 -0.67030864953994751
0.0449798442423343658 -0.121616952121257782 0.997686862945556641
-0.609298825263977051 0.493210166692733765 -0.696452856063842773
-0.63198775053024292 -0.547433316707611084 -0.185834750533103943
-0.123465836048126221 -0.686282634735107422 -0.913023889064788818
0.388815820217132568 0.725278317928314209 -0.642796576023101807
-0.021083049476146698 -0.963812768459320068 -0.557381868362426758
-0.722121119499206543 -0.154305458068847656 0.881034612655639648
-0.89441835880279541 -0.151871606707572937 -0.617929160594940186
0.0780299976468086243 0.968455612659454346 -0.234161227941513062
-0.832168042659759521 0.300025612115859985 -0.396710336208343506
-0.381529122591018677 0.776623666286468506 0.294558733701705933
0.0165972523391246796 -0.128184303641319275 0.997686862945556641
-0.637839615345001221 0.531745672225952148 0.429740011692047119
0.882878422737121582 -0.236947774887084961 -0.0746003389358520508
-0.97347944974899292 0.0581561625003814697 -0.347474932670593262
-0.513688564300537109 -0.622921466827392578 -0.61109238862991333
-0.515096664428710938 0.332025498151779175 0.921784460544586182
0.0917517989873886108 0.668068230152130127 -0.927410900592803955
-0.0985123515129089355 -0.151843935251235962 -0.998314797878265381
-0.19349399209022522 -0.496702790260314941 0.961823165416717529
0.168738290667533875 0.854576170444488525 0.705669045448303223
-0.339766591787338257 0.385687023401260376 -0.960580527782440186
-0.587621986865997314 0.139482736587524414 -0.949570298194885254
-0.369106322526931763 0.0368126370012760162 -0.991160452365875244
-0.397124528884887695 0.67745131254196167 -0.735197067260742188
-0.670247018337249756 -0.49974176287651062 -0.423737466335296631
-0.775925695896148682 0.141050934791564941 -0.840213298797607422
-0.521920442581176758 0.358452320098876953 -0.909541785717010498
0.534322917461395264 0.472236365079879761 -0.832259297370910645
-0.69232553243637085 -0.315614372491836548 -0.80199354887008667
-0.290215343236923218 0.730360507965087891 -0.777074575424194336
0.467281162738800049 0.709298968315124512 -0.0530832521617412567
-0.408817440271377563 0.75583571195602417 0.289771139621734619
-0.287298500537872314 0.845839262008666992 -0.308669686317443848
-0.298864066600799561 0.770111501216888428 -0.69698488712310791
0.11267591267824173 -0.587701380252838135 0.952369570732116699
0.244875684380531311 0.871296703815460205 -0.391395598649978638
0.779014527797698975 -0.317533552646636963 -0.653616786003112793
-0.0791533961892127991 0.966816961765289307 -0.251385331153869629
0.436679422855377197 0.731216847896575928 -0.200754716992378235
0.452638059854507446 -0.0256998538970947266 -0.985518813133239746
0.278712272644042969 -0.85611569881439209 -0.0155576569959521294
-0.246369004249572754 -0.301003605127334595 -0.985243916511535645
0.729055583477020264 0.416064977645874023 -0.526312410831451416
0.00575796375051140785 0.314306527376174927 -0.994461119174957275
-0.275954604148864746 -0.854733049869537354 -0.257844418287277222
0.524655938148498535 0.527688443660736084 0.782177269458770752
-0.396291434764862061 0.31630098819732666 -0.962973594665527344
-0.262983590364456177 0.24013952910900116 0.98817676305770874
0.0623536519706249237 -0.836995363235473633 0.81824791431427002
-0.737943947315216064 0.43142428994178772 -0.0907706990838050842
0.115075811743736267 0.00713702524080872536 -0.999079644680023193
0.631024539470672607 0.197990179061889648 -0.915940284729003906
0.209771126508712769 -0.229101434350013733 -0.991661727428436279
-0.0832673236727714539 0.0739975050091743469 0.997686862945556641
-0.501835882663726807 0.674225211143493652 -0.229410767555236816
-0.58297431468963623 -0.590096533298492432 -0.435474187135696411
0.674705803394317627 -0.10626567155122757 0.921488940715789795
-0.950216710567474365 -0.0821290463209152222 0.531529605388641357
-0.843656539916992188 0.290297031402587891 0.366771310567855835
0.539588868618011475 -0.61639869213104248 0.547302544116973877
0.957188904285430908 -0.0716293305158615112 -0.509918153285980225
-0.620524466037750244 -0.537853896617889404 -0.515292882919311523
-0.55290597677230835 0.580949783325195312 -0.630797266960144043
-0.897460281848907471 -0.210526436567306519 -0.256640464067459106
-0.230028823018074036 -0.767578363418579102 0.787275910377502441
0.587077319622039795 0.592164278030395508 -0.337745606899261475
-0.53857886791229248 0.627360045909881592 0.492069393396377563
0.130498349666595459 0.000194904889212921262 -0.99921947717666626
0.23131658136844635 -0.78282541036605835 -0.766385138034820557
0.299773365259170532 0.841247081756591797 0.118484735488891602
-0.312510013580322266 -0.805647552013397217 -0.545307397842407227
0.23681853711605072 0.878042876720428467 -0.290045678615570068
-0.38314327597618103 -0.77641749382019043 0.214294284582138062
-0.933305442333221436 0.14441196620464325 -0.329897195100784302
-0.209289446473121643 -0.90012967586517334 -0.0360255725681781769
0.399901062250137329 -0.573188900947570801 -0.856871545314788818
-0.651158630847930908 -0.521676540374755859 0.425242036581039429
0.484544873237609863 -0.673345446586608887 0.523524999618530273
0.89080888032913208 0.141759797930717468 0.645834743976593018
0.89758610725402832 -0.0479906052350997925 0.734027624130249023
-0.896002054214477539 0.201485201716423035 0.428560912609100342
-0.652000546455383301 0.467169642448425293 0.648520529270172119
-0.766822576522827148 -0.0940796434879302979 -0.868030011653900146
0.104589901864528656 -0.0286222584545612335 -0.999097824096679688
-0.265823781490325928 0.622481584548950195 -0.895007014274597168
0.674400508403778076 -0.353491246700286865 -0.792674779891967773
-0.19433903694152832 0.147206395864486694 -0.994756162166595459
-0.580373525619506836 -0.603151917457580566 0.0676958933472633362
-0.688582003116607666 0.467505663633346558 -0.509842991828918457
-0.0372144952416419983 -0.890422344207763672 0.752979278564453125
0.329065203666687012 -0.782849729061126709 0.599514126777648926
-0.41782379150390625 -0.686208605766296387 -0.67677772045135498
-0.0489458292722702026 0.430895000696182251 0.986056149005889893
-0.427706688642501831 0.744422256946563721 -0.0943501740694046021
-0.136848613619804382 -0.0697512701153755188 -0.999724626541137695
-0.73043668270111084 -0.440812140703201294 -0.136742845177650452
-0.168130531907081604 0.220342174172401428 0.996116816997528076
0.0411628670990467072 0.902946054935455322 -0.729352772235870361
0.411121338605880737 -0.018500378355383873 -0.99123305082321167
-0.0522390604019165039 0.798308610916137695 0.858613312244415283
0.039465688169002533 -0.787379860877990723 -0.871474623680114746
-0.277146816253662109 -0.851721525192260742 -0.263068884611129761
-0.380870670080184937 -0.778032541275024414 0.231408759951591492
0.34552532434463501 -0.686637580394744873 0.781973063945770264
-0.765931546688079834 -0.0964401364326477051 -0.868206024169921875
0.0377868376672267914 0.392657816410064697 -0.992638707160949707
0.662477374076843262 -0.249830514192581177 -0.875159919261932373
0.369584709405899048 0.781189382076263428 -0.399289816617965698
-0.0487172342836856842 -0.983143389225006104 -0.166557565331459045
0.83221280574798584 -0.271046310663223267 -0.569450318813323975
0.274406939744949341 -0.816627979278564453 0.617697238922119141
0.90098726749420166 -0.194401532411575317 0.418899834156036377
0.0275506041944026947 0.42297285795211792 0.987601995468139648
0.772928714752197266 -0.135196909308433533 -0.846716463565826416
0.857630312442779541 0.276163160800933838 0.202314227819442749
0.0842070281505584717 -0.966668963432312012 -0.040142793208360672
0.18845018744468689 -0.907909750938415527 -0.405210584402084351
0.72367095947265625 0.449670225381851196 -0.251305103302001953
-0.393870055675506592 0.609916031360626221 -0.823048949241638184
-0.386376053094863892 0.683295488357543945 0.737933754920959473
0.302139073610305786 0.835385262966156006 -0.216557338833808899
0.182474032044410706 -0.133463472127914429 -0.994976997375488281
0.359295755624771118 0.387143105268478394 -0.954676151275634766
0.0962942391633987427 0.692271232604980469 -0.917919456958770752
0.398744821548461914 0.764589488506317139 -0.164693132042884827
0.368058979511260986 0.780593514442443848 -0.442407041788101196
0.288319259881973267 0.802397847175598145 -0.635953307151794434
0.384210586547851562 -0.491134792566299438 -0.912839651107788086
-0.41605648398399353 -0.632243216037750244 0.776587724685668945
-0.494297653436660767 0.0843189060688018799 0.979334652423858643
-0.112840250134468079 0.582056879997253418 -0.956944584846496582
-0.158899694681167603 0.923992276191711426 -0.365055620670318604
0.970166206359863281 -0.0793058127164840698 0.277306526899337769
0.660214662551879883 0.490252584218978882 0.568423807621002197
-0.351823359727859497 0.18392123281955719 -0.985855996608734131
0.890304982662200928 0.222235202789306641 0.308346867561340332
-0.441626310348510742 0.726697742938995361 -0.239927470684051514
-0.445413947105407715 -0.726472973823547363 -0.113441139459609985
0.0454521439969539642 -0.981439828872680664 0.164308503270149231
0.610100805759429932 -0.446637481451034546 0.766235470771789551
-0.362589091062545776 -0.283765792846679688 -0.974174439907073975
0.816507577896118164 -0.185075998306274414 -0.760284960269927979
0.900232791900634766 0.150690674781799316 -0.605522036552429199
0.0814732760190963745 -0.970506131649017334 -0.221266061067581177
0.254522532224655151 -0.0160740241408348083 0.997686862945556641
-0.227834954857826233 0.87322002649307251 0.472406655550003052
-0.839420497417449951 -0.261717408895492554 0.56688988208770752
0.649557292461395264 -0.488149106502532959 -0.595740616321563721
-0.765799283981323242 -0.120071709156036377 -0.858339548110961914
0.654555439949035645 0.524579167366027832 0.188626408576965332
-0.477872371673583984 -0.67385333776473999 -0.537017464637756348
-0.760962486267089844 0.364750474691390991 0.581255853176116943
-0.917414188385009766 -0.181988716125488281 -0.223450437188148499
0.696934640407562256 0.466908544301986694 -0.425644189119338989
0.0665136575698852539 0.57009732723236084 0.963442146778106689
-0.0624505840241909027 -0.13815028965473175 0.997686862945556641
-0.430904388427734375 -0.44176366925239563 0.912559628486633301
0.346143186092376709 0.12059842050075531 -0.992270708084106445
-0.00356331467628479004 0.020308617502450943 -0.998016774654388428
-0.234652712941169739 -0.573901712894439697 0.930243015289306641
-0.63977658748626709 -0.543285250663757324 -0.116296477615833282
0.3885154128074646 -0.374817103147506714 -0.952993273735046387
0.49551960825920105 -0.680872738361358643 -0.179035097360610962
0.772259712219238281 -0.261390894651412964 -0.746348679065704346
-0.317540109157562256 0.826444327831268311 -0.127279654145240784
0.11514030396938324 -0.111080072820186615 -0.995802462100982666
0.578478097915649414 0.549531638622283936 0.638531863689422607
0.98888087272644043 0.0231239628046751022 -0.0206967182457447052
-0.70088958740234375 -0.254002004861831665 -0.842319726943969727
0.19457671046257019 0.632597446441650391 0.915033459663391113
-0.804667532444000244 -0.34575536847114563 0.27866026759147644
-0.489585280418395996 -0.687162578105926514 -0.129830077290534973
0.331463396549224854 -0.802635133266448975 0.478936493396759033
0.409789532423019409 -0.0287132728844881058 -0.990964949131011963
-0.800271093845367432 -0.00473924167454242706 -0.869755864143371582
0.431373953819274902 0.432128459215164185 0.917066454887390137
0.102689169347286224 -0.912195801734924316 -0.641094446182250977
-0.441527903079986572 -0.56672060489654541 -0.823870837688446045
-0.960460960865020752 0.102148137986660004 -0.191030308604240417
0.236146256327629089 0.885551154613494873 -0.220082864165306091
-0.928016126155853271 -0.163707777857780457 0.110543407499790192
-0.641968309879302979 -0.536301732063293457 -0.211475968360900879
0.612772703170776367 -0.551894426345825195 0.485629647970199585
0.23609606921672821 -0.764246284961700439 -0.786383688449859619
0.633259415626525879 -0.546779096126556396 -0.291198998689651489
-0.240241512656211853 0.881143689155578613 -0.0640050917863845825
0.207372024655342102 0.898567020893096924 -0.35227656364440918
-0.783150136470794678 0.372979432344436646 -0.246727585792541504
-0.453357458114624023 -0.662197470664978027 0.655233442783355713
-0.983820021152496338 -0.0373590923845767975 -0.18278425931930542
-0.954754352569580078 -0.114120259881019592 -0.0303592775017023087
0.154126957058906555 -0.929626047611236572 -0.211055666208267212
-0.279109954833984375 0.852819383144378662 -0.318053305149078369
0.212506681680679321 -0.892836093902587891 -0.347184807062149048
-0.745394229888916016 -0.423055261373519897 -0.260912179946899414
0.949247360229492188 0.119869954884052277 0.0859430357813835144
0.659254789352416992 -0.0714609324932098389 -0.934870362281799316
0.592441678047180176 0.332242608070373535 -0.879391372203826904
-0.726416170597076416 0.440845370292663574 0.376973807811737061
0.432080924510955811 -0.737266778945922852 -0.323247551918029785
-0.246744871139526367 -0.74673926830291748 -0.79642021656036377
-0.755270957946777344 -0.136429592967033386 0.859933912754058838
-0.137507364153862 0.841533839702606201 -0.763108313083648682
0.0503380075097084045 0.97871476411819458 -0.191559717059135437
-0.133573010563850403 0.595004379749298096 0.94802480936050415
0.5052337646484375 -0.674578845500946045 -0.0794833749532699585
-0.734381914138793945 0.254947662353515625 0.81000971794128418
-0.485339313745498657 0.377583354711532593 -0.91849285364151001
-0.754242599010467529 0.0544667579233646393 0.892522215843200684
-0.0280576050281524658 -0.457553267478942871 -0.987623989582061768
0.922504663467407227 -0.149393141269683838 -0.483276903629302979
0.162163630127906799 -0.355949342250823975 0.986356496810913086
0.934754669666290283 0.143805652856826782 -0.220351144671440125
-0.0997162386775016785 0.799239873886108398 -0.840692579746246338
0.243535473942756653 -0.510795235633850098 -0.948738634586334229
0.820330500602722168 -0.320754587650299072 -0.283163368701934814
0.75272214412689209 -0.411063283681869507 0.32649153470993042
-0.494076251983642578 0.475684553384780884 -0.861666858196258545
0.277225643396377563 -0.0959896519780158997 -0.994348227977752686
0.219480752944946289 0.186100989580154419 0.995019972324371338
-0.0602148324251174927 0.505927383899688721 0.979424357414245605
0.515146255493164062 0.178015261888504028 -0.961551070213317871
-0.44562104344367981 0.659816741943359375 -0.681293129920959473
0.957604348659515381 0.0970696881413459778 -0.322928249835968018
0.291283875703811646 0.607952356338500977 0.892200112342834473
-0.704717814922332764 -0.10044185072183609 -0.909965097904205322
-0.0272865463048219681 -0.963733792304992676 -0.55030357837677002
0.365604758262634277 -0.794309854507446289 -0.120858043432235718
0.0288107078522443771 -0.841417312622070312 -0.826941251754760742
-0.694374024868011475 0.463471800088882446 -0.506748080253601074
-0.507270991802215576 0.0147811872884631157 -0.978692054748535156
-0.307332932949066162 0.823858499526977539 -0.473450601100921631
0.146626964211463928 -0.575861334800720215 -0.951936542987823486
-0.838933289051055908 0.300072759389877319 0.0494762919843196869
-0.856231391429901123 -0.281472086906433105 -0.149818331003189087
0.320219844579696655 0.192372292280197144 0.987195968627929688
-0.63406062126159668 0.48623231053352356 0.652535438537597656
0.309640288352966309 0.270306408405303955 0.982743978500366211
-0.818119406700134277 -0.326745688915252686 0.363962709903717041
-0.13399699330329895 0.934858620166778564 -0.446433186531066895
0.186988979578018188 -0.766497015953063965 0.823233187198638916
-0.198756396770477295 0.843783020973205566 0.687264740467071533
0.281859070062637329 0.208276867866516113 0.989016234874725342
0.576534509658813477 -0.500701367855072021 -0.74539649486541748
-0.3973044753074646 0.758352041244506836 -0.419027507305145264
-0.736269950866699219 0.291757434606552124 -0.776131808757781982
-0.923195123672485352 -0.175673931837081909 -0.0737441927194595337
-0.334367811679840088 0.80245506763458252 -0.462664246559143066
0.159764796495437622 0.377977192401885986 0.984687447547912598
-0.96302342414855957 0.0933581441640853882 -0.112408407032489777
-0.698860466480255127 -0.265809088945388794 -0.839601039886474609
-0.00080758857075124979 -0.991428971290588379 -0.0783132687211036682
0.405764251947402954 0.759402751922607422 -0.132047668099403381
-0.0269534960389137268 -0.00672680744901299477 -0.997553646564483643
-0.057880837470293045 0.278091073036193848 -0.994598746299743652
-0.205557644367218018 0.901959538459777832 0.0274253115057945251
0.28121185302734375 -0.114429086446762085 -0.994173884391784668
-0.950379788875579834 -0.0918257832527160645 0.465396791696548462
0.856523990631103516 -0.274617373943328857 0.202756196260452271
0.01193226408213377 0.604063689708709717 -0.961782276630401611
-0.390092998743057251 -0.771348834037780762 -0.00351619836874306202
-0.919730842113494873 0.161596029996871948 -0.410057008266448975
-0.298427224159240723 -0.83317267894744873 -0.43194580078125
-0.708238720893859863 0.467646390199661255 -0.177522346377372742
-0.0851702913641929626 -0.965760231018066406 -0.188427895307540894
-0.508898556232452393 0.67091214656829834 0.229107901453971863
0.873994350433349609 0.228276893496513367 -0.477803856134414673
0.418726474046707153 0.747219264507293701 0.298995912075042725
-0.458587169647216797 0.715618431568145752 0.0741938874125480652
-0.106253981590270996 0.19934670627117157 -0.996259510517120361
-0.437694400548934937 0.0915419682860374451 -0.983162224292755127
-0.285518437623977661 -0.328401118516921997 -0.977906286716461182
-0.0167597923427820206 0.0450645908713340759 -0.998389899730682373
-0.637283563613891602 -0.510018289089202881 -0.569918930530548096
-0.486085742712020874 0.241029947996139526 -0.958436191082000732
-0.176634415984153748 -0.898508727550506592 0.527118921279907227
-0.574784994125366211 -0.608664929866790771 0.0662628859281539917
0.929689168930053711 -0.156918346881866455 0.0572898946702480316
0.217280372977256775 0.895560979843139648 0.226642400026321411
0.823702573776245117 -0.277770578861236572 -0.59869837760925293
-0.437431961297988892 0.732249438762664795 0.0861049070954322815
-0.757641255855560303 0.397086769342422485 0.441697120666503906
-0.935903072357177734 0.0962395891547203064 -0.556640565395355225
-0.187764152884483337 0.889363348484039307 -0.541235744953155518
0.517762720584869385 0.605615913867950439 0.648710787296295166
0.341463178396224976 -0.809734582901000977 0.156168907880783081
0.853364050388336182 -0.284760892391204834 -0.275222182273864746
-0.0678256228566169739 0.150187551975250244 -0.999354422092437744
-0.117032818496227264 -0.889993906021118164 -0.684335529804229736
-0.75060880184173584 -0.40746799111366272 -0.417399942874908447
-0.667728245258331299 -0.124663792550563812 -0.919784367084503174
0.171027421951293945 0.424420863389968872 -0.978118360042572021
-0.299715131521224976 0.769816100597381592 0.703452587127685547
-0.775274455547332764 0.378298521041870117 -0.343012392520904541
0.408604651689529419 -0.755625605583190918 0.137672588229179382
-0.303329497575759888 0.831587553024291992 0.413302451372146606
-0.570820212364196777 0.611278414726257324 -0.304674535989761353
0.576927542686462402 -0.534034371376037598 -0.679901301860809326
-0.196303099393844604 -0.755368888378143311 -0.825154423713684082
-0.571409523487091064 -0.079945102334022522 -0.963805198669433594
0.936600267887115479 -0.107350215315818787 -0.523340702056884766
-0.616144657135009766 -0.506889045238494873 0.654893875122070312
0.0597383975982666016 0.915646255016326904 0.69981837272644043
0.0848435387015342712 -0.00421802513301372528 -0.998752951622009277
0.278871417045593262 0.800330102443695068 -0.655573427677154541
-0.50095069408416748 -0.14693884551525116 -0.970606327056884766
0.0376688465476036072 -0.983883202075958252 0.308612197637557983
-0.536351799964904785 -0.0908498764038085938 -0.970483720302581787
0.764982819557189941 0.119657807052135468 -0.863177359104156494
0.668538212776184082 0.469867706298828125 -0.606149494647979736
-0.940668225288391113 0.115337736904621124 -0.490765988826751709
0.0979670509696006775 -0.964120745658874512 -0.241083815693855286
0.624525010585784912 -0.559163272380828857 0.0974176004528999329
-0.123793035745620728 0.531724035739898682 -0.968121230602264404
0.201675400137901306 0.117833122611045837 -0.994927585124969482
-0.429570585489273071 0.625858902931213379 -0.767277002334594727
-0.467099100351333618 0.702142953872680664 -0.412794262170791626
0.398917555809020996 -0.76414942741394043 0.0100037893280386925
0.276355236768722534 0.221522688865661621 -0.989580690860748291
-0.582677781581878662 -0.134847208857536316 -0.952484548091888428
0.30946233868598938 0.329593151807785034 0.977781176567077637
-0.0284634251147508621 -0.822595298290252686 0.845707476139068604
0.302853256464004517 0.755533695220947266 -0.72502368688583374
-0.70590054988861084 -0.293238073587417603 -0.805862784385681152
-0.624194324016571045 -0.372014492750167847 -0.831181168556213379
0.232824727892875671 -0.173858493566513062 0.994823753833770752
-0.27012169361114502 0.863633334636688232 -0.058152325451374054
-0.00424391310662031174 -0.00696462951600551605 0.997686862945556641
-0.932327747344970703 -0.147948369383811951 -0.314659625291824341
-0.0904876813292503357 -0.953418076038360596 -0.471937656402587891
-0.573760569095611572 -0.487704008817672729 0.76570737361907959
-0.733886539936065674 0.224600240588188171 0.830539882183074951
