ply
format ascii 1.0
element vertex 741
property float x
property float y
property float z
end_header
-0.470937997102737427 -0.500810921192169189 0.981824219226837158
-0.291617423295974731 -0.997907400131225586 -0.042376641184091568
0.998177707195281982 -0.0765253007411956787 -0.0958832055330276489
0.995023965835571289 -0.784727096557617188 -0.234862327575683594
-0.176730766892433167 0.712344229221343994 -0.927283763885498047
-0.307149440050125122 0.137506023049354553 0.997686862945556641
-0.912378132343292236 -0.44019615650177002 0.736738383769989014
-0.846405446529388428 -0.998073279857635498 -0.0752095505595207214
0.158281609416007996 -0.268556356430053711 0.997686862945556641
-0.446818649768829346 0.998644888401031494 -0.188346594572067261
-0.995103538036346436 0.139344260096549988 -0.315807193517684937
-0.924583137035369873 -0.125545382499694824 0.715750515460968018
-0.998390614986419678 -0.669669032096862793 -0.138012111186981201
0.0125042609870433807 -0.07311992347240448 -0.99861299991607666
-0.580444812774658203 -0.994247555732727051 -0.271506965160369873
0.0525756552815437317 0.157452851533889771 0.997686862945556641
-0.201201751828193665 0.673456966876983643 0.94329369068145752
-0.158071622252464294 -0.537185072898864746 0.978150546550750732
0.370064914226531982 -0.451088935136795044 -0.988255560398101807
0.421243071556091309 0.642957329750061035 -0.953413665294647217
-0.996739685535430908 0.532234251499176025 0.188738062977790833
-0.319012939929962158 0.9982757568359375 -0.0813827440142631531
-0.840067803859710693 0.842473864555358887 -0.838063836097717285
-0.996255815029144287 -0.0151907633990049362 -0.176720649003982544
-0.84346240758895874 0.319639772176742554 0.832899868488311768
0.789143919944763184 0.00299389054998755455 -0.879921138286590576
-0.677559733390808105 -0.789962887763977051 0.883879601955413818
0.800268828868865967 -0.885816633701324463 -0.780290186405181885
-0.991966605186462402 0.195673391222953796 0.394418716430664062
-0.940018415451049805 0.749467194080352783 0.678061902523040771
-0.928697049617767334 0.687240660190582275 -0.702245354652404785
0.452292025089263916 -0.514647960662841797 0.980674684047698975
0.774978816509246826 -0.738259196281433105 0.891880691051483154
0.632224500179290771 0.220990017056465149 -0.953930258750915527
-0.93269658088684082 -0.272985130548477173 -0.693748116493225098
0.739142715930938721 0.447420090436935425 -0.912896335124969482
0.316249668598175049 0.969722568988800049 0.576618671417236328
0.970316112041473389 0.082738146185874939 -0.565247893333435059
-0.0776144266128540039 0.456871181726455688 0.985474705696105957
0.590952396392822266 -0.279788583517074585 -0.96765667200088501
0.708108425140380859 0.0776710435748100281 -0.925969302654266357
0.85467374324798584 0.964077651500701904 -0.59144902229309082
0.998453140258789062 0.287032544612884521 -0.150389313697814941
-0.984630048274993896 -0.410352408885955811 0.463329821825027466
0.408366680145263672 0.43167540431022644 -0.989075303077697754
-0.0397292226552963257 -0.421145766973495483 0.988442718982696533
-0.362712442874908447 -0.980420887470245361 -0.501893937587738037
0.511344075202941895 -0.97774207592010498 0.52802729606628418
-0.990250051021575928 -0.996393859386444092 0.257185012102127075
0.996974050998687744 0.849913358688354492 0.142356574535369873
-0.611678779125213623 0.998505949974060059 -0.260675191879272461
0.200456812977790833 0.863224387168884277 -0.812048792839050293
0.960881531238555908 -0.00377996056340634823 0.606811821460723877
-0.379655003547668457 -0.53126901388168335 0.9792938232421875
-0.991499125957489014 -0.132010817527770996 -0.401229113340377808
0.455994874238967896 0.996388554573059082 0.258238404989242554
-0.358486711978912354 0.737034320831298828 -0.913784503936767578
0.43279653787612915 -0.402012646198272705 0.987474799156188965
0.604659318923950195 0.998400270938873291 -0.139933258295059204
0.591130733489990234 -0.180058300495147705 0.964351832866668701
0.582097470760345459 0.683804214000701904 -0.936775684356689453
-0.306551635265350342 0.985369026660919189 -0.473542779684066772
-0.973115622997283936 0.978839397430419922 0.517720460891723633
0.0638110488653182983 -0.278084248304367065 -0.994865715503692627
-0.993701398372650146 0.126920461654663086 -0.338526993989944458
-0.413701236248016357 0.996583998203277588 -0.161229655146598816
-0.99859696626663208 0.83860623836517334 -0.178864598274230957
-0.944107949733734131 -0.119380265474319458 0.664095461368560791
-0.0817376226186752319 -0.203972786664962769 -0.998689889907836914
-0.514150083065032959 -0.873874306678771973 -0.79707789421081543
-0.990221261978149414 0.15103834867477417 -0.394918084144592285
-0.423718690872192383 -0.960833132266998291 -0.617738246917724609
0.469111472368240356 0.964031875133514404 0.596053063869476318
0.0242119506001472473 -0.0146208768710494041 -0.99798882007598877
0.648980677127838135 0.996457099914550781 0.244678482413291931
-0.275910943746566772 0.494051605463027954 -0.983157992362976074
-0.998320519924163818 0.164679914712905884 -0.124139323830604553
-0.33225974440574646 0.996865689754486084 0.163803339004516602
0.298302978277206421 -0.437939703464508057 -0.988499224185943604
-0.568458139896392822 0.966096878051757812 -0.591701507568359375
0.872581005096435547 -0.512807488441467285 -0.798895955085754395
-0.726881444454193115 -0.968903541564941406 -0.569644331932067871
-0.887607932090759277 -0.986365854740142822 0.447025418281555176
-0.431419253349304199 0.658246397972106934 0.947184383869171143
-0.194968745112419128 -0.690048038959503174 -0.934699118137359619
0.976022064685821533 -0.0206539873033761978 0.544182896614074707
0.464661598205566406 -0.787702441215515137 0.885213792324066162
0.114640310406684875 0.994904398918151855 -0.319034397602081299
-0.999001681804656982 0.623674511909484863 -0.0471202917397022247
0.212866842746734619 0.999328434467315674 -0.0316967591643333435
0.190410390496253967 -0.378208637237548828 0.992009878158569336
0.0241544637829065323 -0.592048406600952148 0.964117109775543213
0.309293508529663086 -0.998683273792266846 -0.195943728089332581
0.305419176816940308 0.0722261965274810791 0.997686862945556641
-0.988271713256835938 -0.875187516212463379 -0.426508039236068726
-0.513603031635284424 0.639049649238586426 0.952094674110412598
0.736439526081085205 0.998148918151855469 -0.0873699337244033813
-0.395229935646057129 0.980149030685424805 0.505419254302978516
0.810458719730377197 0.996821284294128418 0.172586187720298767
-0.795023620128631592 -0.361882001161575317 -0.875306367874145508
-0.743964195251464844 -0.876131176948547363 0.799069046974182129
-0.817061781883239746 -0.994960248470306396 -0.237870559096336365
0.530653536319732666 -0.999427974224090576 -0.0269990749657154083
0.378385812044143677 0.484121531248092651 -0.985037446022033691
0.192992627620697021 0.612652838230133057 0.958846688270568848
0.482216805219650269 -0.997033476829528809 0.130597814917564392
0.702460646629333496 0.994050800800323486 -0.280793666839599609
0.998915672302246094 -0.764845669269561768 -0.241935819387435913
-0.998848378658294678 -0.269537448883056641 -0.228618010878562927
0.0492274761199951172 -0.997447967529296875 -0.120451763272285461
0.421020209789276123 0.70718073844909668 -0.926360070705413818
0.81558990478515625 0.415017247200012207 -0.863194406032562256
0.998954176902770996 -0.187137603759765625 -0.249560713768005371
-0.0498368628323078156 -0.970245957374572754 0.574831187725067139
-0.997025430202484131 0.241585776209831238 0.132185652852058411
0.587928116321563721 -0.995723068714141846 -0.305768758058547974
-0.986455857753753662 0.544182896614074707 -0.455931514501571655
0.172266155481338501 0.0451080836355686188 -0.997351527214050293
-0.307108759880065918 -0.989717423915863037 -0.403082221746444702
-0.0388994961977005005 -0.997717142105102539 -0.00472505809739232063
0.67890697717666626 0.992014110088348389 -0.376922577619552612
-0.232917085289955139 -0.874718248844146729 0.801498711109161377
0.38305962085723877 -0.111135683953762054 -0.991128027439117432
0.996921181678771973 -0.0572823770344257355 0.152815759181976318
-0.366556853055953979 0.992251396179199219 -0.365725159645080566
0.55889970064163208 0.940257489681243896 0.67724531888961792
-0.754251301288604736 -0.385449707508087158 -0.902684688568115234
0.570710062980651855 0.997948586940765381 -0.0968231037259101868
-0.998462200164794922 0.362519770860671997 -0.0725822970271110535
-0.0353442393243312836 -0.0418438129127025604 -0.997386395931243896
0.986555635929107666 -0.758856892585754395 0.44524306058883667
-0.976038217544555664 0.318980932235717773 0.544031381607055664
0.069638378918170929 0.989764094352722168 -0.402326136827468872
0.725047290325164795 0.448494285345077515 -0.918833911418914795
-0.703399837017059326 -0.74362105131149292 -0.911009907722473145
-0.0571884997189044952 0.867452681064605713 -0.805470705032348633
-0.934334397315979004 -0.511860668659210205 -0.690268456935882568
-0.0596184656023979187 -0.81513899564743042 0.85988926887512207
0.997466027736663818 -0.995348751544952393 0.0449824780225753784
-0.213155210018157959 -0.0784258320927619934 0.997686862945556641
-0.698510229587554932 -0.983875691890716553 0.470414936542510986
-0.20696006715297699 -0.381992697715759277 -0.993757009506225586
0.312438666820526123 0.30974772572517395 0.997473955154418945
0.691224873065948486 0.768391907215118408 0.895332098007202148
0.550703942775726318 -0.704528987407684326 -0.927477121353149414
0.992199301719665527 -0.848665058612823486 -0.362866997718811035
-0.183443933725357056 0.816073954105377197 -0.85878443717956543
0.660008072853088379 -0.122002221643924713 -0.946231186389923096
-0.0977514684200286865 0.144916757941246033 -0.996789872646331787
0.992073476314544678 0.371459066867828369 0.393414735794067383
-0.687992334365844727 0.391253203153610229 -0.934443056583404541
0.371685951948165894 0.815124690532684326 -0.859529554843902588
0.0899164974689483643 -0.414161890745162964 0.989022910594940186
0.204541325569152832 -0.998763859272003174 -0.211894243955612183
-0.969622552394866943 -0.893919587135314941 -0.566395461559295654
0.406388282775878906 -0.991165339946746826 0.401944428682327271
-0.1347627192735672 -0.57252037525177002 0.969112157821655273
-0.992660760879516602 0.172580987215042114 -0.355388998985290527
0.845014512538909912 -0.86208420991897583 0.815155148506164551
-0.987412333488464355 -0.351332008838653564 -0.45805966854095459
0.490230679512023926 -0.523669421672821045 -0.977189779281616211
-0.0606293231248855591 -0.993742883205413818 -0.337854355573654175
-0.173404783010482788 0.582315266132354736 0.966606736183166504
-0.875145018100738525 -0.519746840000152588 0.800764918327331543
-0.199230283498764038 -0.659423589706420898 -0.946477413177490234
-0.996663093566894531 -0.638955891132354736 0.203900501132011414
-0.215109214186668396 -0.996280014514923096 0.279726535081863403
-0.254760831594467163 0.94630587100982666 0.656589329242706299
0.48351597785949707 -0.803427219390869141 -0.871024847030639648
-0.44288596510887146 -0.0162756014615297318 -0.987846672534942627
-0.896782040596008301 -0.0809663459658622742 -0.764875710010528564
0.894853055477142334 -0.998865842819213867 -0.232079595327377319
0.595802664756774902 0.920547962188720703 0.722689449787139893
-0.0928541570901870728 0.228687465190887451 -0.995392799377441406
0.9677581787109375 -0.799031257629394531 -0.574819326400756836
-0.0950154140591621399 -0.567020297050476074 0.970519006252288818
0.709311246871948242 0.442007988691329956 -0.925462603569030762
-0.959627389907836914 -0.965130269527435303 -0.597761869430541992
0.569369494915008545 -0.96117478609085083 -0.604565024375915527
-0.996710360050201416 0.141149252653121948 -0.155265897512435913
0.255194962024688721 -0.0437542498111724854 -0.995109915733337402
-0.0201168842613697052 0.137514695525169373 -0.998047471046447754
0.864695727825164795 0.0156435295939445496 -0.808657646179199219
0.992269992828369141 0.398252576589584351 -0.364847540855407715
0.560228943824768066 -0.928534030914306641 -0.703798592090606689
-0.661515772342681885 0.85351639986038208 0.823319435119628906
-0.479899078607559204 0.489622324705123901 -0.981681227684020996
-0.982175052165985107 0.870540142059326172 -0.509679675102233887
-0.27577507495880127 0.995005548000335693 -0.235730290412902832
0.904941082000732422 0.624569296836853027 -0.753406286239624023
-0.998728156089782715 0.541447222232818604 -0.0600296519696712494
-0.314692080020904541 0.962692975997924805 -0.597705304622650146
0.947741985321044922 0.969137847423553467 -0.572635650634765625
-0.294985711574554443 0.204795524477958679 0.997686862945556641
-0.0334662012755870819 0.733301043510437012 0.913718819618225098
0.0901141241192817688 -0.119703546166419983 0.997686862945556641
-0.952803492546081543 0.838827013969421387 -0.642388820648193359
0.997603476047515869 -0.357103496789932251 0.0177770666778087616
0.53488004207611084 -0.992338359355926514 0.390926659107208252
0.126233652234077454 -0.576586246490478516 0.968072175979614258
0.297637313604354858 -0.039104115217924118 0.997686862945556641
0.403630495071411133 0.996718466281890869 -0.15488491952419281
0.416119277477264404 -0.639354050159454346 0.952016830444335938
0.421150714159011841 0.447601497173309326 -0.98722463846206665
0.757217943668365479 0.887677609920501709 -0.777674198150634766
-0.0452500097453594208 -0.99730527400970459 0.0767924115061759949
-0.183326691389083862 0.99622422456741333 0.290766358375549316
0.988373875617980957 0.450836926698684692 0.428164631128311157
0.182519510388374329 0.665788650512695312 -0.943796157836914062
0.692789733409881592 -0.916184008121490479 -0.736704885959625244
-0.0150710251182317734 -0.367626756429672241 0.992888987064361572
-0.874339520931243896 -0.822499990463256836 -0.796423912048339844
0.108064852654933929 0.437273859977722168 -0.988587021827697754
0.65859687328338623 -0.835067152976989746 -0.843877196311950684
0.960437774658203125 -0.69603431224822998 -0.618791639804840088
-0.356164038181304932 0.997051775455474854 0.126973837614059448
-0.173460066318511963 0.117468863725662231 -0.999683678150177002
-0.412528038024902344 0.640865921974182129 -0.95429462194442749
0.50934290885925293 -0.986622869968414307 -0.463009238243103027
-0.250495344400405884 0.980062246322631836 -0.519226014614105225
0.211331918835639954 0.89426875114440918 -0.774472296237945557
0.424537032842636108 -0.957381904125213623 -0.621702313423156738
0.191007897257804871 0.998517930507659912 -0.16321292519569397
-0.648042619228363037 -0.768657684326171875 0.895192801952362061
0.513787984848022461 -0.33483240008354187 -0.979422569274902344
-0.792631685733795166 0.521146535873413086 0.881336510181427002
0.864740312099456787 -0.930400490760803223 -0.698626279830932617
0.537419438362121582 0.531126081943511963 0.978090584278106689
0.144919395446777344 0.0177695285528898239 -0.999379098415374756
0.991962254047393799 -0.987150728702545166 -0.379371762275695801
0.833539366722106934 0.415499418973922729 -0.845076322555541992
0.902063608169555664 -0.0988785251975059509 -0.757451295852661133
0.382682174444198608 0.495058983564376831 0.98230212926864624
0.996293544769287109 -0.145706102252006531 0.277043640613555908
-0.995237469673156738 -0.666832387447357178 -0.224784538149833679
0.137004673480987549 0.0179079622030258179 -0.99764174222946167
-0.315046012401580811 0.729552567005157471 -0.916936099529266357
0.28797835111618042 -0.0327231436967849731 0.997686862945556641
0.558458983898162842 -0.0252318736165761948 -0.970967888832092285
-0.712734818458557129 -0.997611939907073975 0.0161069799214601517
0.0358315780758857727 -0.997055292129516602 0.126275613903999329
0.723174691200256348 -0.983100235462188721 -0.485095322132110596
0.333927810192108154 -0.728696823120117188 0.916131317615509033
0.944014310836791992 0.201245054602622986 -0.662551641464233398
0.602029621601104736 -0.34268835186958313 0.961564004421234131
0.934182643890380859 -0.7870979905128479 -0.688748002052307129
-0.0215509664267301559 -0.882547914981842041 0.788034796714782715
-0.987788259983062744 0.0134014887735247612 -0.434341728687286377
-0.0550763756036758423 -0.986125171184539795 -0.466129690408706665
0.99334406852722168 -0.79625236988067627 -0.34431689977645874
-0.173134490847587585 -0.639290988445281982 -0.954958081245422363
-0.182034879922866821 0.825865566730499268 -0.85354381799697876
-0.351862400770187378 -0.17588980495929718 -0.994078516960144043
0.372572511434555054 -0.776471197605133057 -0.889867663383483887
0.992305517196655273 0.131918206810951233 -0.36317017674446106
0.235858649015426636 -0.182728350162506104 -0.997343480587005615
0.990160763263702393 -0.890716552734375 0.411380767822265625
0.592870652675628662 0.809774041175842285 -0.86372905969619751
0.970747768878936768 0.345162481069564819 -0.562541604042053223
0.248787090182304382 0.777307748794555664 0.890660405158996582
-0.996551036834716797 0.899656414985656738 0.226074531674385071
-0.996892035007476807 -0.200289309024810791 0.158589869737625122
-0.330178111791610718 -0.934142470359802246 0.698128879070281982
0.919065594673156738 0.604890584945678711 -0.722708165645599365
0.326304078102111816 0.998802065849304199 -0.219454571604728699
0.931806504726409912 0.790928006172180176 0.703329086303710938
-0.608228385448455811 0.929702043533325195 -0.700110197067260742
-0.994755923748016357 -0.394507288932800293 -0.247512459754943848
0.92696303129196167 0.992859780788421631 -0.352163970470428467
0.998845934867858887 0.547035634517669678 -0.228132128715515137
-0.563214421272277832 0.996002197265625 0.334707140922546387
0.796898841857910156 -0.326551496982574463 -0.873834550380706787
-0.558820962905883789 -0.57211226224899292 -0.97079920768737793
-0.78180241584777832 0.875377416610717773 -0.796309947967529297
-0.281726360321044922 -0.0793203040957450867 -0.994826853275299072
0.527121007442474365 -0.987500905990600586 -0.457504183053970337
0.878172218799591064 0.487547487020492554 -0.79307931661605835
-0.603769421577453613 -0.268417388200759888 -0.963393986225128174
-0.623237490653991699 0.0028293172363191843 0.956139266490936279
-0.0550573095679283142 0.15208086371421814 -0.999455511569976807
-0.737355530261993408 -0.174585714936256409 0.911594390869140625
-0.12563304603099823 -0.387051284313201904 -0.990959525108337402
0.997477412223815918 0.708885729312896729 0.0427301675081253052
-0.121774047613143921 0.957956790924072266 -0.61910480260848999
-0.39542001485824585 -0.992358982563018799 0.390732914209365845
-0.983625054359436035 -0.642652630805969238 -0.481804877519607544
-0.880472123622894287 0.333515703678131104 0.791604280471801758
-0.996838569641113281 -0.269263297319412231 0.169169247150421143
-0.114315956830978394 0.878892183303833008 -0.790024101734161377
0.78803563117980957 -0.908171176910400391 -0.74585413932800293
0.714983344078063965 -0.88707888126373291 -0.778515756130218506
0.47674134373664856 0.586545467376708984 -0.968895137310028076
0.967459380626678467 0.103814549744129181 -0.58315885066986084
-0.749124348163604736 -0.99957275390625 -0.0201653633266687393
-0.450565338134765625 0.997602403163909912 0.0179849471896886826
-0.997981548309326172 -0.00816046074032783508 -0.0570584386587142944
-0.993718564510345459 -0.198496207594871521 -0.296475350856781006
-0.114850722253322601 -0.192196264863014221 -0.999058306217193604
0.399587631225585938 0.991217672824859619 -0.414513647556304932
-0.248691901564598083 0.973524570465087891 -0.545132040977478027
-0.0691679045557975769 -0.0534340701997280121 0.997686862945556641
-0.546557962894439697 -0.679575741291046143 0.941728532314300537
0.925739705562591553 -0.739007055759429932 -0.708528399467468262
-0.93603140115737915 0.988316237926483154 0.428706079721450806
0.835276186466217041 -0.951154232025146484 -0.649840652942657471
-0.279567241668701172 -0.984678447246551514 0.462875157594680786
-0.945114612579345703 0.9502297043800354 -0.654017925262451172
-0.517322957515716553 -0.00113825034350156784 -0.978026986122131348
0.226593106985092163 -0.207026347517967224 -0.997734725475311279
-0.0847391337156295776 -0.582089602947235107 -0.966495394706726074
0.627782464027404785 0.849131226539611816 -0.831860005855560303
0.0873099863529205322 0.00326076126657426357 0.997686862945556641
0.878854811191558838 0.705213546752929688 -0.790076613426208496
-0.693040132522583008 -0.0204106699675321579 -0.932316720485687256
-0.997658908367156982 0.177361473441123962 0.00679986830800771713
-0.402635276317596436 -0.911672890186309814 -0.743943214416503906
-0.220491260290145874 -0.986346781253814697 0.447204709053039551
0.204940751194953918 0.590061604976654053 0.964625298976898193
0.231655672192573547 0.975931942462921143 0.545029580593109131
-0.0700357556343078613 0.986184120178222656 -0.460334599018096924
-0.997478187084197998 0.763774335384368896 -0.119025774300098419
-0.149648949503898621 0.592561662197113037 -0.967121481895446777
-0.894643187522888184 0.659298419952392578 -0.767882406711578369
-0.589473605155944824 0.808819353580474854 -0.864478409290313721
-0.990229606628417969 -0.556868374347686768 -0.394783258438110352
-0.757097005844116211 -0.572836995124816895 -0.900852620601654053
-0.500497579574584961 -0.234230652451515198 0.981850266456604004
-0.519332170486450195 -0.983833849430084229 -0.48049578070640564
0.68580329418182373 0.0995908975601196289 0.938606500625610352
0.0905149951577186584 0.972006857395172119 -0.555622696876525879
-0.99825131893157959 0.252890735864639282 -0.110443659126758575
-0.168031707406044006 0.174807131290435791 -0.999698042869567871
-0.0244156774133443832 -0.705602943897247314 -0.927024722099304199
0.878750085830688477 -0.988933086395263672 -0.448525041341781616
-0.65594780445098877 0.54396522045135498 -0.94604027271270752
-0.0448102653026580811 -0.863742530345916748 -0.80975949764251709
0.994243502616882324 -0.727176308631896973 -0.271698147058486938
-0.181661441922187805 0.314738184213638306 0.997282922267913818
0.97979438304901123 -0.791254162788391113 -0.520436286926269531
0.992708325386047363 -0.195626750588417053 -0.344158470630645752
-0.925240039825439453 -0.00473742978647351265 -0.712575376033782959
0.89901578426361084 -0.99289548397064209 -0.335323333740234375
0.85380256175994873 0.43331068754196167 0.823046684265136719
0.00958904717117547989 -0.963653206825256348 -0.607022583484649658
-0.998140335083007812 0.15526975691318512 -0.0884765014052391052
-0.141522929072380066 0.719365954399108887 -0.921227157115936279
0.210998162627220154 0.887135982513427734 0.780145049095153809
0.718005955219268799 -0.81727224588394165 -0.857843995094299316
-0.224364191293716431 0.98378831148147583 -0.499155938625335693
-0.84603506326675415 -0.664736032485961914 0.830448389053344727
0.873554587364196777 -0.90196382999420166 -0.759042143821716309
-0.601815700531005859 -0.996936380863189697 0.149809688329696655
-0.0379934795200824738 -0.783074915409088135 0.887638509273529053
-0.695560693740844727 0.224381417036056519 0.933493852615356445
-0.247470259666442871 0.908496975898742676 0.743412435054779053
-0.122775845229625702 0.25526842474937439 -0.996523916721343994
0.208690345287322998 -0.99443662166595459 0.371218353509902954
0.196436569094657898 -0.997994840145111084 -0.0596808269619941711
0.99762880802154541 0.123567946255207062 -0.274888098239898682
-0.916968286037445068 -0.542574584484100342 0.728845059871673584
0.378303021192550659 0.803457379341125488 0.871020734310150146
-0.457141607999801636 0.99689173698425293 0.158643513917922974
-0.294270694255828857 -0.0102765364572405815 -0.994877099990844727
-0.742776453495025635 0.00370405102148652077 -0.911365628242492676
0.905801475048065186 -0.997242093086242676 -0.130170390009880066
-0.0521196611225605011 -0.311073362827301025 -0.994167625904083252
0.16265714168548584 0.30170866847038269 -0.9946136474609375
-0.990884184837341309 0.0131616992875933647 0.404585361480712891
-0.434025287628173828 0.986895501613616943 0.442050576210021973
0.932228624820709229 -0.998914361000061035 -0.0512419044971466064
0.613253235816955566 0.487537950277328491 0.958693146705627441
-0.380779027938842773 -0.782638847827911377 -0.88440859317779541
-0.989655435085296631 -0.303132593631744385 -0.443996131420135498
0.233550474047660828 0.194798246026039124 -0.995754361152648926
-0.578062772750854492 -0.144946932792663574 0.967694461345672607
0.706386089324951172 0.984764754772186279 -0.483334243297576904
-0.316314697265625 -0.974473655223846436 -0.539181411266326904
-0.423514693975448608 -0.785684883594512939 -0.882636070251464844
0.136797398328781128 0.365376055240631104 -0.993934333324432373
-0.401920109987258911 -0.112963244318962097 -0.993250906467437744
0.5809478759765625 0.966068923473358154 -0.591876566410064697
0.881592631340026855 0.914366662502288818 -0.732691287994384766
0.114485584199428558 -0.622075676918029785 -0.958927392959594727
0.90649116039276123 -0.998646438121795654 -0.188654884696006775
-0.62943112850189209 0.998060941696166992 -0.0727612301707267761
-0.949480950832366943 -0.851683259010314941 -0.657401204109191895
0.939500331878662109 0.975886940956115723 -0.530320405960083008
-0.900073647499084473 0.996023416519165039 0.330514460802078247
0.99974900484085083 0.253065317869186401 -0.0118457945063710213
-0.47262418270111084 -0.976182401180267334 -0.536756336688995361
0.89870750904083252 0.996251881122589111 0.285295665264129639
-0.0976154133677482605 -0.18957085907459259 -0.996791303157806396
-0.925806224346160889 -0.629353880882263184 -0.708387136459350586
-0.426429331302642822 0.590281307697296143 -0.964945018291473389
-0.528022348880767822 0.284217327833175659 0.979563534259796143
-0.252196729183197021 0.996304512023925781 -0.174423336982727051
0.394083380699157715 0.65967857837677002 -0.944799482822418213
-0.850964128971099854 -0.988274097442626953 0.429101437330245972
0.997613489627838135 -0.239409551024436951 0.0157937556505203247
-0.322925329208374023 -0.894411802291870117 -0.768207728862762451
0.650528609752655029 -0.408938884735107422 -0.950224339962005615
-0.998900055885314941 -0.466844350099563599 -0.238853290677070618
0.0382310748100280762 0.85900580883026123 -0.817978978157043457
-0.0419190004467964172 0.179061561822891235 -0.997385561466217041
0.0837624147534370422 0.997122526168823242 0.112964272499084473
-0.997604727745056152 0.928192973136901855 0.0175324063748121262
-0.232844337821006775 -0.246560245752334595 -0.99534839391708374
0.268448323011398315 0.0157560892403125763 0.997686862945556641
0.34676051139831543 -0.986845731735229492 -0.449614137411117554
-0.993686795234680176 0.597850382328033447 -0.297974318265914917
0.170292362570762634 -0.984661400318145752 -0.48500823974609375
0.3629913330078125 0.990908622741699219 -0.383780509233474731
-0.996979832649230957 0.418068289756774902 0.141207575798034668
-0.259798288345336914 0.877732396125793457 0.796315610408782959
-0.934975922107696533 -0.575718462467193604 0.695282578468322754
0.0309089217334985733 0.369363218545913696 -0.993891775608062744
0.757508993148803711 0.712190568447113037 -0.900587379932403564
-0.679943501949310303 0.995872557163238525 -0.194811120629310608
-0.837830305099487305 -0.200825959444046021 -0.841708481311798096
0.21302543580532074 0.912316739559173584 -0.737046599388122559
-0.895845770835876465 -0.998874843120574951 -0.233860209584236145
-0.980647027492523193 0.702674984931945801 -0.516583859920501709
0.524621129035949707 -0.754019021987915039 0.902863085269927979
-0.102833524346351624 0.93779146671295166 0.685667037963867188
0.496548563241958618 0.570278584957122803 0.969685614109039307
-0.998037457466125488 0.93649899959564209 -0.0681159049272537231
0.0255810245871543884 0.996518313884735107 0.232558131217956543
0.300661653280258179 0.999220490455627441 -0.0367930643260478973
-0.534457087516784668 0.669519722461700439 -0.941526472568511963
-0.609800398349761963 0.514944851398468018 0.959576308727264404
0.504226207733154297 -0.978330075740814209 -0.515002965927124023
-0.988850712776184082 -0.957602143287658691 -0.417126566171646118
0.437505155801773071 0.998695611953735352 -0.198381796479225159
-0.669391155242919922 -0.995189309120178223 0.364148169755935669
0.477316021919250488 0.938206613063812256 0.684249401092529297
-0.965800583362579346 0.993561089038848877 -0.303907334804534912
-0.531232655048370361 0.592007637023925781 0.964127540588378906
-0.520976901054382324 0.060995977371931076 0.980148911476135254
-0.792762815952301025 -0.914233565330505371 -0.73297417163848877
0.233895093202590942 -0.636464118957519531 -0.952520251274108887
-0.732381165027618408 0.587236940860748291 -0.915744602680206299
0.224045127630233765 0.927437722682952881 0.710841715335845947
-0.551472008228302002 -0.989043474197387695 -0.414002388715744019
0.202415436506271362 0.987453997135162354 -0.439758062362670898
-0.00125145050697028637 0.713196396827697754 -0.923826038837432861
0.165314182639122009 0.997830629348754883 -0.0271855946630239487
-0.583617866039276123 0.601719319820404053 -0.962780177593231201
-0.273686975240707397 0.171494573354721069 -0.996003031730651855
0.885581493377685547 0.931440293788909912 -0.69641721248626709
-0.0562271289527416229 -0.0393335670232772827 -0.997413158416748047
-0.849532902240753174 -0.125067129731178284 0.827115297317504883
0.590418577194213867 -0.999238133430480957 -0.0359586812555789948
-0.988449454307556152 -0.996873557567596436 0.162243455648422241
0.355165839195251465 0.984821140766143799 -0.482420057058334351
-0.727177679538726807 0.594566941261291504 0.916927337646484375
-0.245772838592529297 0.509845197200775146 -0.980168819427490234
-0.0710167661309242249 -0.0172866098582744598 0.997686862945556641
0.737595021724700928 0.159329071640968323 -0.913408160209655762
0.913106799125671387 0.401165604591369629 -0.735368072986602783
0.965226709842681885 -0.931687414646148682 -0.597157120704650879
-0.624924302101135254 -0.750347912311553955 -0.905197739601135254
0.989085972309112549 0.0331155583262443542 0.421475678682327271
-0.531002819538116455 0.276265561580657959 -0.976222336292266846
0.577573537826538086 0.984184145927429199 -0.492741972208023071
-0.271171003580093384 -0.382185310125350952 -0.991164982318878174
0.0585844852030277252 0.138962596654891968 -0.997207760810852051
-0.613357603549957275 0.99906766414642334 -0.0440060310065746307
-0.957293927669525146 -0.551264941692352295 -0.627168357372283936
0.0161307994276285172 0.445820838212966919 0.986392736434936523
0.272437483072280884 0.215255439281463623 -0.995799005031585693
0.115144222974777222 -0.868861198425292969 0.808697283267974854
-0.433928191661834717 0.984315037727355957 0.466288298368453979
-0.195363685488700867 -0.994726300239562988 -0.321919441223144531
-0.911072731018066406 0.114299260079860687 0.738983154296875
-0.575215756893157959 -0.456041038036346436 -0.967796385288238525
-0.0912505090236663818 -0.996435463428497314 0.248954102396965027
0.86442255973815918 0.0835800915956497192 0.812926888465881348
0.0157852042466402054 -0.937882304191589355 0.685356736183166504
0.855919778347015381 -0.196740135550498962 -0.822317123413085938
-0.886235475540161133 0.0618247613310813904 -0.783758461475372314
-0.0762385502457618713 -0.187065720558166504 -0.998646318912506104
0.469986766576766968 -0.870239675045013428 0.80738377571105957
-0.330640465021133423 -0.79715651273727417 0.87702476978302002
-0.825962603092193604 0.99879831075668335 -0.218709409236907959
-0.997509121894836426 0.401986926794052124 0.0364506617188453674
-0.515270769596099854 -0.767785012722015381 -0.893971621990203857
0.708797574043273926 0.460694998502731323 -0.928463339805603027
-0.122857667505741119 0.868110060691833496 0.809413135051727295
-0.992136240005493164 -0.0744840428233146667 -0.371160537004470825
0.157786011695861816 0.865700960159301758 -0.807495594024658203
0.31913989782333374 0.0239129792898893356 -0.99382704496383667
-0.160708039999008179 0.332444727420806885 0.995811879634857178
-0.41331055760383606 -0.0507062412798404694 0.989093661308288574
0.521122217178344727 0.381706178188323975 -0.978034436702728271
0.432394206523895264 0.666497945785522461 0.945073723793029785
-0.577599465847015381 0.339574247598648071 -0.967345237731933594
0.437318086624145508 -0.744555473327636719 -0.910616278648376465
0.177886471152305603 -0.881693124771118164 -0.786086678504943848
-0.861891806125640869 0.872384250164031982 -0.799769937992095947
0.70658034086227417 0.997446954250335693 0.0487621426582336426
-0.304029345512390137 0.615626811981201172 -0.959450364112854004
-0.95944446325302124 -0.998177170753479004 -0.0957741290330886841
0.438679814338684082 -0.859545230865478516 -0.814611434936523438
0.367637276649475098 -0.747894704341888428 0.906072080135345459
-0.995418071746826172 0.851568281650543213 0.361999660730361938
0.377656400203704834 -0.418404221534729004 -0.989635646343231201
-0.106329523026943207 0.997282564640045166 0.0812892094254493713
-0.991790354251861572 0.356307268142700195 -0.387484043836593628
0.69878840446472168 -0.984548270702362061 0.464097976684570312
0.918135583400726318 -0.983210563659667969 -0.4844035804271698
0.285014867782592773 -0.927382826805114746 -0.705037534236907959
0.261383086442947388 0.843597114086151123 0.832771480083465576
0.132901176810264587 -0.188140556216239929 -0.995825409889221191
0.83456718921661377 -0.99657142162322998 0.222050994634628296
-0.813783645629882812 0.152480453252792358 -0.860582053661346436
0.0569341331720352173 0.965638458728790283 -0.59457552433013916
0.0362275093793869019 0.453815221786499023 0.985728561878204346
0.589930474758148193 -0.998682737350463867 -0.195832133293151855
-0.253472954034805298 -0.0962204188108444214 -0.996806204319000244
-0.922719299793243408 -0.569948017597198486 0.718955636024475098
0.678642451763153076 -0.354265391826629639 0.941967308521270752
0.766083300113677979 0.598564863204956055 -0.89802086353302002
-0.251168251037597656 -0.239478930830955505 0.997686862945556641
0.357059568166732788 -0.883012652397155762 0.787235558032989502
-0.9806365966796875 -0.203553512692451477 0.500839650630950928
0.912549734115600586 0.995051443576812744 0.365443289279937744
-0.803728640079498291 -0.839139163494110107 -0.838200092315673828
-0.980375885963439941 0.685479164123535156 -0.502176165580749512
0.842626214027404785 -0.280917763710021973 0.833696663379669189
-0.991992771625518799 0.955841302871704102 -0.366213351488113403
-0.973122179508209229 0.261403679847717285 -0.550583302974700928
0.488973319530487061 -0.653805017471313477 -0.94675290584564209
-0.682176053524017334 0.732018649578094482 0.914390802383422852
-0.948787152767181396 -0.997172534465789795 0.103073433041572571
0.436061978340148926 -0.889142334461212158 0.776694953441619873
0.612433195114135742 0.330203711986541748 0.958902895450592041
0.143121764063835144 -0.0507772490382194519 -0.998374640941619873
0.0468784309923648834 -0.571708977222442627 0.969319701194763184
-0.507220149040222168 -0.743239462375640869 -0.911170601844787598
0.960620582103729248 -0.376540869474411011 -0.607068955898284912
-0.949269592761993408 0.0233417507261037827 -0.658356070518493652
0.546817183494567871 0.544167280197143555 -0.97317129373550415
-0.996654391288757324 0.609816074371337891 -0.290677875280380249
0.932533681392669678 0.158978193998336792 -0.693141639232635498
0.99532926082611084 0.419592708349227905 0.362833559513092041
-0.993613004684448242 -0.335459917783737183 -0.339959323406219482
0.471263200044631958 -0.586193859577178955 -0.965718626976013184
0.41589924693107605 0.998803019523620605 -0.219641730189323425
-0.452753841876983643 -0.976587057113647461 0.538876056671142578
-0.914406239986419678 0.0482832342386245728 -0.74010080099105835
-0.0734982937574386597 0.980330348014831543 0.503716230392456055
-0.91711735725402832 -0.0594956725835800171 -0.726847290992736816
0.148053720593452454 -0.513504743576049805 -0.978530704975128174
0.480334848165512085 0.549359619617462158 0.975036442279815674
-0.317584693431854248 0.998186290264129639 -0.0975752994418144226
0.925279498100280762 0.926497101783752441 0.712459206581115723
-0.978494226932525635 0.259972751140594482 0.520962238311767578
0.217380166053771973 0.490243643522262573 -0.981599271297454834
0.572612285614013672 0.344590514898300171 -0.970733225345611572
-0.882236599922180176 -0.288043588399887085 -0.788380980491638184
0.650829076766967773 -0.988634765148162842 -0.450395435094833374
-0.996966421604156494 -0.0349593088030815125 -0.285621970891952515
-0.798751950263977051 0.998045504093170166 -0.0697127059102058411
-0.243182986974716187 0.995982170104980469 0.338678330183029175
-0.978539943695068359 0.634263336658477783 -0.526104331016540527
0.742076277732849121 -0.327792227268218994 0.909120798110961914
-0.586778044700622559 -0.936082959175109863 0.691501736640930176
0.592418551445007324 -0.979522466659545898 -0.507526874542236328
-0.774763226509094238 -0.0231552496552467346 -0.889478981494903564
0.886212170124053955 0.817671537399291992 -0.783785402774810791
-0.648703396320343018 0.998413026332855225 -0.0749040767550468445
-0.901005744934082031 -0.156970888376235962 -0.761077642440795898
-0.103333115577697754 -0.817241311073303223 -0.8578682541847229
0.904623270034790039 -0.983338117599487305 0.475464522838592529
-0.946031808853149414 -0.67759096622467041 -0.657176077365875244
0.321197181940078735 -0.549538552761077881 -0.972656190395355225
0.976921439170837402 -0.46327856183052063 -0.533417224884033203
0.996959328651428223 0.195828437805175781 0.14526703953742981
0.998706996440887451 -0.834319591522216797 -0.20063936710357666
0.709057629108428955 -0.999368429183959961 -0.029810076579451561
-0.996084451675415039 -0.909569203853607178 0.31842505931854248
-0.172903358936309814 0.0923056825995445251 -0.996847927570343018
-0.996362209320068359 0.206573754549026489 0.263457953929901123
-0.745696306228637695 0.14923664927482605 0.907223999500274658
0.982020080089569092 0.882772564888000488 -0.510380089282989502
0.675008416175842285 0.0534444153308868408 0.942896842956542969
0.383357703685760498 -0.0959447696805000305 -0.991115450859069824
0.268050611019134521 0.506857514381408691 -0.979407548904418945
0.178858548402786255 0.911316573619842529 0.738563835620880127
0.958605170249938965 -0.744740724563598633 0.614585816860198975
-0.959779918193817139 0.165875598788261414 -0.620544493198394775
-0.232231065630912781 0.20550180971622467 0.997686862945556641
0.603813529014587402 -0.940708577632904053 -0.676726043224334717
-0.996509134769439697 -0.534199774265289307 -0.164765387773513794
0.541372537612915039 0.770344197750091553 -0.892323970794677734
0.83684539794921875 0.997385084629058838 0.0610001310706138611
0.999894797801971436 0.957885324954986572 -0.00496539240702986717
0.341809540987014771 0.996307611465454102 0.274254590272903442
0.498985469341278076 0.981688976287841797 0.490954667329788208
-0.995621740818023682 -0.859002888202667236 -0.206649318337440491
-0.196809098124504089 -0.86841881275177002 -0.804746866226196289
-0.634858489036560059 0.993305087089538574 -0.315989851951599121
-0.975101113319396973 -0.414068520069122314 0.552833497524261475
0.41211247444152832 0.996808290481567383 0.175161376595497131
0.62359464168548584 -0.982143878936767578 -0.491091459989547729
0.0364907681941986084 -0.307577520608901978 0.997686862945556641
0.661113083362579346 -0.803546547889709473 0.870935738086700439
-0.149311929941177368 -0.529077410697937012 -0.976528823375701904
0.997608959674835205 -0.971343874931335449 -0.112853348255157471
-0.119353242218494415 0.053736422210931778 -0.99725949764251709
-0.117561288177967072 -0.0180174671113491058 -0.999087214469909668
0.156418681144714355 0.19659106433391571 0.997686862945556641
-0.804009079933166504 0.855080783367156982 -0.819772124290466309
-0.357008308172225952 0.0967290103435516357 -0.994023621082305908
0.140075534582138062 0.129195526242256165 0.997686862945556641
0.292981863021850586 -0.190843254327774048 0.997686862945556641
0.998328208923339844 0.414598673582077026 -0.125671103596687317
0.998481929302215576 0.0279213972389698029 -0.0716508924961090088
0.737235605716705322 -0.286119937896728516 -0.913639545440673828
0.639712035655975342 -0.958008170127868652 -0.625265240669250488
-0.177769839763641357 0.99688190221786499 -0.147171333432197571
-0.216456711292266846 -0.998506009578704834 -0.160852670669555664
0.800543427467346191 0.882152974605560303 -0.788477659225463867
-0.999498069286346436 -0.522547543048858643 -0.0236912369728088379
-0.873197197914123535 -0.913824081420898438 0.734251976013183594
0.958952784538269043 0.387857317924499512 0.61339879035949707
0.64704442024230957 0.266312211751937866 -0.951692044734954834
0.313353478908538818 -0.253770351409912109 -0.994071364402770996
-0.995850145816802979 0.0981360897421836853 0.357941091060638428
-0.811071038246154785 0.480302512645721436 0.863765597343444824
0.713280379772186279 -0.70093768835067749 -0.926972389221191406
-0.231673181056976318 -0.952498376369476318 -0.639946043491363525
0.020639762282371521 -0.399706661701202393 -0.993542909622192383
0.935901820659637451 0.420627802610397339 0.692120552062988281
0.559615731239318848 0.7664070725440979 -0.894858717918395996
-0.0815108343958854675 0.0208198670297861099 -0.996963143348693848
-0.257377207279205322 -0.307588666677474976 0.997686862945556641
0.619575679302215576 0.998438656330108643 -0.073693394660949707
0.126656845211982727 -0.996723175048828125 0.192012682557106018
0.1471872478723526 0.990190863609313965 -0.395410418510437012
-0.542038202285766602 0.974395811557769775 0.559458136558532715
-0.891167521476745605 -0.310670286417007446 0.773212432861328125
-0.10776945948600769 0.926338315010070801 -0.707256674766540527
-0.751192450523376465 0.9984779953956604 -0.155307844281196594
-0.994013428688049316 -0.508358538150787354 -0.282557517290115356
-0.159336060285568237 -0.995940446853637695 -0.302246212959289551
-0.995458602905273438 0.697346329689025879 -0.214347541332244873
0.233226284384727478 0.710761904716491699 0.925528824329376221
-0.378108471632003784 -0.99287569522857666 -0.336258590221405029
-0.429292619228363037 0.720683634281158447 0.920330047607421875
0.371932059526443481 -0.991402626037597656 -0.405784189701080322
0.999425292015075684 -0.796796023845672607 -0.0271259825676679611
-0.897423088550567627 0.294156879186630249 0.762455224990844727
0.991294622421264648 -0.179237395524978638 -0.377525925636291504
0.776524782180786133 -0.623359739780426025 -0.888344883918762207
0.456832408905029297 0.990019261837005615 0.412709355354309082
0.606968581676483154 -0.633240699768066406 0.953580558300018311
-0.993059158325195312 -0.432952582836151123 -0.32759740948677063
-0.461752414703369141 -0.997335493564605713 0.070818290114402771
-0.0450311489403247833 -0.435841113328933716 -0.988899409770965576
0.0967952236533164978 0.993429243564605713 -0.310131639242172241
0.125709295272827148 -0.104207910597324371 -0.998944759368896484
0.984115421772003174 0.88474738597869873 -0.493855744600296021
-0.952536702156066895 0.401627540588378906 0.63531029224395752
-0.547297775745391846 -0.50510329008102417 0.97556382417678833
0.662061333656311035 0.98049694299697876 0.502151072025299072
-0.508631348609924316 -0.997580885887145996 -0.114179752767086029
-0.992477297782897949 -0.356837481260299683 -0.355062723159790039
-0.911299586296081543 0.975896358489990234 -0.530261516571044922
0.9930838942527771 0.293580144643783569 -0.348533123731613159
-0.237383320927619934 0.240829750895500183 0.997686862945556641
0.926911115646362305 -0.041176866739988327 -0.708122730255126953
-0.999872148036956787 0.820967555046081543 -0.00603372324258089066
-0.971684873104095459 -0.324688881635665894 -0.556666254997253418
0.541773617267608643 0.954802036285400391 -0.633358955383300781
-0.786629557609558105 0.988349616527557373 0.428392559289932251
0.998756110668182373 0.417432188987731934 -0.210356175899505615
0.991068482398986816 0.438808351755142212 -0.421555191278457642
0.599756240844726562 -0.572988450527191162 0.962145507335662842
0.994759440422058105 0.414753109216690063 -0.247346758842468262
-0.964621067047119141 -0.0563507303595542908 -0.588993549346923828
-0.575336575508117676 -0.998511612415313721 -0.161969631910324097
0.981863558292388916 -0.488394498825073242 0.489314764738082886
-0.839877903461456299 0.979390561580657959 0.512543141841888428
0.527248859405517578 -0.777319848537445068 -0.887832999229431152
0.303969204425811768 0.985678970813751221 0.453477233648300171
-0.840670108795166016 0.906982004642486572 -0.750537335872650146
0.306760281324386597 0.996752560138702393 0.186189964413642883
0.420987904071807861 0.434102684259414673 -0.989005386829376221
0.119591876864433289 0.934670209884643555 -0.687448859214782715
0.351082503795623779 -0.92767179012298584 -0.70609593391418457
-0.991253912448883057 0.52410358190536499 -0.412803560495376587
-0.487986773252487183 -0.990205764770507812 -0.395169347524642944
-0.373370051383972168 0.922887146472930908 -0.718844473361968994
-0.71337437629699707 -0.997077763080596924 0.121828474104404449
0.652811348438262939 -0.331331074237823486 -0.947083413600921631
0.177522271871566772 -0.972292661666870117 -0.55285567045211792
-0.952178537845611572 -0.189589053392410278 0.636533617973327637
0.129217401146888733 0.105796769261360168 0.997686862945556641
-0.0154305128380656242 -0.114937804639339447 -0.999059200286865234
-0.84804832935333252 -0.245075643062591553 -0.82790142297744751
0.114336445927619934 -0.107005350291728973 0.997686862945556641
-0.76739811897277832 -0.997027814388275146 -0.140282049775123596
0.975340723991394043 -0.258055657148361206 -0.533745348453521729
-0.476599514484405518 0.935099959373474121 0.694858789443969727
0.0549169555306434631 0.983351349830627441 -0.483520716428756714
-0.0565601885318756104 0.865972757339477539 -0.808185338973999023
-0.115238696336746216 -0.996211588382720947 0.293262064456939697
-0.769968688488006592 0.959827840328216553 -0.620416820049285889
-0.37572634220123291 -0.997525155544281006 0.0332796573638916016
-0.00143004173878580332 0.933833897113800049 -0.691331803798675537
-0.31023406982421875 0.345049262046813965 -0.994151175022125244
0.687916815280914307 -0.913899540901184082 -0.740813136100769043
0.681878149509429932 0.801763415336608887 -0.872096061706542969
-0.326246321201324463 -0.929281890392303467 -0.701805830001831055
-0.903260290622711182 0.952291011810302734 0.636149466037750244
-0.265546113252639771 0.936100900173187256 0.6914406418800354
-0.508139431476593018 0.954361915588378906 0.62907707691192627
0.987362861633300781 0.976178228855133057 -0.441234499216079712
-0.246794283390045166 0.804767489433288574 -0.867658615112304688
0.610700130462646484 0.996117889881134033 0.311813265085220337
-0.956007421016693115 -0.995677828788757324 -0.203999698162078857
0.302911251783370972 -0.998262465000152588 -0.0820100456476211548
-0.198417410254478455 0.127766251564025879 -0.999196112155914307
-0.959850490093231201 0.879243433475494385 0.610333025455474854
0.861908972263336182 -0.82202458381652832 -0.81187903881072998
-0.933067619800567627 -0.842915475368499756 0.701160550117492676
-0.5119171142578125 0.688383996486663818 -0.93427807092666626
-0.0795072615146636963 0.919313430786132812 -0.722181618213653564
0.119808495044708252 0.0819875597953796387 -0.999111175537109375
0.245824635028839111 0.994172990322113037 -0.27502596378326416
-0.446328222751617432 0.991319417953491211 -0.409713119268417358
0.354164302349090576 0.0692448168992996216 -0.992348134517669678
0.970895767211914062 0.275964170694351196 -0.560642898082733154
0.996114194393157959 -0.525916695594787598 0.312539815902709961
-0.222267717123031616 0.51328963041305542 -0.979516923427581787
-0.0227443613111972809 -0.304430872201919556 0.997686862945556641
-0.20273648202419281 -0.94057852029800415 0.67614901065826416
-0.390975058078765869 0.995847940444946289 -0.195971176028251648
0.990884006023406982 -0.132783830165863037 -0.384178966283798218
-0.966985523700714111 -0.953675687313079834 -0.58612978458404541
