ply
format ascii 1.0
element vertex 1050
property float x
property float y
property float z
end_header
0.275877416133880615 0.872648656368255615 -1
0.496577054262161255 0.663567006587982178 1
-0.401930332183837891 -0.979030787944793701 1
0.673361718654632568 1 0.00503618596121668816
0.741332113742828369 0.612144351005554199 1
-0.884357571601867676 0.181673228740692139 -1
-0.179444685578346252 -0.127882331609725952 -1
0.610398769378662109 -0.251278162002563477 1
0.0367540903389453888 0.922515153884887695 -1
-0.213899478316307068 -1 0.151131317019462585
-0.557602882385253906 0.114908464252948761 -1
-0.350998878479003906 1 0.266551941633224487
-0.289379000663757324 0.0685345828533172607 1
-1 0.898838341236114502 0.937151312828063965
-0.424923062324523926 0.697297632694244385 -1
-0.990366339683532715 0.139563471078872681 1
0.371216237545013428 -0.682125985622406006 -1
0.322677731513977051 1 -0.0590406320989131927
-0.322206735610961914 -0.464605867862701416 1
0.796917498111724854 0.375580787658691406 -1
0.209523186087608337 0.449907213449478149 -1
0.19873887300491333 0.35537254810333252 1
0.0612382441759109497 -0.472666710615158081 -1
-0.106205828487873077 0.750117599964141846 -1
0.286368846893310547 -0.36598891019821167 -1
-0.952512264251708984 0.207590833306312561 1
-0.0285667143762111664 1 -0.186771973967552185
-0.774513006210327148 0.239645093679428101 1
0.344488412141799927 -0.603049516677856445 1
-1 0.650025784969329834 -0.608955979347229004
-0.0333163328468799591 0.0977672189474105835 -1
0.938638627529144287 -0.913200259208679199 -1
0.858451724052429199 -0.231658473610877991 1
-1 -0.881273925304412842 0.743047773838043213
-0.191121235489845276 1 0.538597524166107178
0.895002365112304688 0.444965124130249023 -1
-0.703064024448394775 0.0738438665866851807 1
0.0628824010491371155 1 0.638694345951080322
-0.613707661628723145 1 -0.950331807136535645
-0.945385456085205078 1 0.246026918292045593
-0.502080798149108887 1 0.330386549234390259
0.442749649286270142 -0.902269959449768066 -1
0.841871023178100586 -0.336070507764816284 -1
-0.376660674810409546 -0.823414266109466553 1
-1 -0.180181935429573059 0.316880226135253906
0.40358462929725647 0.0605301409959793091 1
0.305728733539581299 0.323643088340759277 -1
-0.381974309682846069 -1 -0.716024994850158691
0.254305750131607056 -0.295894145965576172 -1
-0.000665222585666924715 0.806703090667724609 -1
-0.693207263946533203 -0.703984081745147705 -1
-0.538692116737365723 -1 -0.421514540910720825
0.952644824981689453 -0.524756491184234619 -1
-0.878520667552947998 0.11672084778547287 -1
0.235809773206710815 0.517985403537750244 1
-0.849971234798431396 0.944608330726623535 -1
0.548109650611877441 1 -0.321466296911239624
-0.714881598949432373 -0.839198052883148193 -1
0.0545213595032691956 -1 -0.337658077478408813
-0.157520502805709839 0.421395480632781982 -1
1 0.805541157722473145 0.910397112369537354
0.680459201335906982 -1 -0.597365260124206543
0.613181650638580322 0.928895950317382812 -1
0.950196802616119385 -0.828968465328216553 -1
0.0687311217188835144 -1 0.0129415355622768402
0.577433645725250244 -0.149156898260116577 1
-1 -0.625788331031799316 -0.389505624771118164
0.302859514951705933 -1 0.93684077262878418
0.40738794207572937 -0.715419411659240723 1
-0.446783691644668579 0.788648128509521484 1
0.537571370601654053 1 0.383113086223602295
-0.662021994590759277 1 -0.115380354225635529
1 0.108397364616394043 -0.251948565244674683
0.160701394081115723 -0.907735109329223633 -1
0.914685964584350586 -0.143216252326965332 -1
-0.10759388655424118 -0.355522960424423218 1
1 0.0759860724210739136 -0.829819202423095703
1 0.387827306985855103 0.910791695117950439
-0.684204697608947754 0.412996262311935425 1
-0.0382589958608150482 -1 -0.614400923252105713
0.993218421936035156 1 0.798541247844696045
0.691186428070068359 0.725964128971099854 1
0.168475508689880371 -0.851644814014434814 1
1 -0.148120984435081482 0.0154432104900479317
0.178323596715927124 1 -0.4139079749584198
-0.182754769921302795 -1 -0.488844513893127441
0.0721989944577217102 0.0300822257995605469 1
-0.814549684524536133 -1 0.202487215399742126
-0.0340060219168663025 -0.349060028791427612 -1
0.179736405611038208 -0.651545882225036621 1
-0.712782979011535645 1 -0.47914460301399231
-0.270522624254226685 0.654116153717041016 -1
0.650757670402526855 -0.950267493724822998 -1
1 -0.650263190269470215 -0.906636714935302734
0.914444804191589355 1 -0.454864323139190674
-1 -0.210430368781089783 -0.148513942956924438
-0.498843729496002197 1 0.714711189270019531
0.519056141376495361 -0.817719638347625732 1
-0.736068129539489746 -1 -0.0775128975510597229
0.275752067565917969 -1 -0.771173059940338135
0.961788058280944824 0.717636644840240479 -1
1 -0.177360236644744873 0.57145160436630249
0.629785060882568359 0.776869297027587891 1
-0.634309470653533936 0.522156596183776855 1
1 0.938743412494659424 0.60676807165145874
0.0578227341175079346 -0.014966440387070179 -1
0.287400335073471069 1 0.598094940185546875
1 -0.112538419663906097 -0.170308619737625122
0.0347196497023105621 -0.555777609348297119 -1
-0.607873022556304932 1 0.825431346893310547
0.146535336971282959 -0.0441880188882350922 1
0.855850279331207275 -1 -0.506360173225402832
0.697905898094177246 0.939235150814056396 1
-1 -0.965603411197662354 0.563238680362701416
1 -0.918050408363342285 0.065289422869682312
-0.418343722820281982 1 0.131424218416213989
0.81441342830657959 -0.310885369777679443 -1
-0.876249134540557861 0.95877450704574585 -1
-1 -0.287308484315872192 -0.793368399143218994
-1 -0.902697384357452393 0.221817433834075928
-0.732313096523284912 0.165821313858032227 1
-0.951432645320892334 -0.366733729839324951 -1
-0.770440042018890381 -0.337010234594345093 1
0.949889481067657471 0.0947580039501190186 1
1 -0.366547107696533203 0.453857243061065674
0.267667591571807861 -0.332750827074050903 -1
0.0788351967930793762 -0.87586212158203125 -1
-0.171207845211029053 -0.134659275412559509 -1
-0.474641680717468262 -0.443357378244400024 1
-0.723313450813293457 0.187447875738143921 -1
-0.826433718204498291 -0.475302428007125854 -1
-0.759215593338012695 0.226746261119842529 -1
-0.344691812992095947 0.686830222606658936 -1
1 -0.0878995135426521301 -0.496550828218460083
0.573058247566223145 1 -0.916420102119445801
0.0661448389291763306 -1 -0.733734309673309326
0.14638732373714447 -0.709247767925262451 -1
-0.617657780647277832 0.797865748405456543 -1
0.0190016478300094604 1 -0.834144532680511475
-0.386614799499511719 0.513664186000823975 -1
-0.3750954270362854 -1 -0.665359795093536377
0.151110216975212097 1 0.569362163543701172
-0.399483621120452881 1 0.22937425971031189
-1 -0.0629881396889686584 0.720641195774078369
1 0.565193653106689453 0.60602569580078125
-0.919034719467163086 1 -0.29047691822052002
-0.716372489929199219 -1 -0.729241073131561279
-0.480659723281860352 -0.976984024047851562 -1
0.551946282386779785 -0.343390375375747681 -1
-0.808117151260375977 -0.0383122414350509644 -1
-0.248548761010169983 -0.333432942628860474 1
0.848581075668334961 1 0.82484889030456543
-0.81712794303894043 -0.771812796592712402 -1
0.715474784374237061 0.549403488636016846 -1
-0.982191622257232666 -0.429792493581771851 1
-1 0.0575868710875511169 -0.179079115390777588
-1 -0.233054041862487793 0.965806186199188232
-0.860575079917907715 0.578691720962524414 1
-0.607229828834533691 0.813820123672485352 -1
-0.48465380072593689 0.275866597890853882 -1
-0.351155698299407959 0.533167123794555664 -1
0.431495606899261475 0.882711052894592285 1
1 -0.814289450645446777 -0.575073063373565674
-0.292153060436248779 1 0.711312472820281982
0.410795599222183228 0.698233544826507568 -1
0.629981100559234619 0.111688993871212006 1
0.997966110706329346 -0.531712472438812256 -1
0.359596788883209229 -1 -0.208213731646537781
1 -0.442572623491287231 -0.631836771965026855
-0.608023464679718018 -0.765053987503051758 -1
0.111285857856273651 0.372811228036880493 -1
-0.487713664770126343 1 -0.718408823013305664
0.356924861669540405 0.201534897089004517 -1
-1 -0.237896382808685303 0.70142132043838501
0.819028139114379883 -0.289508819580078125 -1
-0.118472866714000702 0.16156962513923645 -1
-0.893846452236175537 0.594321727752685547 1
0.121828407049179077 -0.315807551145553589 -1
0.301277756690979004 -0.915595650672912598 -1
0.683379173278808594 -1 0.0889844596385955811
0.153065308928489685 1 -0.203293278813362122
0.599388539791107178 0.169907033443450928 1
0.5310707688331604 -1 0.243369877338409424
1 0.123751647770404816 -0.26207771897315979
1 -0.416193664073944092 -0.989478170871734619
-1 -0.289461761713027954 -0.566900968551635742
1 0.99399864673614502 -0.449387699365615845
-0.0635917186737060547 0.328905373811721802 -1
-0.112884357571601868 -0.178859725594520569 1
1 -0.641600430011749268 -0.808709681034088135
1 -0.43675684928894043 0.1733207106590271
-1 0.953398406505584717 0.900188326835632324
-0.395506352186203003 -1 0.224016770720481873
0.757558465003967285 -0.488030880689620972 1
1 -0.220341593027114868 -0.809099316596984863
0.467514246702194214 0.382187038660049438 -1
-0.340197205543518066 -1 -0.311858773231506348
0.807547450065612793 1 0.672318935394287109
-1 -0.438135623931884766 -0.693694412708282471
0.792968630790710449 1 -0.809738755226135254
1 0.0323182232677936554 -0.93216860294342041
0.497920066118240356 0.329117834568023682 1
0.298753499984741211 -1 -0.566357254981994629
-0.474910169839859009 0.953205227851867676 -1
0.91093212366104126 0.0400504432618618011 -1
0.697492718696594238 1 0.754744529724121094
0.993587136268615723 -0.951490044593811035 -1
-0.311293840408325195 -0.715775012969970703 -1
-0.330504000186920166 0.238871604204177856 -1
1 -0.864113807678222656 0.159367784857749939
-0.298583537340164185 0.716641485691070557 1
-0.861391663551330566 -1 0.626262843608856201
1 0.496893197298049927 0.897722244262695312
-0.353694498538970947 -1 -0.176581770181655884
0.411965429782867432 0.376152664422988892 1
-0.151184588670730591 -0.275233000516891479 1
0.618028640747070312 1 -0.35731041431427002
-0.667090535163879395 1 -0.763099431991577148
-0.414529263973236084 1 -0.116980724036693573
0.429285049438476562 1 0.236455053091049194
-1 -0.0866823270916938782 0.364406317472457886
-0.570316731929779053 0.866432726383209229 -1
-0.917229056358337402 -0.621323525905609131 1
-0.41637691855430603 -0.570981681346893311 1
0.702347159385681152 0.919200360774993896 -1
0.821326017379760742 -0.317497909069061279 1
-0.0482335090637207031 0.496982723474502563 -1
-1 0.73094707727432251 0.752027451992034912
-0.727735459804534912 -1 -0.573613584041595459
0.935857892036437988 0.00443996582180261612 -1
-0.0430605746805667877 -0.828271567821502686 -1
0.679699599742889404 -0.485613763332366943 -1
-0.907975614070892334 0.828336417675018311 -1
-0.870489835739135742 -1 0.287731438875198364
0.762762010097503662 -0.86997830867767334 1
-0.879359185695648193 -1 0.898804306983947754
0.272845476865768433 -0.652870297431945801 -1
-0.950531601905822754 -0.162922099232673645 -1
1 0.163172706961631775 -0.595922231674194336
-1 -0.844519257545471191 0.960531771183013916
-0.170569911599159241 -0.960516750812530518 -1
-1 0.658654391765594482 -0.727765023708343506
0.18469613790512085 -0.901928722858428955 -1
-0.883606374263763428 0.642999827861785889 1
0.520479738712310791 0.386607199907302856 -1
-0.252864837646484375 0.427289992570877075 1
-0.199671328067779541 -0.257560580968856812 1
-1 0.352867066860198975 0.793606996536254883
0.468157410621643066 -1 0.516607582569122314
0.0663917511701583862 0.208734288811683655 -1
1 0.152903810143470764 0.0997251048684120178
-0.359368801116943359 -0.471644967794418335 -1
-1 0.0945487841963768005 0.883133947849273682
-1 0.0286750718951225281 -0.96369093656539917
0.237276822328567505 0.305333316326141357 1
0.720128357410430908 -0.242593944072723389 -1
0.0600246936082839966 -1 -0.157879173755645752
0.702653348445892334 1 0.0989301428198814392
0.0347442366182804108 -0.655905485153198242 -1
0.814255475997924805 0.423788696527481079 -1
1 -0.356982439756393433 0.135569915175437927
-1 -0.687806367874145508 0.477739810943603516
0.896271765232086182 0.622963249683380127 1
1 -0.638249635696411133 -0.770949244499206543
-0.0708349496126174927 0.674668371677398682 1
0.940878927707672119 -1 -0.70206606388092041
0.400598734617233276 -0.423324346542358398 -1
0.514928758144378662 -0.435196757316589355 -1
0.145831480622291565 1 -0.784284234046936035
-0.145204916596412659 -0.721186339855194092 1
0.516925632953643799 -0.327341139316558838 1
-0.486227899789810181 1 -0.641786932945251465
1 -0.960169315338134766 0.799363136291503906
-0.448098272085189819 -0.133746758103370667 -1
-1 0.358671694993972778 -0.514195144176483154
0.926282584667205811 1 -0.699322700500488281
-1 0.405728161334991455 -0.704299569129943848
-0.384792298078536987 0.576748192310333252 1
0.882867336273193359 1 0.495426356792449951
-0.777079999446868896 -0.0198974628001451492 1
-0.331283509731292725 0.0827395319938659668 -1
0.492766618728637695 0.485808908939361572 -1
1 -0.616573989391326904 0.57890927791595459
0.48317304253578186 1 0.609220623970031738
-0.0207177698612213135 -0.0677819475531578064 1
-0.994615256786346436 0.523395419120788574 1
-0.999657511711120605 0.334137946367263794 -1
0.916739761829376221 0.332094848155975342 -1
-0.206506595015525818 -0.0962956845760345459 -1
-0.775716602802276611 0.672173857688903809 -1
-0.865723192691802979 0.0508926734328269958 1
-0.346799165010452271 0.472225725650787354 -1
0.688408911228179932 -0.618974208831787109 1
0.260100990533828735 0.598802685737609863 1
0.929346203804016113 0.926876187324523926 -1
0.217021331191062927 0.438729017972946167 -1
1 0.297709435224533081 0.305089086294174194
0.717715442180633545 0.612487673759460449 -1
-0.844423532485961914 -1 0.950749099254608154
0.0827379673719406128 -1 0.479630053043365479
-0.613285660743713379 0.458176642656326294 -1
0.975154280662536621 -1 -0.857504606246948242
0.875374913215637207 0.072734341025352478 -1
-1 -0.986042797565460205 0.645789444446563721
-1 0.992747187614440918 0.342552244663238525
-1 -0.6657218337059021 0.568440735340118408
0.449913322925567627 -1 0.340641051530838013
-0.534609794616699219 0.87764441967010498 -1
-0.608560323715209961 0.468857437372207642 -1
-0.25133863091468811 1 -0.984893202781677246
-1 0.521715641021728516 0.706207275390625
0.149386093020439148 -0.173131480813026428 1
0.78846365213394165 1 -0.0290250461548566818
0.124314866960048676 1 -0.705311596393585205
-0.471155613660812378 -0.695141434669494629 1
-0.362612873315811157 1 -0.0519399829208850861
-0.130343213677406311 0.571422755718231201 1
1 0.153448060154914856 -0.502870857715606689
1 0.955137908458709717 -0.276475518941879272
0.572517275810241699 0.567180514335632324 -1
-0.937152326107025146 -1 0.298051953315734863
0.837334334850311279 -0.957298755645751953 -1
0.844797670841217041 1 0.138812854886054993
0.452688038349151611 0.77163541316986084 1
0.303392887115478516 0.0450605414807796478 -1
0.44522896409034729 -1 0.735335230827331543
-0.361946612596511841 0.942073583602905273 1
-0.257724910974502563 1 -0.499876856803894043
-0.759214162826538086 0.565379321575164795 1
0.999426901340484619 0.197008505463600159 -1
-0.363203823566436768 1 0.937474846839904785
-0.431193530559539795 -1 0.306324481964111328
-0.525185644626617432 0.389734983444213867 -1
0.663575828075408936 0.941186368465423584 -1
-0.581530570983886719 -1 0.190238669514656067
-0.365773200988769531 -1 0.458517611026763916
-0.341000914573669434 0.561708271503448486 -1
-0.470736086368560791 1 0.555922448635101318
-0.69361954927444458 -0.929233074188232422 -1
-0.245356157422065735 0.469603210687637329 1
-0.0498129837214946747 -0.55052495002746582 -1
-1 -0.743815779685974121 -0.500641703605651855
-0.290894031524658203 -0.933278739452362061 1
0.574224233627319336 0.303012490272521973 -1
0.0871842354536056519 -1 -0.815554022789001465
0.922052741050720215 0.99648749828338623 -1
0.998826801776885986 0.244029298424720764 -1
1 -0.484914809465408325 0.615345418453216553
0.919994354248046875 0.133656442165374756 -1
0.339042305946350098 -0.0672318637371063232 1
-0.37858697772026062 -0.523674964904785156 -1
0.637324750423431396 1 -0.657067000865936279
0.947281479835510254 0.810755252838134766 1
0.705721080303192139 -0.91153484582901001 -1
-1 0.737237513065338135 0.319632649421691895
-0.415434122085571289 -0.569991052150726318 1
0.324694961309432983 0.692492127418518066 1
-0.775671482086181641 -1 0.806295573711395264
0.925025224685668945 -0.823360800743103027 -1
1 -0.706232011318206787 0.269995033740997314
0.318503737449645996 -0.460751175880432129 -1
-0.758269131183624268 -1 0.925121128559112549
0.531394839286804199 -0.826371729373931885 1
-0.394749909639358521 0.676703810691833496 1
-1 -0.425237447023391724 0.634379386901855469
-0.988698244094848633 0.536877870559692383 1
0.370023220777511597 1 0.793879032135009766
-0.798452794551849365 0.91401970386505127 -1
-0.788050413131713867 -0.685193419456481934 -1
-0.436566054821014404 1 -0.463149935007095337
-0.553849101066589355 -0.818993508815765381 -1
-0.6814156174659729 -0.99946439266204834 1
0.354045987129211426 0.312076032161712646 1
1 0.979707896709442139 -0.393851727247238159
0.493233710527420044 0.39259299635887146 -1
0.654236972332000732 0.690183281898498535 -1
0.911129951477050781 1 -0.135370895266532898
0.309157818555831909 -0.838527500629425049 1
-0.174460098147392273 -1 0.131176754832267761
0.99349600076675415 -0.845689535140991211 -1
-0.501997768878936768 -1 -0.984738528728485107
0.573164403438568115 0.165152460336685181 1
0.0228402074426412582 0.0413763672113418579 1
0.486998468637466431 -0.82966923713684082 1
-0.640332877635955811 0.111497804522514343 -1
0.0692395046353340149 1 0.838060259819030762
0.460824042558670044 -0.781970322132110596 -1
0.617953300476074219 -0.129244744777679443 1
-0.908859550952911377 0.604648947715759277 -1
0.998089432716369629 1 0.716010510921478271
-0.437901407480239868 1 0.648649036884307861
0.453526049852371216 -0.841858208179473877 -1
-0.764641046524047852 -0.274001866579055786 -1
0.608381927013397217 0.984327316284179688 1
-0.234942376613616943 -1 0.0116749349981546402
-0.892322659492492676 0.836716413497924805 1
0.945023894309997559 0.748422443866729736 1
-0.830460488796234131 0.452134370803833008 -1
-0.0786064490675926208 0.422126621007919312 1
0.320917963981628418 -0.0392274782061576843 -1
-0.281471431255340576 0.584531962871551514 1
-0.605645298957824707 -1 0.97028350830078125
-0.0485083051025867462 -0.693022668361663818 -1
-0.883698403835296631 1 -0.0376464724540710449
0.280346512794494629 -0.900171935558319092 1
0.133565917611122131 0.230104804039001465 -1
-0.28363761305809021 -1 0.468395799398422241
0.597106337547302246 0.520957529544830322 -1
0.222715020179748535 -1 0.602087020874023438
0.715390324592590332 0.601588964462280273 1
-0.451637089252471924 -1 -0.0747739896178245544
-0.837628006935119629 0.339560210704803467 -1
1 0.403481781482696533 -0.121864520013332367
-0.210387632250785828 0.417224138975143433 1
0.709302842617034912 -0.696570456027984619 -1
-0.415235757827758789 0.923889815807342529 1
-0.578774988651275635 0.72163844108581543 1
0.239754319190979004 -0.844818055629730225 -1
0.467117667198181152 -0.984235525131225586 -1
-0.630182802677154541 -0.687789618968963623 -1
-0.266443073749542236 0.152373865246772766 -1
-0.416141718626022339 -1 0.0116089759394526482
-0.363880068063735962 -1 0.686900436878204346
0.523448467254638672 1 0.878766119480133057
0.742254197597503662 0.764478325843811035 1
-0.572963416576385498 -0.612132489681243896 -1
0.426717489957809448 -0.167948856949806213 -1
-0.652909219264984131 -1 0.0128385825082659721
0.366807788610458374 -1 0.830130517482757568
-0.168243870139122009 -0.791800379753112793 -1
-0.213442489504814148 0.787536203861236572 -1
0.535129427909851074 -1 0.9418984055519104
-0.675639688968658447 0.22899375855922699 -1
-0.322532176971435547 0.303770065307617188 1
-0.211226269602775574 -0.927757620811462402 -1
-0.318116366863250732 -0.415731608867645264 -1
-0.224022150039672852 -1 -0.665260732173919678
1 -0.200563341379165649 -0.384034782648086548
0.974712610244750977 -1 0.11224520206451416
-0.845402956008911133 -0.81945192813873291 1
0.28933483362197876 0.115248538553714752 -1
-0.469431906938552856 1 0.687100827693939209
-0.583430171012878418 -1 -0.279091030359268188
-0.883835792541503906 -0.4337158203125 1
-0.893686652183532715 0.959071099758148193 -1
-0.161797761917114258 -0.910443365573883057 -1
-0.768248498439788818 1 -0.0935292094945907593
-1 0.303215384483337402 0.107141599059104919
-0.973193705081939697 -1 -0.315443873405456543
0.517526924610137939 0.725417017936706543 -1
-0.0742573291063308716 -0.847797811031341553 -1
0.745535731315612793 0.487938106060028076 -1
-0.266423434019088745 -0.300503998994827271 -1
-0.88798677921295166 0.765567302703857422 1
0.669904232025146484 0.235772714018821716 -1
0.249336913228034973 0.65126955509185791 1
1 -0.16710934042930603 -0.0120497057214379311
-0.302471697330474854 0.715678751468658447 -1
-0.406906485557556152 -0.198576122522354126 -1
1 -0.053678467869758606 0.445534706115722656
1 0.818126440048217773 0.510028719902038574
-0.584496438503265381 1 -0.534272551536560059
0.414939850568771362 -0.987053036689758301 -1
-0.771058082580566406 -0.474168479442596436 1
-0.857307136058807373 0.122591160237789154 1
0.991924107074737549 0.138593509793281555 -1
1 0.532709360122680664 -0.696525454521179199
0.300706714391708374 0.243622779846191406 -1
0.744256198406219482 -1 -0.685698211193084717
-0.00733668031170964241 -0.452610433101654053 1
0.943414211273193359 0.632638216018676758 -1
-0.756481468677520752 -1 0.786047458648681641
0.779200494289398193 1 0.438258260488510132
-1 -0.401868104934692383 0.939557373523712158
1 0.7663002610206604 0.910344302654266357
0.886371135711669922 -0.00132783805020153522 -1
-0.508267104625701904 0.859539151191711426 -1
-0.628670215606689453 -0.918386399745941162 1
-0.206426948308944702 -0.231352835893630981 -1
-0.178041085600852966 -0.745001316070556641 -1
0.696504771709442139 -0.0278014447540044785 -1
-0.816374242305755615 -0.211643695831298828 1
1 -0.654133021831512451 0.486771047115325928
-0.639803886413574219 0.0730264931917190552 -1
-0.548813164234161377 -0.71017920970916748 1
0.798790156841278076 -0.354452818632125854 -1
0.0109125217422842979 -0.75845569372177124 -1
0.168558955192565918 0.904240429401397705 -1
0.573906302452087402 -0.789431929588317871 1
-0.379480719566345215 1 0.666216611862182617
0.149219915270805359 -0.491494804620742798 -1
-0.898929417133331299 -0.207754537463188171 1
-0.324997276067733765 -0.643616795539855957 -1
0.407088607549667358 1 -0.376954883337020874
-0.283498197793960571 0.255205392837524414 -1
-0.596845149993896484 -0.800739407539367676 -1
-0.834604263305664062 1 0.188653245568275452
-0.397740185260772705 -0.00724339904263615608 -1
0.0100497948005795479 0.389125406742095947 -1
0.566064894199371338 -0.967389881610870361 -1
0.172953769564628601 -0.041359923779964447 -1
0.0750067681074142456 0.695030152797698975 -1
0.382929027080535889 -0.399272799491882324 -1
0.372047752141952515 1 0.282327443361282349
-0.88387143611907959 0.0590106546878814697 -1
0.716826438903808594 -0.0264971740543842316 -1
-0.467017382383346558 0.617759764194488525 -1
-0.729019284248352051 0.0930062979459762573 -1
-0.791077256202697754 0.404465705156326294 1
-0.44854271411895752 0.91540062427520752 -1
0.451495498418807983 0.964469969272613525 -1
-0.0812383666634559631 -1 -0.649560689926147461
-0.784092605113983154 0.790289938449859619 -1
0.999850630760192871 -0.911241352558135986 -1
0.512294471263885498 0.12922079861164093 -1
0.654981017112731934 0.801448822021484375 -1
-0.278286248445510864 0.225909814238548279 1
0.062319587916135788 -0.819161593914031982 1
-0.47011035680770874 0.7022591233253479 1
-1 0.769649088382720947 -0.673569858074188232
0.997980654239654541 1 -0.479351013898849487
1 -0.910277903079986572 -0.852184414863586426
-0.531951069831848145 -0.230068221688270569 1
0.807838022708892822 -0.718100786209106445 -1
-0.938798189163208008 -0.00548911560326814651 -1
-0.180641099810600281 0.206342071294784546 -1
-0.0613823160529136658 -0.85467684268951416 -1
-1 -0.787629961967468262 0.179907098412513733
0.0343313850462436676 0.144351601600646973 -1
-0.264421433210372925 -1 0.599480748176574707
-0.972317695617675781 0.842397034168243408 -1
0.512602150440216064 0.152473777532577515 1
-1 -0.045793488621711731 0.363557577133178711
0.511650919914245605 1 -0.522820472717285156
1 -0.301526397466659546 0.876696646213531494
-0.0527531132102012634 0.267421364784240723 -1
-0.592409908771514893 -1 -0.522232770919799805
-0.644976437091827393 0.538394153118133545 -1
0.124437309801578522 0.125891894102096558 -1
0.59275054931640625 -0.888833761215209961 -1
0.38258051872253418 -0.0482233762741088867 -1
0.268498510122299194 -1 -0.894046306610107422
-0.607728004455566406 -0.828543603420257568 1
-0.244163364171981812 1 0.535208821296691895
-0.132650271058082581 -1 0.00380400032736361027
-0.340218603610992432 0.492338120937347412 -1
-0.640130221843719482 1 -0.954366385936737061
-1 -0.496531397104263306 -0.0176921635866165161
0.0488302372395992279 -0.0895594879984855652 -1
-0.0819987058639526367 -0.251655071973800659 -1
-0.988594472408294678 -0.123244278132915497 1
-0.241793647408485413 1 -0.315923720598220825
1 0.643145143985748291 0.026632433757185936
0.0841577723622322083 0.062390204519033432 1
0.781607568264007568 0.468015998601913452 1
0.411185592412948608 1 0.680292189121246338
0.151413753628730774 -0.503215909004211426 -1
0.247122049331665039 0.0942380502820014954 -1
-0.0210211556404829025 -0.195224538445472717 -1
-0.470496386289596558 0.921614229679107666 -1
-0.272836595773696899 -1 0.715300559997558594
-0.304327160120010376 0.929049551486968994 -1
0.0905534848570823669 -0.805423736572265625 1
0.886374056339263916 0.275039523839950562 -1
0.799948334693908691 1 0.0672821775078773499
-0.413380801677703857 -1 0.695569038391113281
0.531583428382873535 -0.37042236328125 -1
0.847259283065795898 0.684313595294952393 1
-0.772725045680999756 -0.859747052192687988 1
-0.661090731620788574 -1 -0.72834622859954834
0.932424485683441162 -0.662616550922393799 -1
1 0.0952622517943382263 -0.00593970762565732002
0.392950057983398438 -0.763521254062652588 1
-1 0.744927942752838135 -0.14443226158618927
-0.524549961090087891 0.346583127975463867 1
-0.171706616878509521 -0.158082857728004456 -1
0.0878755226731300354 -1 0.147298470139503479
1 -0.985566377639770508 -0.234065890312194824
0.898194253444671631 -1 0.571346402168273926
-1 0.268952727317810059 0.3142414391040802
0.477576345205307007 0.32709193229675293 -1
0.00180964847095310688 0.105624645948410034 -1
-0.530609369277954102 -0.0809220671653747559 -1
-0.33716312050819397 -1 -0.964997231960296631
0.25714343786239624 -1 0.759742677211761475
0.218356877565383911 1 0.96290820837020874
0.516558527946472168 0.998476028442382812 -1
0.9100075364112854 1 -0.945487022399902344
-0.618665933609008789 -0.509834647178649902 1
1 0.157347708940505981 -0.489335924386978149
0.349789083003997803 -0.29805445671081543 -1
0.201614052057266235 0.232619404792785645 -1
0.962731778621673584 0.307087749242782593 -1
-0.927686035633087158 -1 -0.444165259599685669
1 -0.897627472877502441 -0.968773603439331055
-0.0332490056753158569 0.768948197364807129 1
-0.687836050987243652 1 0.897163152694702148
-0.692813992500305176 -0.938430249691009521 -1
1 0.19631446897983551 0.108435526490211487
-0.0876289010047912598 -0.997116208076477051 -1
0.174036011099815369 0.569584071636199951 1
-0.0579118877649307251 0.411159813404083252 1
1 -0.730357348918914795 0.0561448708176612854
0.628753066062927246 -1 -0.253129959106445312
0.766706705093383789 -0.711455762386322021 1
0.606570243835449219 -0.202071860432624817 -1
0.769520878791809082 0.90274202823638916 1
-1 -0.625412225723266602 -0.533118128776550293
0.0800240635871887207 -1 -0.921384334564208984
-1 -0.122715458273887634 -0.274253696203231812
0.663495063781738281 1 0.492961883544921875
0.634520113468170166 0.832559764385223389 -1
1 0.743887484073638916 -0.323426127433776855
1 -0.00379041861742734909 -0.374646842479705811
0.684596061706542969 1 0.577199876308441162
0.853461384773254395 0.585476517677307129 -1
0.450900912284851074 1 0.224199622869491577
1 -0.80473625659942627 0.77148139476776123
-1 0.713095486164093018 0.442599326372146606
-0.00935770478099584579 1 -0.694239139556884766
0.986221969127655029 0.137898892164230347 -1
0.342772781848907471 -1 -0.483929753303527832
-0.162682920694351196 -0.0892272964119911194 -1
0.704337358474731445 -1 -0.175730109214782715
1 0.0107625816017389297 0.215765580534934998
0.895321190357208252 -0.831969380378723145 -1
-0.469943135976791382 -0.619462370872497559 -1
0.367933839559555054 0.509710252285003662 1
0.456623107194900513 1 -0.824530541896820068
-0.962293505668640137 0.749339401721954346 1
1 0.619001090526580811 -0.25851738452911377
0.523746728897094727 -0.518607020378112793 1
0.756501495838165283 0.729615449905395508 -1
-0.470789074897766113 0.817424118518829346 -1
0.336787015199661255 -0.350814014673233032 1
0.0950805917382240295 -0.954606831073760986 -1
-1 0.00379106285981833935 0.445661276578903198
0.309809505939483643 1 0.180528044700622559
0.321698695421218872 -0.102496713399887085 -1
-0.793548703193664551 -0.488084077835083008 -1
0.801305770874023438 -0.193499535322189331 -1
-0.375074923038482666 -0.567753851413726807 1
-0.145305588841438293 -0.0654590427875518799 1
-0.351468175649642944 -0.121899038553237915 -1
0.505762577056884766 0.812815546989440918 1
-1 -0.450673073530197144 -0.285092711448669434
1 0.291011929512023926 -0.880628108978271484
-0.296236544847488403 0.853343605995178223 -1
-0.656250596046447754 -0.457789868116378784 1
-0.716195940971374512 0.293834716081619263 -1
-0.278965622186660767 0.129923805594444275 -1
-0.874988377094268799 1 -0.784961581230163574
-0.576145052909851074 -0.0615481175482273102 -1
-0.85161435604095459 -0.339004635810852051 -1
0.168092980980873108 -0.615818977355957031 1
-0.614487886428833008 -0.282749265432357788 -1
-0.487830907106399536 0.712684869766235352 -1
0.437435537576675415 0.408678501844406128 -1
-0.451206475496292114 1 -0.186670467257499695
0.392031043767929077 -0.616896212100982666 -1
0.0142192644998431206 1 -0.910211563110351562
-0.411904335021972656 1 0.00918140634894371033
0.947114408016204834 -0.811183691024780273 -1
1 -0.982732892036437988 -0.530768692493438721
-0.255387753248214722 0.60200190544128418 -1
-0.430726855993270874 -0.661023557186126709 1
-0.593095123767852783 -0.398788034915924072 -1
-0.0406678244471549988 -0.116658613085746765 -1
0.0814582854509353638 1 0.541770100593566895
-1 -0.567894518375396729 -0.654448151588439941
0.786986887454986572 0.713326990604400635 -1
0.701401293277740479 -0.584477782249450684 -1
0.960569143295288086 -0.603162527084350586 -1
-0.443263381719589233 -0.128486797213554382 1
-0.0386980995535850525 0.989776968955993652 -1
-0.196304589509963989 1 0.784382045269012451
-1 0.137880638241767883 0.583851814270019531
-0.689548790454864502 -0.998497903347015381 1
-0.00610635010525584221 -0.352503836154937744 -1
-0.944499671459197998 1 -0.742074906826019287
0.758143961429595947 -0.927857041358947754 1
0.0659574270248413086 0.868511855602264404 -1
0.363255441188812256 -1 -0.932137548923492432
0.217500984668731689 -1 0.619830787181854248
0.836131691932678223 -1 -0.801053643226623535
-0.426476955413818359 -0.928208470344543457 -1
0.433781713247299194 0.968100368976593018 -1
1 0.174720779061317444 -0.651675045490264893
-1 0.599036931991577148 -0.91809612512588501
-0.0906376168131828308 0.397458672523498535 -1
1 0.865485131740570068 -0.573951125144958496
1 0.273681730031967163 0.848529577255249023
1 0.118017926812171936 0.566936314105987549
-0.829947829246520996 1 -0.459469348192214966
0.548134863376617432 1 -0.467126965522766113
-1 -0.649927854537963867 -0.353583663702011108
-0.292435675859451294 0.899841487407684326 -1
0.611655771732330322 0.694213032722473145 -1
-1 -0.0206761341542005539 0.274865657091140747
-0.660228729248046875 -0.997426033020019531 -1
1 0.347074568271636963 -0.99848484992980957
-0.977046430110931396 -1 0.05964655801653862
-0.181469902396202087 0.242900505661964417 1
-0.480385720729827881 -0.290131449699401855 1
0.174852192401885986 1 -0.0100498981773853302
-1 -0.612121045589447021 0.0575781203806400299
0.487349122762680054 -0.117149792611598969 -1
0.0501442216336727142 0.0545573607087135315 -1
-0.577487349510192871 0.148676186800003052 -1
0.656075716018676758 -0.568043351173400879 -1
-1 -0.449924707412719727 -0.399368554353713989
-0.277974098920822144 -0.747949182987213135 1
-0.602973222732543945 -1 0.151738494634628296
1 0.962613761425018311 -0.650249302387237549
-0.932847976684570312 -0.772083640098571777 -1
0.445253580808639526 0.0490118563175201416 -1
-0.873095870018005371 0.235041633248329163 -1
-0.746653139591217041 -0.876364529132843018 -1
0.787368416786193848 -0.903914749622344971 -1
1 -0.566060066223144531 -0.932382643222808838
-0.884161531925201416 1 0.726668119430541992
0.656053066253662109 -0.995864570140838623 1
0.228869244456291199 -0.0336084216833114624 -1
0.454388469457626343 0.355612784624099731 -1
0.36037871241569519 0.746432304382324219 1
-0.0390611104667186737 -0.320415765047073364 1
-0.493592292070388794 -0.934604167938232422 1
0.550376653671264648 0.109872609376907349 -1
0.127976268529891968 -0.279302686452865601 1
-1 0.219015255570411682 -0.346586495637893677
-0.202022507786750793 -0.0702483505010604858 1
1 0.99198615550994873 -0.98526155948638916
-0.986969649791717529 -0.89076918363571167 1
0.394149035215377808 0.859636664390563965 1
0.720842540264129639 -1 -0.492431044578552246
-0.577448368072509766 1 0.964803397655487061
-0.571184694766998291 0.262356191873550415 -1
-0.787388026714324951 0.660810947418212891 -1
0.252758532762527466 -1 -0.192681580781936646
0.872239053249359131 0.852250576019287109 -1
-0.966171979904174805 0.863241314888000488 1
0.114442348480224609 -0.359503984451293945 -1
-0.632670164108276367 0.938306570053100586 -1
-0.535408496856689453 -0.0907028689980506897 -1
0.202639445662498474 0.971154212951660156 -1
-0.858351171016693115 0.395616352558135986 -1
-0.598152875900268555 0.372336924076080322 -1
0.447200179100036621 0.527312755584716797 -1
1 0.673012733459472656 0.310350149869918823
-0.761485755443572998 -0.659033000469207764 -1
0.585864782333374023 -0.0262016672641038895 1
-0.605483055114746094 1 -0.916419088840484619
-0.939160704612731934 0.615379214286804199 1
0.301193773746490479 -0.533764660358428955 -1
-0.696891069412231445 1 0.0997387170791625977
-0.248106837272644043 1 -0.70321577787399292
-0.318075299263000488 0.793720424175262451 -1
0.294868767261505127 0.327386200428009033 -1
-1 0.990705311298370361 0.397257298231124878
-0.327423989772796631 1 0.0195584092289209366
1 0.247561901807785034 0.219349980354309082
0.335984617471694946 0.739115118980407715 -1
-0.771359503269195557 -0.33328402042388916 -1
-0.818695306777954102 -0.0957642644643783569 -1
0.791032314300537109 0.57504880428314209 -1
0.227056622505187988 0.523865699768066406 1
-0.965638518333435059 0.914632320404052734 1
-0.980183660984039307 0.63939279317855835 -1
0.109748959541320801 -0.463168203830718994 -1
0.362713336944580078 1 0.989994466304779053
-0.224674984812736511 -0.523791193962097168 -1
-0.72337639331817627 -1 -0.675657510757446289
0.0852185264229774475 -0.890910089015960693 -1
-0.8535308837890625 0.51578986644744873 -1
0.302514940500259399 0.53936612606048584 1
0.757553279399871826 0.897729575634002686 1
0.222966402769088745 0.568680405616760254 -1
-0.218857064843177795 1 -0.0266421418637037277
-0.234754711389541626 -1 -0.0698276758193969727
-0.572888016700744629 -1 0.298573434352874756
0.308583110570907593 -0.639420688152313232 1
0.596325516700744629 0.388937324285507202 -1
1 0.891673862934112549 0.776816368103027344
0.121124871075153351 -0.0816402062773704529 1
0.989443838596343994 0.154755637049674988 -1
-0.183929175138473511 -0.747439265251159668 -1
0.681258618831634521 -0.488039612770080566 -1
1 -0.406035274267196655 0.810179650783538818
0.822335779666900635 0.758132755756378174 1
-0.806414425373077393 0.720958352088928223 -1
0.916274070739746094 0.556430459022521973 1
-0.75815659761428833 1 -0.889559924602508545
-0.219323441386222839 -1 0.428153187036514282
0.120780892670154572 0.824858725070953369 -1
0.875068783760070801 -1 -0.298150628805160522
0.445508658885955811 -0.996279478073120117 1
-0.41548997163772583 0.951550662517547607 -1
-0.280259877443313599 1 -0.517485857009887695
-0.0349962525069713593 -1 -0.397934764623641968
-0.689354956150054932 -0.584448695182800293 1
-0.538065493106842041 1 -0.850732684135437012
1 -0.645321190357208252 -0.969104528427124023
0.615392386913299561 -1 -0.525200366973876953
0.718455851078033447 0.0649579167366027832 1
0.691725373268127441 0.10069931298494339 1
-0.439924269914627075 0.524781227111816406 -1
-1 -0.409897357225418091 0.164035230875015259
-0.325417488813400269 -0.00373322796076536179 -1
0.681094944477081299 -0.475043803453445435 -1
-0.944239616394042969 0.624061048030853271 -1
-0.250615179538726807 -0.229449942708015442 1
-0.4705352783203125 1 -0.681343376636505127
-0.794646799564361572 1 -0.893114566802978516
0.667173862457275391 1 0.992703437805175781
-0.0782594308257102966 -1 -0.923238515853881836
-0.46414068341255188 -0.110444784164428711 -1
0.942265331745147705 0.882504582405090332 1
-1 -0.704303205013275146 -0.826974689960479736
0.331756830215454102 0.926465094089508057 1
-1 0.352410703897476196 0.976109206676483154
1 -0.344990670680999756 0.974092602729797363
0.108354620635509491 0.579804301261901855 -1
-0.480367004871368408 0.324408829212188721 -1
1 0.637391746044158936 0.416562408208847046
0.779088377952575684 0.282531440258026123 -1
0.0390890613198280334 0.443414062261581421 -1
0.880186736583709717 1 -0.972531616687774658
-0.401924610137939453 0.184993624687194824 1
0.252636343240737915 0.546540796756744385 1
-0.873592674732208252 -0.0304027479141950607 1
-1 0.750092506408691406 -0.500540852546691895
-1 0.0318278931081295013 -0.102723553776741028
-1 0.715656042098999023 -0.600844204425811768
1 -0.18944162130355835 0.116318836808204651
0.731092512607574463 0.254753082990646362 -1
0.760809123516082764 0.532407701015472412 -1
0.393544554710388184 1 0.662188827991485596
-1 -0.534731864929199219 -0.38851127028465271
-0.594143927097320557 0.231128349900245667 -1
-0.244187042117118835 -0.978091001510620117 -1
-0.282836198806762695 -0.394803136587142944 1
-0.768083155155181885 0.809125363826751709 -1
0.776551723480224609 0.937442779541015625 1
0.413829684257507324 0.422604590654373169 1
0.934528648853302002 1 -0.522672176361083984
0.131682991981506348 0.741028726100921631 -1
0.432078510522842407 0.0743060857057571411 -1
-0.213976874947547913 -0.719459235668182373 -1
0.798534035682678223 -1 -0.716388702392578125
-0.0625787004828453064 0.499624311923980713 -1
-0.762461662292480469 1 0.244301378726959229
1 -0.468428492546081543 0.118368208408355713
0.317108631134033203 0.677271068096160889 -1
0.273326665163040161 -1 0.780936121940612793
0.738554954528808594 0.518271565437316895 -1
0.0608280561864376068 0.765827178955078125 1
0.0627861246466636658 -0.809911549091339111 -1
-0.978461146354675293 -0.971119403839111328 1
-0.580478787422180176 1 -0.383273303508758545
0.480199426412582397 1 -0.881435573101043701
0.189405187964439392 1 -0.392241805791854858
-0.664181411266326904 -1 0.116330847144126892
-0.263448059558868408 0.621290743350982666 -1
0.366864323616027832 0.598408937454223633 -1
-0.377151280641555786 1 0.0857142806053161621
-0.0538100078701972961 0.860165119171142578 -1
0.110299989581108093 1 0.180219262838363647
-0.292022287845611572 -1 -0.0180461537092924118
-0.791779935359954834 -0.0523033961653709412 1
-0.11612682044506073 -1 -0.32364189624786377
0.328230410814285278 0.090437181293964386 -1
-0.0835513025522232056 -0.407083660364151001 -1
-1 0.880526185035705566 0.123428367078304291
0.334109961986541748 -0.621725976467132568 -1
-0.5823020339012146 -0.159757882356643677 -1
0.649793863296508789 -0.311632722616195679 -1
0.553390383720397949 0.879297137260437012 1
-0.648485541343688965 0.768616735935211182 -1
-0.214903101325035095 -0.392982780933380127 1
0.706098973751068115 -0.66117393970489502 -1
1 -0.663618326187133789 -0.484812885522842407
0.623261451721191406 0.670960903167724609 -1
0.719102144241333008 0.192097216844558716 1
0.774665713310241699 -1 0.216722458600997925
1 0.875830292701721191 0.697501480579376221
0.184921547770500183 0.225404083728790283 1
0.993943870067596436 -1 0.150734648108482361
1 0.487874239683151245 0.417482972145080566
0.00543694617226719856 1 0.638828396797180176
1 0.639195680618286133 -0.814249753952026367
-0.459695219993591309 1 -0.0497871823608875275
0.440767973661422729 -0.947714924812316895 -1
-0.0876484140753746033 0.908148765563964844 -1
0.945575118064880371 -0.134479939937591553 -1
-0.384522199630737305 0.328409731388092041 -1
0.133446529507637024 0.362739890813827515 1
-1 0.956275522708892822 0.12578880786895752
-0.0939773544669151306 1 -0.668501734733581543
-0.100003227591514587 -0.913356661796569824 -1
-0.43288886547088623 -0.334747135639190674 -1
-0.256746292114257812 -1 -0.675944209098815918
0.0503410585224628448 1 -0.711747109889984131
0.614181935787200928 -0.698231399059295654 1
-0.995656073093414307 0.316343069076538086 1
-0.838952481746673584 1 0.285992175340652466
-0.340293020009994507 0.680785238742828369 -1
-0.372806757688522339 0.689401924610137939 1
0.162238940596580505 -0.500339150428771973 1
-0.673332273960113525 -0.346272379159927368 -1
0.959726870059967041 0.270678013563156128 -1
0.0104763135313987732 1 0.454010814428329468
0.0316742546856403351 -1 0.658305466175079346
-0.575068175792694092 -0.904314279556274414 -1
-0.203818753361701965 -0.627142846584320068 -1
0.970656454563140869 -0.0435161665081977844 -1
0.933025181293487549 1 0.183571562170982361
0.719117641448974609 1 -0.379315227270126343
1 -0.947853565216064453 -0.296839356422424316
-0.878896594047546387 0.246267393231391907 -1
0.290409594774246216 0.134646520018577576 -1
-0.474416464567184448 -0.881509482860565186 -1
-0.638644397258758545 -0.593405842781066895 -1
0.768120467662811279 -1 0.0710701495409011841
-0.230494722723960876 0.589603781700134277 -1
-0.00541633274406194687 0.899520337581634521 -1
0.816564261913299561 -0.862814843654632568 -1
-0.32112884521484375 0.934385418891906738 -1
-0.3168296217918396 0.42872089147567749 1
-0.984584271907806396 0.555643081665039062 -1
0.47910580039024353 -0.286444574594497681 1
0.851332545280456543 -0.787212371826171875 -1
-0.934846222400665283 -0.685392320156097412 1
-0.926511228084564209 0.442475259304046631 1
0.698022365570068359 -1 0.914694428443908691
0.679686784744262695 -0.784049332141876221 1
-0.621561706066131592 -1 0.831124067306518555
-0.0129634160548448563 0.531960666179656982 -1
0.700546681880950928 0.00553015992045402527 -1
1 -0.565296471118927002 -0.145207464694976807
0.799148857593536377 0.0035098677035421133 -1
-1 0.369428336620330811 0.106633521616458893
-1 -0.185071885585784912 -0.101891003549098969
1 0.441615551710128784 0.884377717971801758
-0.171782135963439941 0.63785254955291748 1
0.480362087488174438 -1 0.40522533655166626
-0.107266798615455627 -0.629967987537384033 1
-0.275801688432693481 0.295772701501846313 -1
0.24688759446144104 0.963913083076477051 -1
0.844850420951843262 -0.286235004663467407 -1
-1 0.5893135666847229 -0.108335740864276886
0.208972200751304626 1 -0.325957387685775757
-0.165917366743087769 -0.68275827169418335 -1
0.324308723211288452 -0.431024491786956787 -1
-0.575652837753295898 -0.2339029461145401 1
0.565144479274749756 -1 0.942367017269134521
1 0.167333588004112244 0.761263728141784668
0.149236038327217102 0.0546981357038021088 -1
0.736689627170562744 -0.894709467887878418 -1
-0.341228127479553223 0.624171614646911621 1
0.893763184547424316 0.658153057098388672 -1
0.0222699623554944992 -0.89980781078338623 1
0.0291772466152906418 -1 0.765617311000823975
0.702858626842498779 0.627209067344665527 1
-0.357422024011611938 -1 0.354572862386703491
0.922500908374786377 -0.691769003868103027 -1
0.421508997678756714 -0.532016992568969727 -1
0.0700608417391777039 1 -0.652364671230316162
-0.404382705688476562 -0.164708077907562256 1
1 -0.858560383319854736 -0.952601790428161621
0.17945803701877594 0.272851943969726562 1
1 -0.2655525803565979 -0.143819019198417664
0.561879873275756836 0.806747913360595703 1
1 0.076819203794002533 -0.145812839269638062
1 -0.419589638710021973 0.222935944795608521
1 0.293357402086257935 -0.865292191505432129
1 -0.539242982864379883 -0.776691019535064697
-1 -0.65941166877746582 -0.39210200309753418
-0.288172781467437744 -0.29328233003616333 1
1 -0.12907843291759491 0.0995481014251708984
0.529449641704559326 -0.905605792999267578 -1
0.497955322265625 -0.66554945707321167 -1
0.945088624954223633 -0.399099349975585938 -1
-1 -0.0986244678497314453 0.501893758773803711
-0.946490049362182617 0.391370207071304321 -1
-0.725690364837646484 1 -0.396357834339141846
0.386527419090270996 1 -0.15712602436542511
-1 -0.0025484070647507906 -0.619872212409973145
-0.634088575839996338 1 -0.447986125946044922
0.556191563606262207 0.255421459674835205 1
0.375370591878890991 -0.29572373628616333 1
-0.740208804607391357 0.0314269997179508209 -1
-0.147652715444564819 0.858868598937988281 1
-0.440014749765396118 0.58887094259262085 -1
0.307204753160476685 -0.203810304403305054 -1
0.105481572449207306 0.284743160009384155 1
-0.920380353927612305 0.805292725563049316 -1
0.100569099187850952 0.588576316833496094 1
-0.113764837384223938 -0.0299200080335140228 1
-1 -0.950991988182067871 -0.78451305627822876
-0.653539717197418213 0.142850935459136963 1
0.699077248573303223 -0.428735166788101196 -1
0.27746284008026123 1 -0.9909401535987854
-0.62353360652923584 0.212388917803764343 -1
-0.748761534690856934 1 -0.340298652648925781
-0.5252494215965271 -1 -0.325973212718963623
-0.0110706128180027008 0.316504806280136108 1
-0.684132277965545654 -0.626496851444244385 -1
-0.480953842401504517 -0.242366388440132141 1
1 -0.276570916175842285 0.350023627281188965
0.806735873222351074 1 0.871265172958374023
-0.766605913639068604 0.253759592771530151 1
0.0796255618333816528 1 0.0811324790120124817
-0.337692022323608398 0.0892129316926002502 -1
-0.903671145439147949 -0.419539421796798706 -1
0.7179526686668396 -0.874502301216125488 -1
0.717019557952880859 -1 0.313353776931762695
0.0822176709771156311 1 -0.18757319450378418
1 -0.827280402183532715 0.398091226816177368
-0.0926418378949165344 0.184760197997093201 -1
-0.381396740674972534 0.739393055438995361 -1
0.0565689727663993835 1 0.212840557098388672
-0.617820441722869873 -0.0696001350879669189 1
-0.745368599891662598 -1 0.236467108130455017
0.406728297472000122 -0.319274336099624634 -1
1 -0.397532641887664795 0.434818774461746216
0.289238303899765015 0.845524489879608154 -1
-1 -0.225731611251831055 -0.127478018403053284
-1 0.89703899621963501 -0.415804862976074219
-0.767916381359100342 -0.0408567078411579132 -1
0.177046492695808411 0.105675213038921356 1
-0.456673145294189453 -0.047767195850610733 -1
0.287487924098968506 0.310976237058639526 -1
0.165612742304801941 -1 0.503182530403137207
-0.454459458589553833 0.339680105447769165 -1
-1 -0.127308502793312073 0.620174169540405273
0.384508609771728516 1 -0.821646988391876221
-0.976917684078216553 0.0875896364450454712 -1
0.780183196067810059 0.00464721629396080971 -1
0.0259286984801292419 -0.819024145603179932 -1
1 0.446234613656997681 -0.576425909996032715
-0.394833564758300781 0.790397107601165771 -1
0.772583246231079102 1 0.454316139221191406
1 -0.437686681747436523 0.857885837554931641
1 0.523245513439178467 0.995193660259246826
-0.386228084564208984 1 -0.31501808762550354
1 -0.739949166774749756 0.568086385726928711
0.123055018484592438 1 -0.533180058002471924
-0.658484220504760742 -0.750912308692932129 -1
0.00394365843385457993 -0.197686031460762024 -1
-0.679261565208435059 0.548186361789703369 -1
