ply
format ascii 1.0
element vertex 903
property float x
property float y
property float z
end_header
0.271224856376647949 -0.107554048299789429 1
0.977489113807678223 0.520275533199310303 0.101291082799434662
0.044737350195646286 0.784258067607879639 -1
0.170035108923912048 0.11320030689239502 1
0.137322142720222473 0.102792687714099884 -1
0.481679975986480713 -0.982729017734527588 -0.592126131057739258
0.170021846890449524 -0.933806359767913818 -1
-0.795724332332611084 -0.874756336212158203 -0.490801334381103516
0.0231900624930858612 0.106068938970565796 -1
0.0837469696998596191 -0.79903113842010498 -1
-0.672306418418884277 0.195017501711845398 -1
-0.210841253399848938 -0.332242429256439209 -1
0.116681858897209167 -0.114644996821880341 -1
0.0597963891923427582 0.182570263743400574 1
0.394260823726654053 0.656271398067474365 1
0.489647179841995239 -0.596404790878295898 -1
-0.881638646125793457 -0.286912739276885986 -1
0.987429320812225342 0.440157681703567505 0.928386330604553223
0.354503929615020752 0.387926936149597168 1
0.183736324310302734 0.681801557540893555 -1
0.0209320336580276489 0.73039168119430542 -1
0.995902538299560547 0.354439198970794678 -0.669813752174377441
-0.070492275059223175 -0.311467260122299194 1
0.095800839364528656 0.215078085660934448 -1
-0.908765137195587158 0.744592189788818359 0.160135746002197266
-0.998657107353210449 -0.190761655569076538 0.838236212730407715
-0.998506247997283936 0.16090160608291626 0.901092171669006348
-0.275064229965209961 -0.283510982990264893 -1
-0.431714117527008057 -0.190799519419670105 1
0.00680747348815202713 -0.244442343711853027 -1
0.0947728157043457031 -0.36235162615776062 -1
-0.994002997875213623 0.28304937481880188 0.689610600471496582
0.551462888717651367 0.818742692470550537 -1
-0.0984161049127578735 0.199882417917251587 -1
0.1431741863489151 -0.0237738694995641708 -1
-0.0269833784550428391 0.00330889667384326458 -1
-0.478982329368591309 0.6871337890625 1
0.0840124189853668213 0.997686862945556641 0.556334853172302246
-0.866336345672607422 -0.377767801284790039 -1
-0.255293309688568115 -0.146389245986938477 -1
0.303963035345077515 0.685351431369781494 1
-0.885533630847930908 0.782900512218475342 0.348182767629623413
0.448978126049041748 0.936320364475250244 1
0.31712043285369873 0.278286188840866089 1
0.757368743419647217 0.386109679937362671 -1
0.111650608479976654 -0.221096128225326538 1
-0.153761953115463257 0.16296832263469696 -1
-0.417310565710067749 -0.991220593452453613 0.698067307472229004
-0.596061408519744873 0.0545396693050861359 1
0.231797665357589722 -0.231660276651382446 -1
0.79173886775970459 -0.877884447574615479 0.0512344986200332642
-0.199634507298469543 -0.341419488191604614 -1
0.266607731580734253 0.425933539867401123 -1
0.954291939735412598 -0.635663747787475586 0.143152534961700439
-0.0565679632127285004 -0.0934380665421485901 -1
0.188011601567268372 -0.413865596055984497 -1
-0.13140144944190979 -0.225324958562850952 -1
0.603955864906311035 -0.963331937789916992 -0.307711690664291382
-0.274436235427856445 0.997686862945556641 0.276142001152038574
0.802452623844146729 0.463631212711334229 -1
-0.288831651210784912 -0.658947944641113281 -1
0.604432344436645508 -0.640470385551452637 -1
-0.24766947329044342 0.214522644877433777 1
-0.476656824350357056 -0.983830928802490234 0.792970240116119385
-0.186187848448753357 0.373830914497375488 1
0.228882104158401489 0.997686862945556641 -0.0659237876534461975
0.364752411842346191 -0.426831185817718506 -1
0.0417877025902271271 0.99827873706817627 -0.977100729942321777
0.997476518154144287 -0.0428998544812202454 -0.220781624317169189
-0.82992243766784668 -0.845802068710327148 -0.21582600474357605
-0.558077514171600342 0.584428548812866211 -1
-0.332132220268249512 0.995837867259979248 0.962395191192626953
0.00158900686074048281 -0.0821724757552146912 -1
-0.306089431047439575 -0.997686862945556641 -0.911718606948852539
0.202406316995620728 -0.0449840836226940155 -1
0.521506786346435547 -0.376410514116287231 1
-0.553319215774536133 -0.470343947410583496 -1
-0.136757463216781616 -0.997686862945556641 0.119598932564258575
-0.0564778596162796021 -0.00860230997204780579 1
-0.833741188049316406 -0.844439923763275146 -0.530434370040893555
-0.215980768203735352 0.0446667224168777466 1
0.97267448902130127 0.552605926990509033 -0.937623023986816406
-0.0173402577638626099 0.0993007197976112366 -1
0.119210012257099152 0.250095218420028687 -1
-0.953182101249694824 0.6331062912940979 -0.286211192607879639
-0.782271504402160645 -0.255633533000946045 -1
-0.451508045196533203 -0.176376506686210632 1
-0.510005056858062744 -0.981060385704040527 -0.985249102115631104
0.501706361770629883 0.809517741203308105 -1
0.191028684377670288 0.365883708000183105 -1
0.817753493785858154 0.857397913932800293 -0.0454457364976406097
0.00183786253910511732 -0.0210117287933826447 1
-0.959176719188690186 0.613592863082885742 -0.726758718490600586
0.154477283358573914 0.495046138763427734 1
0.0186983086168766022 -0.104617580771446228 1
0.965315878391265869 0.596598029136657715 -0.962269961833953857
-0.749037027359008789 0.908728420734405518 0.181439056992530823
-0.126205310225486755 -0.996486246585845947 -0.649540722370147705
-0.612227201461791992 -0.110846273601055145 -1
0.879493117332458496 -0.793287754058837891 -0.593643605709075928
0.896492421627044678 -0.764055609703063965 -0.285473227500915527
-0.12506026029586792 -0.270668238401412964 -1
-0.99795299768447876 0.0514013022184371948 0.0820835307240486145
0.567379236221313477 -0.554487645626068115 1
0.248831555247306824 0.714926540851593018 1
0.327666252851486206 0.65069580078125 -1
0.627967298030853271 -0.957812309265136719 -0.397562980651855469
0.179276719689369202 -0.176957383751869202 1
-0.946883559226989746 0.654616415500640869 0.0458786599338054657
0.0643422305583953857 -0.127211987972259521 1
0.0701951682567596436 -0.293145567178726196 1
-0.0783785730600357056 -0.996996581554412842 -0.477549344301223755
-0.473616927862167358 -0.984083473682403564 -0.18420468270778656
0.252659350633621216 -0.186251625418663025 1
0.415782004594802856 -0.0627087205648422241 -1
0.417755484580993652 0.989663064479827881 -0.108363889157772064
0.942587435245513916 -0.669288337230682373 0.394331216812133789
0.989478945732116699 -0.40694659948348999 -0.247642219066619873
-0.989752531051635742 0.443387389183044434 0.368987739086151123
-0.997626543045043945 0.0132165728136897087 -0.715031266212463379
-0.062379833310842514 -0.997686862945556641 -0.622312724590301514
-0.998135209083557129 -0.0874650850892066956 0.834007024765014648
-0.319357246160507202 -0.07752971351146698 1
0.551584005355834961 0.973507285118103027 -0.555115103721618652
-0.209344863891601562 -0.146592676639556885 1
-0.455901741981506348 0.109270267188549042 1
-0.192021295428276062 0.997686862945556641 0.770580887794494629
-0.561764240264892578 0.971863448619842529 0.258861809968948364
-0.669551193714141846 -0.0166802238672971725 1
0.00834731757640838623 -0.0722398385405540466 -1
-0.017313692718744278 0.0552410818636417389 1
0.678593933582305908 -0.434416919946670532 -1
-0.755187273025512695 -0.510677933692932129 -1
-0.497685432434082031 -0.298493653535842896 1
-0.516923189163208008 -0.978079736232757568 -0.219035282731056213
-0.298597604036331177 0.369148135185241699 -1
-0.89655989408493042 -0.765187978744506836 -0.837344527244567871
0.0846357941627502441 0.178583517670631409 1
0.588946282863616943 0.964910566806793213 -0.907250881195068359
0.968613922595977783 0.580404758453369141 -0.739119648933410645
0.990512669086456299 -0.390196442604064941 0.434262186288833618
0.334870219230651855 0.319944053888320923 -1
-0.99634784460067749 0.172378093004226685 -0.220954075455665588
0.0516793057322502136 -0.997686862945556641 -0.269371062517166138
-0.649763524532318115 -0.948097050189971924 0.656817257404327393
0.632957994937896729 -0.953686296939849854 0.772973597049713135
0.478935301303863525 -0.379502296447753906 -1
0.991221785545349121 0.414321094751358032 0.45671004056930542
0.685677468776702881 -0.166115447878837585 -1
-0.986381709575653076 0.464521318674087524 -0.522428691387176514
-0.757700443267822266 -0.872875094413757324 1
-0.0141082098707556725 0.467287838459014893 -1
-0.180938720703125 0.262094467878341675 1
0.373732835054397583 0.35306859016418457 -1
0.545647919178009033 0.280542314052581787 1
0.858671605587005615 -0.815621256828308105 0.780504047870635986
0.348887205123901367 0.126603409647941589 1
0.341895550489425659 -0.296934515237808228 -1
-0.146470174193382263 -0.438925951719284058 -1
0.455509960651397705 -0.336785674095153809 1
-0.806814789772033691 -0.867821395397186279 -0.70384448766708374
0.203671202063560486 -0.78431248664855957 -1
0.123214572668075562 -0.127531051635742188 -1
-0.808689117431640625 0.297954559326171875 -1
-0.517916619777679443 -0.0600405111908912659 1
-0.525240063667297363 -0.505919277667999268 -1
0.669178307056427002 0.941640019416809082 0.103159911930561066
-0.0334666594862937927 0.102573774755001068 -1
0.998206079006195068 -0.10148969292640686 -0.456585526466369629
-0.997282028198242188 -0.128285452723503113 -0.0715067386627197266
0.151857346296310425 -0.815311729907989502 -1
0.667581021785736084 0.695789456367492676 -1
-0.557170867919921875 0.973038434982299805 -0.421713858842849731
0.216539531946182251 0.0292124506086111069 -1
-0.498926043510437012 -0.630951583385467529 -1
0.994101583957672119 -0.278396368026733398 -0.691295027732849121
-0.202735856175422668 0.998742103576660156 0.0663680881261825562
-0.5267372727394104 0.653874576091766357 -1
0.684485137462615967 0.874128401279449463 -1
-0.745135128498077393 -0.197925090789794922 -1
0.00077244563726708293 -0.997824609279632568 0.485839605331420898
-0.646748661994934082 -0.464418679475784302 -1
-0.205032810568809509 -0.99564516544342041 -0.353374481201171875
0.135218426585197449 -0.737494170665740967 -1
0.580686032772064209 -0.967023491859436035 0.456678390502929688
-0.00746951624751091003 0.0962245985865592957 1
-0.566512882709503174 0.221190482378005981 1
-0.949512660503387451 0.657257676124572754 0.923025071620941162
0.710190713405609131 0.925092160701751709 0.792746305465698242
-0.72534555196762085 -0.921294510364532471 0.95647430419921875
0.281400859355926514 -0.261833131313323975 1
-0.992110908031463623 -0.364298582077026367 -0.991065561771392822
0.108308762311935425 -0.00629381183534860611 -1
0.101540371775627136 -0.118694916367530823 -1
0.312797248363494873 -0.562037467956542969 -1
0.548165500164031982 0.225104257464408875 1
-0.272689640522003174 0.160466656088829041 -1
0.654305696487426758 0.360368996858596802 -1
0.087857365608215332 0.437044978141784668 1
-0.276397585868835449 -0.300814300775527954 -1
-0.998823821544647217 -0.223760068416595459 0.903266549110412598
-0.995917022228240967 0.302625924348831177 -0.356330424547195435
0.134236112236976624 0.996400535106658936 -0.387013077735900879
0.572927117347717285 0.240377813577651978 -1
-0.407073795795440674 -0.655741453170776367 -1
-0.181955233216285706 -0.999619543552398682 0.966171205043792725
0.135077431797981262 -0.922065198421478271 -1
-0.980759382247924805 -0.499686390161514282 0.251895993947982788
0.998456180095672607 -0.150995045900344849 -0.76203233003616333
-0.37807270884513855 0.371185332536697388 1
-0.0412528961896896362 -0.997392654418945312 -0.256609588861465454
-0.924016475677490234 0.696620941162109375 -1
-0.426653176546096802 0.27433428168296814 -1
0.764009356498718262 0.47683107852935791 1
-0.371886253356933594 0.258681535720825195 1
0.647612512111663818 0.754122793674468994 1
-0.41968381404876709 -0.385691970586776733 -1
0.0760688185691833496 0.19375041127204895 -1
0.321046978235244751 -0.294725745916366577 1
0.874151229858398438 -0.797727406024932861 -0.283391624689102173
0.9747275710105896 0.537589669227600098 -0.388971567153930664
-0.701885581016540527 0.325005620718002319 -1
0.230861276388168335 0.64768826961517334 -1
0.0773181244730949402 0.997686862945556641 -0.532677352428436279
-0.983994066715240479 -0.356139928102493286 -1
-0.828379213809967041 0.84912639856338501 0.936040043830871582
-0.884298205375671387 0.785997867584228516 0.328319847583770752
-0.849871277809143066 -0.266689777374267578 -1
-0.527096807956695557 -0.548859953880310059 1
0.23104393482208252 0.997686862945556641 -0.984591066837310791
0.408268183469772339 -0.921908199787139893 -1
-0.997138619422912598 0.109778285026550293 -0.122005268931388855
-0.238580405712127686 0.235679447650909424 -1
0.693742334842681885 -0.0694770663976669312 1
0.707796335220336914 -0.928796291351318359 -0.364421278238296509
-0.246733888983726501 -0.59791034460067749 -1
-0.515852570533752441 -0.664313137531280518 -1
-0.718254208564758301 0.921603024005889893 -0.771215319633483887
0.23182012140750885 0.321578055620193481 -1
-0.345147639513015747 0.581452786922454834 -1
-0.102876760065555573 -0.997686862945556641 -0.575942754745483398
-0.510192215442657471 0.215790614485740662 1
-0.137932151556015015 -0.00955952145159244537 -1
0.370971441268920898 -0.170230075716972351 1
0.179150566458702087 0.8069496750831604 -1
-0.367223024368286133 -0.700236201286315918 1
0.251190483570098877 0.388016164302825928 1
-0.99388653039932251 0.288547903299331665 -0.629490375518798828
-0.137580230832099915 -0.1152983158826828 1
0.339628696441650391 -0.47809639573097229 -1
0.530147731304168701 -0.979386985301971436 0.433208614587783813
-0.880499780178070068 -0.0254503469914197922 1
0.00715255644172430038 0.295233011245727539 1
-0.119562514126300812 -0.996557116508483887 -0.902432084083557129
-0.176099404692649841 0.999711811542510986 0.936636924743652344
-0.463650733232498169 0.082401178777217865 1
0.925951182842254639 0.710680484771728516 -0.431073546409606934
-0.327708989381790161 -0.302468657493591309 -1
-0.310213148593902588 0.291661560535430908 1
-0.808623611927032471 -0.866097807884216309 -0.198572367429733276
-0.791352033615112305 0.882555902004241943 0.472464323043823242
0.221700653433799744 0.448355764150619507 1
0.743351578712463379 0.504612922668457031 -1
-0.843664348125457764 -0.837129473686218262 0.736516714096069336
0.678301751613616943 -0.942054450511932373 0.744879961013793945
-0.954258561134338379 0.635256111621856689 -0.490220248699188232
-0.994126439094543457 0.277224272489547729 -0.166112005710601807
0.92513352632522583 -0.709816336631774902 -0.875641763210296631
0.268769115209579468 0.547701060771942139 1
-0.21917976438999176 -0.246903792023658752 1
-0.0161646250635385513 0.998005330562591553 0.7164154052734375
0.123208686709403992 -0.0677996203303337097 -1
0.185738369822502136 -0.999459803104400635 0.794138312339782715
0.229408025741577148 -0.648758053779602051 1
0.99985349178314209 0.00691594742238521576 -0.446674764156341553
0.842443227767944336 -0.567259252071380615 -1
0.999916970729827881 0.0039199264720082283 -0.0881605669856071472
0.94365394115447998 -0.665645956993103027 -0.114204704761505127
0.498285591602325439 -0.238460004329681396 -1
0.0860878154635429382 -0.181271612644195557 -1
0.997187912464141846 0.132728114724159241 -0.839222967624664307
0.986140251159667969 0.461045563220977783 -0.765261650085449219
0.213899567723274231 0.249287933111190796 1
-0.69450908899307251 0.493173718452453613 -1
-0.148140847682952881 -0.0516223646700382233 1
0.668072402477264404 -0.942834138870239258 0.351919829845428467
-0.341244697570800781 -0.237564548850059509 -1
-0.60765373706817627 0.928621292114257812 -1
0.157315343618392944 -0.997686862945556641 0.637916743755340576
-0.758351027965545654 0.148878589272499084 -1
0.145500883460044861 -0.996280372142791748 0.49080967903137207
-0.489465981721878052 0.984025895595550537 -0.568620383739471436
0.530776560306549072 0.894467532634735107 1
0.966367542743682861 0.581102609634399414 0.813791155815124512
-0.129363119602203369 0.0319547392427921295 1
0.482238471508026123 0.535714507102966309 -1
-0.115324720740318298 -0.610340297222137451 -1
0.809488654136657715 -0.865273535251617432 0.208715707063674927
0.439586222171783447 0.98828202486038208 0.105278603732585907
0.0501186288893222809 -0.00199097814038395882 -1
0.113252297043800354 -0.180359035730361938 1
0.887670397758483887 -0.782099723815917969 0.0757659822702407837
-0.963496148586273193 -0.00752453505992889404 -1
0.991422414779663086 -0.399530202150344849 0.447156339883804321
0.595940589904785156 -0.965997695922851562 0.0111578302457928658
0.0400556549429893494 0.883716166019439697 -1
-0.690753400325775146 -0.541185677051544189 -1
0.16322837769985199 -0.914149761199951172 1
0.76448434591293335 -0.171594053506851196 -1
0.781595528125762939 -0.724959075450897217 1
0.101717576384544373 -0.395041525363922119 1
0.916902661323547363 -0.734790146350860596 0.842072010040283203
0.995429515838623047 0.215719699859619141 0.802120387554168701
-0.00330670783296227455 0.0258725229650735855 1
-0.0741221755743026733 -0.101106457412242889 -1
0.206742048263549805 -0.316929012537002563 -1
0.612439870834350586 -0.284868299961090088 -1
-0.977790117263793945 -0.518388211727142334 0.213093489408493042
-0.690917611122131348 0.868371486663818359 1
-0.140744566917419434 0.996331095695495605 -0.673706114292144775
-0.369393765926361084 0.360846251249313354 -1
-0.141207456588745117 -0.996326148509979248 0.769428491592407227
0.454419821500778198 0.610571205615997314 1
-0.0976416245102882385 -0.540557980537414551 -1
0.664052009582519531 -0.943344950675964355 0.863954365253448486
-0.735286116600036621 0.832375884056091309 -1
0.178921610116958618 0.79040229320526123 -1
-0.643233776092529297 0.953297197818756104 0.968900442123413086
0.997876882553100586 0.10020717978477478 -0.13263353705406189
0.174176335334777832 0.324922949075698853 1
-0.404927909374237061 0.8157997727394104 -1
-0.688204348087310791 -0.000273479206953197718 1
-0.912878572940826416 -0.742248296737670898 0.132879734039306641
0.496542960405349731 -0.982178807258605957 -0.625789761543273926
-0.994496524333953857 0.259756088256835938 0.490452975034713745
-0.211226090788841248 -0.997686862945556641 0.288789272308349609
-0.826861023902893066 0.669749677181243896 -1
-0.962433993816375732 -0.613472819328308105 0.41428712010383606
-0.474835216999053955 -0.704004168510437012 1
-0.254030406475067139 -0.996576189994812012 -0.405307650566101074
-0.0932770445942878723 0.818022370338439941 -1
-0.285473048686981201 0.961940109729766846 1
0.315305829048156738 -0.288752168416976929 -1
0.126956209540367126 0.475018084049224854 -1
0.299220114946365356 0.994668126106262207 -0.0236577428877353668
0.661022484302520752 0.94580388069152832 0.577737569808959961
0.00869822315871715546 -0.0267463512718677521 1
-0.572378158569335938 -0.416887253522872925 -1
-0.258875161409378052 -0.341744959354400635 -1
-0.370245516300201416 -0.381768733263015747 -1
-0.344462305307388306 0.380032986402511597 1
0.957328677177429199 -0.627075850963592529 -0.299446940422058105
-0.992245316505432129 -0.366010427474975586 0.651323556900024414
0.402011126279830933 0.232497110962867737 -1
0.991387724876403809 -0.406488507986068726 -0.332558274269104004
-0.416312068700790405 0.991352319717407227 0.118056558072566986
0.519431948661804199 -0.728935301303863525 -1
0.917928993701934814 -0.615964710712432861 -1
0.0351965799927711487 -0.117345891892910004 -1
0.787738144397735596 0.0847657769918441772 -1
-0.985923528671264648 0.464557349681854248 0.64415276050567627
-0.0457614809274673462 0.282547414302825928 1
-0.667503297328948975 0.829883992671966553 -1
-0.219446241855621338 -0.571215629577636719 -1
-0.207364574074745178 0.995620310306549072 0.264420062303543091
-0.842709243297576904 0.0937392637133598328 -1
0.585279405117034912 -0.757602453231811523 -1
0.808772861957550049 -0.867583274841308594 -0.468031167984008789
0.783556103706359863 -0.149268448352813721 -1
0.430828869342803955 0.348063766956329346 -1
-0.310025840997695923 -0.997674405574798584 -0.305861622095108032
0.809364855289459229 -0.86405026912689209 -0.706622004508972168
-0.850863873958587646 -0.824646711349487305 -0.438283860683441162
0.470491081476211548 -0.706432163715362549 -1
0.319578021764755249 0.993318319320678711 1
0.557818949222564697 -0.439182579517364502 -1
-0.96166616678237915 -0.234055608510971069 1
0.0497761666774749756 0.998363971710205078 -0.620570719242095947
0.996362149715423584 -0.263468325138092041 0.589457273483276367
-0.121740251779556274 -0.62109142541885376 -1
0.721066653728485107 -0.920510768890380859 0.725166141986846924
0.980220139026641846 0.518512725830078125 -0.692765116691589355
0.838706552982330322 -0.182074502110481262 -1
0.594615161418914795 0.963460564613342285 0.848823845386505127
0.237042486667633057 -0.377973079681396484 -1
0.248185604810714722 -0.15552404522895813 -1
-0.175396695733070374 -0.269835293292999268 -1
0.0666262358427047729 -0.151661887764930725 -1
-0.998317301273345947 -0.123510114848613739 -0.211133867502212524
-0.0902954339981079102 0.997686862945556641 0.152382031083106995
-0.857188403606414795 0.817335784435272217 -0.885550856590270996
-0.33767402172088623 -0.995377421379089355 0.92660832405090332
0.85540473461151123 -0.581969320774078369 1
0.105810366570949554 0.777298033237457275 -1
0.204240798950195312 0.345987290143966675 1
0.544154345989227295 0.621355235576629639 -1
0.991152942180633545 0.417570263147354126 0.819390833377838135
-0.294930875301361084 0.994685947895050049 -0.486539125442504883
0.939395248889923096 0.341275870800018311 -1
0.531671285629272461 -0.385209381580352783 -1
-0.64620286226272583 0.288358330726623535 -1
0.193560749292373657 0.94516289234161377 -1
0.207933217287063599 -0.0884825661778450012 1
0.0317379608750343323 0.0158938895910978317 1
0.996649980545043945 -0.206495776772499084 0.707654714584350586
0.998830199241638184 -0.0552117712795734406 0.92389911413192749
0.0977044776082038879 -0.086410127580165863 -1
-0.0675978437066078186 -0.0045504164882004261 -1
-0.790726006031036377 0.667105555534362793 1
0.931548893451690674 0.695765495300292969 -0.723067045211791992
-0.365329355001449585 0.993934810161590576 -0.183571904897689819
0.990864753723144531 0.431172370910644531 0.284879446029663086
-0.354703068733215332 0.140907496213912964 -1
0.583271205425262451 -0.969327092170715332 -0.449943214654922485
-0.789846599102020264 -0.203114405274391174 -1
0.323403120040893555 -0.725780248641967773 -1
0.326026439666748047 0.362045109272003174 -1
0.0968532487750053406 0.257742971181869507 -1
-0.502007782459259033 0.659165561199188232 -1
-0.996200799942016602 -0.295395135879516602 0.835219204425811768
-0.261281967163085938 -0.508015751838684082 1
0.409111469984054565 0.7277488112449646 1
0.24320666491985321 0.997686862945556641 -0.373189717531204224
-0.561551034450531006 -0.970382630825042725 -0.875895142555236816
-0.542963206768035889 0.957800626754760742 -1
-0.0278968047350645065 -0.213768020272254944 1
-0.29216998815536499 -0.534712135791778564 -1
-0.198170557618141174 -0.307828128337860107 -1
0.997123897075653076 -0.135747730731964111 0.518219470977783203
-0.996587753295898438 -0.218811646103858948 0.102425046265125275
-0.242315977811813354 -0.137333407998085022 -1
-0.872134029865264893 0.799524247646331787 0.862913966178894043
-0.316065192222595215 -0.186727419495582581 1
-0.636688470840454102 -0.952445626258850098 -0.822699129581451416
0.618962526321411133 -0.107638157904148102 -1
-0.998947799205780029 -0.248297452926635742 -0.719318211078643799
0.357093185186386108 -0.993764102458953857 0.858008742332458496
0.997421026229858398 0.0538931302726268768 0.735985100269317627
-0.984129607677459717 -0.478641301393508911 -0.925356030464172363
-0.587975978851318359 0.965158820152282715 0.80048215389251709
0.0587142668664455414 0.998459339141845703 -0.297519415616989136
-0.0504727661609649658 0.546583116054534912 1
0.499925076961517334 -0.243175938725471497 1
-0.00111324910540133715 0.384077191352844238 -1
-0.424699276685714722 -0.270991504192352295 -1
0.232248410582542419 -0.800476968288421631 1
0.307493150234222412 -0.425197392702102661 -1
0.246342405676841736 -0.386334091424942017 -1
0.245964556932449341 0.995208442211151123 -0.69168776273727417
-0.671566247940063477 0.940845847129821777 0.645267307758331299
-0.633134782314300537 -0.953607678413391113 0.782657802104949951
-0.691237330436706543 0.094021327793598175 1
-0.67504119873046875 -0.939690113067626953 -0.593631267547607422
0.790668070316314697 0.88320767879486084 -0.759902060031890869
-0.996783077716827393 -0.151833474636077881 -0.916205465793609619
0.224766954779624939 -0.132410541176795959 -1
0.687241673469543457 -0.442868858575820923 -1
0.0766462758183479309 0.147032439708709717 1
-0.359323263168334961 -0.404832512140274048 1
-0.291696935892105103 0.296782165765762329 -1
-0.709219455718994141 0.926337003707885742 0.450918704271316528
0.497623950242996216 0.458520233631134033 -1
0.514583408832550049 -0.596541166305541992 -1
0.572761237621307373 -0.260799139738082886 -1
-0.069058634340763092 -0.887400269508361816 1
-0.848570823669433594 0.537111878395080566 -1
0.0222347918897867203 0.921308398246765137 -1
-0.372036755084991455 0.993863224983215332 -0.201844245195388794
-0.630911052227020264 0.533723115921020508 1
0.0996483340859413147 -0.0425701253116130829 -1
0.490149825811386108 0.982709944248199463 -0.518021583557128906
0.176836028695106506 0.30039641261100769 -1
-0.998148739337921143 -0.0901491641998291016 0.375175058841705322
0.017465837299823761 0.000120428871014155447 -1
0.653580069541931152 -0.94837796688079834 -0.782808959484100342
0.217648252844810486 -0.606549680233001709 1
-0.997595489025115967 -0.019357459619641304 0.55443727970123291
-0.484851866960525513 -0.276327759027481079 -1
0.997876167297363281 -0.0361959338188171387 -0.54003530740737915
-0.691301524639129639 0.443390846252441406 -1
-0.0757526829838752747 -0.88368690013885498 -1
-0.998068094253540039 -0.074187062680721283 -0.761276960372924805
-0.481384396553039551 -0.267323344945907593 -1
-0.441913515329360962 -0.50797349214553833 -1
0.239340633153915405 0.160741403698921204 -1
-0.864621460437774658 0.810084879398345947 -0.863136112689971924
-0.660643339157104492 0.55216604471206665 -1
-0.399735510349273682 -0.538835644721984863 -1
-0.941888093948364258 -0.400031149387359619 -1
-0.902184069156646729 0.0847342386841773987 -1
0.158140182495117188 -0.158715784549713135 1
-0.73834913969039917 -0.913230657577514648 -0.559286892414093018
-0.326256632804870605 0.375041991472244263 -1
-0.083817608654499054 -0.947487950325012207 -1
-0.534051358699798584 0.550025105476379395 -1
0.354995995759963989 0.994045078754425049 0.872177422046661377
-0.0550665222108364105 0.477506428956985474 -1
-0.187865257263183594 -0.0262789707630872726 -1
0.467626839876174927 0.493016064167022705 1
0.950056374073028564 -0.524297595024108887 1
0.122175648808479309 0.29602515697479248 1
0.551754176616668701 -0.973484814167022705 -0.475960314273834229
-0.425766140222549438 0.989324808120727539 0.19316062331199646
0.887308597564697266 0.439736396074295044 1
-0.797536492347717285 0.873334050178527832 -0.990853428840637207
-0.346020549535751343 0.14626622200012207 -1
-0.430049359798431396 0.266109436750411987 1
-0.240939468145370483 0.597225069999694824 1
-0.143145501613616943 0.194422513246536255 -1
0.941189408302307129 -0.670078635215759277 0.340263485908508301
0.0603362210094928741 0.197670593857765198 -1
0.246529385447502136 0.995202422142028809 -0.130426704883575439
0.949105918407440186 0.648985207080841064 -0.9261741042137146
0.944907069206237793 -0.660172939300537109 0.332237362861633301
0.246124044060707092 0.997686862945556641 -0.0592934973537921906
-0.914015531539916992 0.405445843935012817 -1
0.133119925856590271 0.351826876401901245 1
-0.184533342719078064 -0.0995159968733787537 -1
0.97755664587020874 -0.519851803779602051 -0.126081958413124084
0.517480075359344482 -0.978006243705749512 0.0214593689888715744
-0.230933412909507751 0.843881547451019287 -1
0.123562350869178772 -0.254551857709884644 -1
-0.125011265277862549 -0.020109470933675766 1
-0.176278769969940186 0.539892256259918213 -1
0.173233926296234131 -0.997686862945556641 0.752491950988769531
-0.992775499820709229 0.340987682342529297 0.583196699619293213
-0.385068982839584351 -0.411263465881347656 -1
0.0896894112229347229 0.182306721806526184 -1
0.267295628786087036 -0.996016085147857666 0.970554530620574951
0.138549923896789551 -0.252375423908233643 -1
-0.660536050796508789 -0.846983909606933594 -1
-0.848660290241241455 -0.827946841716766357 -0.524217128753662109
-0.126307487487792969 0.277819544076919556 -1
0.98483741283416748 -0.482156813144683838 -0.805322349071502686
0.892596542835235596 0.234101518988609314 1
0.0502933673560619354 0.0666766539216041565 1
0.998160779476165771 -0.0925310328602790833 0.528715610504150391
0.0994512736797332764 -0.283257603645324707 -1
-0.457792848348617554 0.407353758811950684 -1
-0.986339569091796875 0.457816004753112793 -0.204626262187957764
0.0923920720815658569 0.270990222692489624 -1
0.361929148435592651 -0.0243427418172359467 -1
-0.225145325064659119 -0.652843773365020752 -1
0.933977484703063965 -0.0159152112901210785 1
-0.99652564525604248 0.23110082745552063 -0.914250195026397705
0.206505373120307922 0.826422393321990967 -1
0.991189777851104736 0.415831536054611206 -0.0549151971936225891
-0.0494143329560756683 0.956132054328918457 -1
0.284070491790771484 -0.327109634876251221 -1
0.747263133525848389 0.836712658405303955 -1
0.288227379322052002 -0.414909541606903076 -1
0.573304295539855957 0.0559070520102977753 -1
0.880976498126983643 0.790736973285675049 0.147742033004760742
0.651160180568695068 0.947632551193237305 0.957887947559356689
-0.211817353963851929 -0.291043549776077271 -1
0.183758318424224854 0.267208635807037354 1
-0.112081274390220642 0.0589133873581886292 -1
0.215102285146713257 -0.241991624236106873 1
0.897419393062591553 -0.480986803770065308 1
0.30893436074256897 -0.215312883257865906 -1
-0.92324298620223999 0.718055069446563721 0.92101520299911499
0.0607323609292507172 -0.0338664688169956207 -1
-0.0186913665384054184 0.0255937203764915466 -1
-0.852415800094604492 -0.822852730751037598 -0.418962538242340088
0.864787876605987549 -0.198868408799171448 -1
-0.0844754129648208618 0.620500743389129639 1
-0.314174175262451172 0.994036674499511719 0.996357142925262451
0.385331869125366211 -0.85879063606262207 1
-0.253278464078903198 -0.20411314070224762 1
0.350564628839492798 0.498448729515075684 -1
-0.979523062705993652 -0.369646281003952026 1
-0.496259838342666626 0.980805635452270508 -0.964834034442901611
-0.651741683483123779 -0.198577374219894409 -1
-0.804631471633911133 0.869901895523071289 -0.387797057628631592
-0.463093578815460205 -0.529887914657592773 -1
0.660876452922821045 0.946511626243591309 0.87420356273651123
0.0610137097537517548 -0.997181832790374756 -0.677428603172302246
0.866613328456878662 0.806440949440002441 0.269394934177398682
-0.00869699101895093918 -0.997925639152526855 -0.564505636692047119
0.985191881656646729 0.476412385702133179 -0.474477797746658325
0.905991256237030029 0.751930058002471924 0.912583231925964355
0.229400083422660828 -0.420993298292160034 1
0.0889361873269081116 -0.623291850090026855 -1
-0.571615934371948242 0.22570665180683136 1
0.818576455116271973 -0.302413523197174072 -1
-0.605949580669403076 0.513527810573577881 1
-0.381110340356826782 0.991210341453552246 0.634245812892913818
0.8185158371925354 0.861310660839080811 0.590437769889831543
-0.0976223573088645935 -0.997686862945556641 0.862887203693389893
-0.0250565763562917709 0.330369561910629272 1
-3.9381131500704214e-05 -0.997833251953125 -0.326796829700469971
-0.435308128595352173 -0.389629721641540527 -1
-0.501025795936584473 -0.981806397438049316 0.727537930011749268
-0.210748150944709778 0.600351810455322266 -1
0.214517056941986084 0.997686862945556641 -0.61302417516708374
0.271441072225570679 -0.394448846578598022 1
-0.776740670204162598 -0.659567177295684814 1
0.297752618789672852 -0.0953604355454444885 1
-0.190404891967773438 0.861699700355529785 1
0.738457679748535156 0.900789976119995117 -1
0.937566697597503662 0.686434805393218994 0.830868065357208252
0.992477118968963623 -0.355069071054458618 -0.534542560577392578
0.258754521608352661 -0.243122771382331848 1
0.998382806777954102 0.136467635631561279 -0.362798571586608887
0.377464741468429565 0.310222029685974121 1
0.275749355554580688 -0.114015355706214905 -1
0.0732691287994384766 0.066235661506652832 -1
0.153932318091392517 0.996190428733825684 0.933029294013977051
0.0512503273785114288 -0.137858554720878601 1
0.0798578783869743347 -0.0606858395040035248 1
0.061702292412519455 -0.0271618980914354324 1
0.111970677971839905 -0.161024510860443115 -1
0.99713367223739624 0.110762037336826324 0.909616827964782715
0.202153757214546204 0.13057747483253479 1
-0.0591018758714199066 0.434834957122802734 -1
0.316133081912994385 0.331225216388702393 -1
0.117738030850887299 0.127670153975486755 -1
0.0886829644441604614 0.146841347217559814 -1
-0.199926644563674927 -0.159205168485641479 -1
0.607838273048400879 -0.816494345664978027 -1
0.00892770849168300629 -0.282421708106994629 -1
-0.197073087096214294 -0.00990113429725170135 -1
-0.109029211103916168 0.0497164726257324219 1
-0.0343237631022930145 -0.0457794331014156342 1
0.596870243549346924 -0.962883710861206055 -0.194900408387184143
-0.974397957324981689 0.559437811374664307 -0.838520348072052002
-0.283043920993804932 -0.428374052047729492 -1
-0.103394895792007446 -0.00908554811030626297 -1
0.658912420272827148 -0.947014033794403076 0.451861530542373657
0.391075164079666138 0.936055123805999756 1
0.504688620567321777 -0.646161437034606934 -1
-0.176916524767875671 0.393194019794464111 -1
0.291693955659866333 0.994985878467559814 -0.666940093040466309
0.288282006978988647 -0.376349866390228271 -1
0.718021035194396973 -0.37289959192276001 -1
0.00704820966348052025 0.454173535108566284 1
0.114326246082782745 0.075874917209148407 -1
-0.182676210999488831 0.391895830631256104 -1
-0.277236223220825195 0.343058645725250244 1
-0.891869425773620605 0.513965845108032227 1
-0.992429494857788086 0.357316970825195312 0.473369389772415161
-0.2201080322265625 -0.23978307843208313 -1
-0.0704348385334014893 0.649420320987701416 -1
-0.994688570499420166 -0.250692695379257202 -0.425011008977890015
0.193600192666053772 0.995767176151275635 -0.236813634634017944
-0.226653218269348145 -0.51236194372177124 -1
-0.946229219436645508 -0.656851053237915039 -0.280412256717681885
0.997562944889068604 -0.115026593208312988 0.605337083339691162
-0.301364928483963013 -0.19243621826171875 -1
-0.91245579719543457 -0.742842674255371094 -0.373182475566864014
0.224253788590431213 -0.696835100650787354 1
0.14048302173614502 -0.0127749219536781311 -1
0.83745110034942627 -0.492782890796661377 -1
0.995910584926605225 0.352837651968002319 0.945449173450469971
-0.0555784031748771667 0.997239828109741211 0.516803503036499023
0.059872455894947052 -0.0862142071127891541 1
-0.0212967749685049057 -0.0531050115823745728 1
0.807397961616516113 0.771984636783599854 1
-0.307891100645065308 0.994301974773406982 -0.988503456115722656
0.0703750625252723694 -0.984498500823974609 1
0.558321833610534668 -0.261368125677108765 -1
-0.691654860973358154 -0.93290024995803833 -0.491299748420715332
0.269081324338912964 -0.997686862945556641 -0.453964501619338989
-0.815441787242889404 -0.790396749973297119 -1
-0.161750122904777527 -0.184813752770423889 1
-0.97804790735244751 0.525154471397399902 -0.853170096874237061
-0.340260952711105347 0.994202315807342529 0.766220629215240479
0.0476210936903953552 -0.998340964317321777 0.265815466642379761
-0.643789589405059814 -0.822790265083312988 -1
0.762945353984832764 -0.836490035057067871 1
-0.846966326236724854 -0.464288294315338135 1
-0.269327163696289062 0.244505926966667175 -1
0.979245305061340332 0.509264528751373291 -0.85783541202545166
0.130902707576751709 -0.2278708815574646 1
-0.558445274829864502 0.254268825054168701 -1
0.358403623104095459 -0.994008719921112061 -0.0602469183504581451
-0.412749886512756348 -0.274462074041366577 -1
0.0252243280410766602 0.997686862945556641 -0.367436379194259644
0.143794521689414978 0.075924307107925415 -1
-0.997285783290863037 -0.128108829259872437 0.197489038109779358
0.290531545877456665 0.595409154891967773 1
0.0522396229207515717 0.506148993968963623 1
-0.445205062627792358 -0.433901995420455933 1
-0.323379099369049072 -0.759469687938690186 1
0.091158941388130188 -0.998805522918701172 0.000805336283519864082
0.371842235326766968 0.10494539886713028 -1
-0.127939522266387939 0.997686862945556641 0.840255975723266602
-0.385939955711364746 0.5970001220703125 1
-0.124282799661159515 0.000355762138497084379 1
0.320053666830062866 0.213339671492576599 1
0.0678313672542572021 -0.150661572813987732 -1
-0.242269605398178101 0.217401504516601562 -1
-0.363552480936050415 -0.123285986483097076 -1
-0.689822196960449219 -0.936500668525695801 -0.145409464836120605
-0.879386842250823975 -0.791675209999084473 -0.411071509122848511
0.927357077598571777 0.706934571266174316 -0.909812867641448975
0.983969986438751221 0.49621233344078064 0.89143294095993042
-0.693668365478515625 -0.758704543113708496 1
-0.40211912989616394 0.993224620819091797 -0.738183319568634033
0.31506076455116272 -0.993999242782592773 0.490362167358398438
0.343715816736221313 0.770596504211425781 1
-0.691916704177856445 0.620567440986633301 -1
0.736695945262908936 -0.91193997859954834 0.478268235921859741
0.99187082052230835 -0.383686244487762451 0.522033870220184326
-0.0460475683212280273 0.997341513633728027 0.790552675724029541
-0.563742160797119141 -0.971903383731842041 0.303292661905288696
0.21023830771446228 -0.521859467029571533 -1
0.226049989461898804 -0.743957579135894775 -1
-0.260389894247055054 -0.339762300252914429 -1
0.0811607241630554199 0.571839809417724609 -1
0.706957638263702393 -0.906211197376251221 -1
-0.546944260597229004 0.934154510498046875 -1
-0.442646712064743042 0.209723576903343201 -1
0.352900832891464233 -0.99406743049621582 -0.183614611625671387
0.0432093553245067596 0.0203633122146129608 1
0.873212695121765137 -0.80408775806427002 -0.578642189502716064
0.397222697734832764 -0.823043704032897949 -1
0.329301565885543823 0.182951688766479492 1
0.994985997676849365 0.236653760075569153 -0.750899016857147217
0.239769786596298218 -0.129413887858390808 -1
0.473136663436889648 -0.984123408794403076 0.3752003014087677
0.997091829776763916 -0.119044691324234009 0.463180840015411377
0.237376317381858826 -0.13536544144153595 1
0.987090229988098145 0.445652216672897339 -0.585238039493560791
0.213102325797080994 0.471476942300796509 1
0.74235689640045166 -0.209156200289726257 1
-0.00770796556025743484 0.045508895069360733 -1
-0.535823523998260498 0.97849881649017334 0.000766471435781568289
0.991917967796325684 0.394875198602676392 -0.721167147159576416
0.812610208988189697 0.861503064632415771 0.15535426139831543
0.369578003883361816 0.991697311401367188 0.405301302671432495
0.985217869281768799 -0.47599184513092041 -0.70872044563293457
0.296586275100708008 -0.126254841685295105 -1
-0.0161406528204679489 -0.00433202087879180908 1
-0.836421310901641846 0.43191036581993103 -1
-0.147504240274429321 -0.0817574411630630493 -1
0.579670488834381104 -0.916611611843109131 -1
-0.244710370898246765 0.856553018093109131 -1
-0.562122583389282227 -0.275915414094924927 -1
0.384850293397903442 0.535603463649749756 -1
0.0658246502280235291 -0.0619627498090267181 -1
0.493832409381866455 0.379186004400253296 -1
-0.433934271335601807 -0.50873953104019165 1
0.145093604922294617 -0.701838850975036621 -1
-0.262662947177886963 -0.996211707592010498 -0.159991338849067688
0.342366337776184082 0.516602635383605957 -1
-0.448842734098434448 0.987060904502868652 0.849328458309173584
-0.304166555404663086 -0.908489882946014404 -1
0.556799888610839844 0.50699537992477417 -1
0.416237562894821167 -0.106995008885860443 1
0.0250517260283231735 -0.311250746250152588 1
-0.344981223344802856 -0.994151949882507324 -0.593486666679382324
0.0692238807678222656 -0.0475661195814609528 1
-0.474349290132522583 -0.499506145715713501 -1
0.998805224895477295 0.220084309577941895 -0.921016156673431396
0.874713718891143799 -0.500139176845550537 -1
0.506192505359649658 -0.623983263969421387 -1
0.813629448413848877 -0.860703051090240479 -0.503919243812561035
0.942931175231933594 -0.668114423751831055 -0.98542708158493042
0.153579935431480408 -0.377778798341751099 -1
-0.183452442288398743 0.999556303024291992 -0.719438493251800537
-0.58056032657623291 -0.565931618213653564 -1
-0.126382380723953247 0.997686862945556641 -0.358953148126602173
0.654885053634643555 0.248617053031921387 1
0.474179536104202271 -0.93304973840713501 -1
-0.998751401901245117 -0.209421843290328979 -0.0858853161334991455
0.337231606245040894 -0.555325329303741455 -1
0.595113933086395264 0.569117307662963867 -1
0.086605072021484375 0.145349696278572083 -1
-0.687435150146484375 0.225875690579414368 -1
-0.973198950290679932 0.547173440456390381 -0.309535622596740723
0.246813207864761353 -0.256692379713058472 -1
-0.269724577665328979 -0.994954884052276611 -0.214100167155265808
0.791555225849151611 0.878028571605682373 -0.27870902419090271
-0.118895702064037323 -0.00927921198308467865 1
0.362565219402313232 0.664082050323486328 -1
0.996784985065460205 0.179773107171058655 0.699923396110534668
0.303999572992324829 0.592333137989044189 -1
0.0785132423043251038 0.565208554267883301 -1
-0.665995121002197266 -0.613268554210662842 1
0.477205604314804077 -0.887860417366027832 -1
0.746033430099487305 0.331696033477783203 -1
-0.868414223194122314 -0.804359197616577148 -0.520150065422058105
-0.996742010116577148 -0.153773918747901917 0.464685410261154175
-0.0603194870054721832 0.0203376859426498413 -1
0.998220384120941162 0.104327209293842316 -0.328668147325515747
0.24482060968875885 0.91078108549118042 -1
-0.326951801776885986 0.249685615301132202 1
-0.14896276593208313 -0.0362192690372467041 -1
-0.224038079380989075 0.086797468364238739 -1
-0.348889380693435669 0.629905998706817627 -1
0.437630951404571533 0.640093505382537842 -1
0.99525904655456543 -0.313287675380706787 0.272052288055419922
0.427457302808761597 -0.329200327396392822 -1
-0.0700707212090492249 -0.437296837568283081 1
0.018755834549665451 -0.998032987117767334 -0.77624589204788208
0.690545022487640381 0.926495552062988281 -1
0.193272694945335388 0.105559445917606354 1
-0.788342297077178955 0.84815138578414917 1
-0.995894491672515869 -0.356026828289031982 -0.46165168285369873
0.893331527709960938 -0.511233985424041748 -1
0.10169665515422821 0.0112032918259501457 1
0.598813116550445557 -0.963330209255218506 -0.878058254718780518
-0.925594031810760498 0.714012205600738525 0.980569779872894287
0.203863382339477539 0.163373589515686035 -1
-0.504918158054351807 0.0119278877973556519 1
0.533218681812286377 -0.97593003511428833 0.97719961404800415
0.544585168361663818 0.255073964595794678 1
0.208144217729568481 -0.106384046375751495 -1
0.847528815269470215 -0.828501880168914795 -0.443721234798431396
0.995934963226318359 -0.1918630450963974 0.448237150907516479
0.601402521133422852 0.579224526882171631 -1
0.996329963207244873 0.269838184118270874 0.00486464472487568855
0.720369100570678711 -0.92080456018447876 -0.374139249324798584
0.0921678468585014343 0.650687158107757568 1
-0.392338216304779053 -0.230928480625152588 1
0.603610575199127197 0.96344679594039917 -0.190251067280769348
0.424715131521224976 0.610658228397369385 -1
0.994571805000305176 -0.256204217672348022 -0.819646239280700684
0.89073413610458374 0.773377478122711182 -0.96554875373840332
-0.0186656434088945389 -0.512584090232849121 -1
-0.785497725009918213 0.886369049549102783 -0.522596061229705811
0.62943798303604126 0.423116803169250488 1
0.13506200909614563 0.00399592239409685135 -1
-0.996972858905792236 0.142587393522262573 -0.448740869760513306
0.718660652637481689 -0.925182998180389404 -0.548733949661254883
0.785224497318267822 0.882997393608093262 -0.248758360743522644
0.827736854553222656 0.849630594253540039 0.934684276580810547
0.288301050662994385 -0.204244926571846008 -1
-0.997311890125274658 0.075489923357963562 -0.987618386745452881
0.35460314154624939 0.218646883964538574 1
-0.81475299596786499 -0.863733232021331787 0.195186495780944824
0.253730446100234985 -0.937436282634735107 -1
0.502671360969543457 0.312480151653289795 1
0.317239701747894287 -0.537492692470550537 -1
0.775556683540344238 0.553115904331207275 -1
0.044701799750328064 -0.997686862945556641 -0.143310993909835815
-0.997923612594604492 0.0455869808793067932 0.884547173976898193
-0.550947427749633789 0.974630296230316162 -0.0248460862785577774
0.480860859155654907 0.983481645584106445 0.904320597648620605
0.207618221640586853 -0.884175717830657959 -1
0.911476254463195801 -0.601952970027923584 1
0.132585957646369934 0.422208607196807861 1
-0.998123109340667725 -0.266878634691238403 0.0489619821310043335
-0.681458115577697754 0.267185419797897339 1
-0.955324292182922363 0.630999088287353516 0.048813164234161377
-0.713496804237365723 0.870337247848510742 -1
0.988313674926757812 0.452408552169799805 0.844096660614013672
0.95154041051864624 -0.421458810567855835 -1
0.0966531634330749512 0.0102007407695055008 -1
0.968916356563568115 0.0730411410331726074 -1
-0.954500198364257812 -0.0465231426060199738 1
-0.968548178672790527 0.571249783039093018 -0.477196007966995239
-0.234274476766586304 -0.997410416603088379 0.355131000280380249
0.991724371910095215 0.390598118305206299 -0.0639766454696655273
-0.282545298337936401 -0.99481809139251709 0.400480210781097412
-0.164895027875900269 0.332573592662811279 -1
0.837425351142883301 -0.842026293277740479 -0.0524054989218711853
0.0831620171666145325 -0.446304738521575928 -1
-0.590636253356933594 0.341278910636901855 1
0.923492014408111572 0.717233002185821533 -0.301041573286056519
-0.378327310085296631 -0.772197604179382324 -1
0.298969626426696777 -0.365886002779006958 -1
-0.842229127883911133 -0.0847733765840530396 -1
0.670705020427703857 -0.943997561931610107 0.241119027137756348
0.611167430877685547 0.0828332230448722839 -1
-0.546263456344604492 0.0211729109287261963 -1
0.969233334064483643 -0.578289330005645752 -0.860107481479644775
-0.766401112079620361 -0.307442784309387207 -1
-0.375234514474868774 -0.198444411158561707 -1
-0.396691411733627319 0.77838289737701416 -1
-0.120700143277645111 -0.0218684785068035126 -1
-0.351357221603393555 0.313564777374267578 1
0.177046433091163635 0.146530419588088989 -1
0.302054703235626221 -0.994609951972961426 -0.301338225603103638
-0.284525126218795776 0.0576849095523357391 -1
0.927172958850860596 -0.705483436584472656 -0.366150498390197754
-0.258185654878616333 -0.995078027248382568 -0.819573879241943359
0.458327710628509521 0.654077291488647461 -1
0.0726588815450668335 -0.220014557242393494 -1
-0.104862131178379059 -0.104870453476905823 -1
-0.160641580820083618 0.256428778171539307 -1
-0.434642791748046875 -0.91939234733581543 -1
0.987969100475311279 -0.431966572999954224 -0.702325880527496338
0.910875797271728516 -0.740108013153076172 -0.0768698826432228088
-0.976445257663726807 0.526820063591003418 -0.96612781286239624
0.213864952325820923 -0.995550930500030518 0.799059450626373291
0.668558239936828613 -0.721446752548217773 -1
0.904812157154083252 -0.193306267261505127 -1
0.359675198793411255 0.0766162872314453125 -1
0.97931373119354248 0.522607982158660889 0.688757836818695068
0.416295498609542847 -0.991354525089263916 -0.982025265693664551
-0.0294805224984884262 0.998147428035736084 0.420435905456542969
-0.552177786827087402 -0.286834448575973511 -1
0.720777153968811035 0.544228553771972656 -1
0.246689513325691223 -0.997686862945556641 -0.148196429014205933
-0.914002716541290283 0.733464598655700684 -0.378978163003921509
0.831819474697113037 0.843994379043579102 -0.917720794677734375
-0.983488023281097412 0.503747224807739258 0.399947434663772583
-0.993222534656524658 0.319886624813079834 -0.282268673181533813
0.91548311710357666 0.731398999691009521 -0.790695071220397949
-0.259426295757293701 -0.996348381042480469 0.51756739616394043
-0.803370118141174316 0.162438452243804932 -1
