ply
format ascii 1.0
element vertex 874
property float x
property float y
property float z
end_header
-0.107236877083778381 -0.630291402339935303 -1
-0.15275244414806366 0.74074244499206543 -1
-0.243905350565910339 -0.213042035698890686 1
0.737094759941101074 0.0729492977261543274 1
0.943509757518768311 0.140631020069122314 -0.586999773979187012
0.303442567586898804 0.719898879528045654 1
0.164040923118591309 -0.860578536987304688 -1
0.4552726149559021 0.0329544954001903534 -1
-0.0144871613010764122 0.0942251160740852356 -1
0.660664618015289307 0.52562558650970459 0.0511763915419578552
0.0592093914747238159 -0.806486010551452637 -1
0.134805694222450256 0.424354672431945801 -1
0.492054551839828491 -0.688033938407897949 0.553313195705413818
-0.493188351392745972 0.690446615219116211 0.191179648041725159
-0.0580535978078842163 -0.926069319248199463 -1
0.998533010482788086 0.0044530332088470459 0.870785355567932129
-0.0695952996611595154 -0.975304365158081055 0.841131746768951416
-0.283569782972335815 -0.335730910301208496 -1
-0.94849848747253418 -0.127173840999603271 -0.822898626327514648
-0.435948103666305542 0.73658454418182373 -0.764261484146118164
0.188674136996269226 0.743769407272338867 -1
0.283945083618164062 0.709167599678039551 1
0.234782382845878601 -0.46564057469367981 -1
0.891438841819763184 0.231218293309211731 -0.391847550868988037
-0.288194477558135986 -0.164066687226295471 -1
0.558578550815582275 0.626638889312744141 0.127688169479370117
0.745833754539489746 0.426902443170547485 0.188999637961387634
0.19881729781627655 -0.107471562922000885 -1
-0.982611000537872314 -0.0512352101504802704 0.867473900318145752
-0.255626827478408813 0.872410595417022705 -0.984198927879333496
0.0514594689011573792 0.983394622802734375 -0.367661803960800171
-0.126738116145133972 -0.356069833040237427 1
-0.0416233688592910767 -0.138139382004737854 1
-0.00248493137769401073 0.476981788873672485 -1
-0.95482558012008667 -0.114032194018363953 -0.864902257919311523
-0.782374680042266846 -0.245010688900947571 -1
0.566529452800750732 -0.0368564203381538391 -1
0.626841604709625244 0.152937918901443481 -1
0.475810408592224121 0.702130973339080811 0.211743801832199097
0.286263465881347656 0.391501575708389282 -1
0.231784731149673462 0.887616276741027832 0.359905540943145752
0.0525385364890098572 0.146992787718772888 -1
0.187799528241157532 -0.915668606758117676 0.797194778919219971
0.688854336738586426 -0.492697060108184814 0.877368390560150146
0.319790840148925781 -0.526466846466064453 -1
0.92518913745880127 -0.170745253562927246 0.18778286874294281
-0.0524658113718032837 0.0278889406472444534 -1
0.989392101764678955 0.0344162508845329285 0.504650354385375977
-0.496405094861984253 -0.687280893325805664 0.0669623091816902161
0.535020828247070312 -0.649277389049530029 -0.111498087644577026
0.0507209748029708862 -0.983724057674407959 -0.626830875873565674
0.283218681812286377 -0.373655587434768677 -1
-0.421567708253860474 -0.276706278324127197 -1
-0.464851796627044678 -0.461697518825531006 -1
-0.520569980144500732 0.577550053596496582 1
0.767161190509796143 0.398996025323867798 0.395691156387329102
0.583300530910491943 -0.601763069629669189 -0.0775583609938621521
-0.968514382839202881 -0.085599750280380249 -0.27796974778175354
-0.708007454872131348 -0.469778656959533691 0.0750902891159057617
0.1213269904255867 0.022189626470208168 -1
0.120352163910865784 0.0672095268964767456 -1
-0.49422869086265564 0.0937585905194282532 -1
-0.0795755684375762939 -0.0805716291069984436 1
-0.0654848888516426086 -0.196944743394851685 1
-0.300274699926376343 0.842295408248901367 0.695135235786437988
-0.584085047245025635 -0.60099107027053833 0.456604123115539551
-0.335493683815002441 0.815835714340209961 -0.815064728260040283
0.522439360618591309 0.661828875541687012 0.613135874271392822
0.301473259925842285 -0.377377539873123169 -1
-0.993614017963409424 0.00601782882586121559 0.192308574914932251
-0.366532415151596069 0.795446276664733887 -0.850674092769622803
0.428770542144775391 -0.123456671833992004 1
-0.912158548831939697 -0.19216407835483551 -0.0631780996918678284
0.42948576807975769 -0.742034912109375 0.205136701464653015
0.0710340440273284912 0.975145041942596436 -0.195528939366340637
-0.53954005241394043 -0.191652610898017883 -1
-0.29124218225479126 -0.847777843475341797 0.548252522945404053
0.233286023139953613 -0.0357002392411231995 -1
0.0451681800186634064 -0.0579043105244636536 1
-0.634991824626922607 0.391457408666610718 -1
-0.314866721630096436 -0.811665594577789307 -1
-0.754455924034118652 -0.414198994636535645 -0.27322155237197876
0.244650170207023621 0.614905297756195068 -1
-0.820482790470123291 -0.330339759588241577 -0.97500532865524292
0.053092610090970993 0.0099147353321313858 -1
-0.515450179576873779 0.667869746685028076 0.719734489917755127
0.266210317611694336 0.867887675762176514 0.584941446781158447
0.162863284349441528 -0.929150164127349854 0.443788796663284302
0.264710664749145508 0.242403268814086914 -1
0.0485863201320171356 -0.705410659313201904 1
0.98578566312789917 0.0431478284299373627 -0.250518739223480225
0.322273135185241699 -0.514817893505096436 1
0.396197885274887085 0.353886514902114868 -1
0.878359973430633545 0.000573309429455548525 -1
0.563316047191619873 -0.621430754661560059 0.34484177827835083
0.375047147274017334 0.786119580268859863 0.867699146270751953
0.592766702175140381 -0.593368232250213623 -0.842526435852050781
0.105229213833808899 0.423043042421340942 -1
-0.325592964887619019 -0.0135156577453017235 -1
0.526052176952362061 -0.601689159870147705 1
0.604989469051361084 0.462374687194824219 -1
-0.579691290855407715 -0.607153892517089844 -0.00178561639040708542
-0.274857252836227417 -0.165889114141464233 1
0.575373530387878418 0.611138761043548584 -0.0731371417641639709
-0.934290587902069092 -0.155784830451011658 0.247661203145980835
-0.604943156242370605 -0.422102421522140503 -1
0.0317575894296169281 0.992183446884155273 -0.483679264783859253
0.153955191373825073 -0.33587568998336792 -1
0.0691575109958648682 0.903649330139160156 -1
0.213951051235198975 0.612698912620544434 1
-0.0541455857455730438 0.0602908097207546234 -1
0.725572526454925537 0.449582785367965698 -0.0674572288990020752
0.87425607442855835 -0.254465699195861816 -0.16879822313785553
-0.334187954664230347 0.369041472673416138 1
0.172266840934753418 0.395986765623092651 1
0.830445706844329834 0.317555427551269531 0.709500312805175781
0.301921963691711426 0.239690616726875305 -1
-0.0291725452989339828 -0.344301402568817139 -1
-0.229083538055419922 -0.25310710072517395 1
-0.248708784580230713 -0.270575612783432007 -1
-0.116742990911006927 0.0127860894426703453 1
0.129169225692749023 0.00253346189856529236 -1
0.708102226257324219 0.472360491752624512 -0.482289701700210571
0.0776584148406982422 0.118050076067447662 -1
-0.663807570934295654 0.518833577632904053 -0.904738068580627441
-0.181069433689117432 0.0210301559418439865 -1
0.800971388816833496 0.358539074659347534 0.811778545379638672
-0.625992238521575928 0.558508634567260742 -0.0758305341005325317
0.22332918643951416 -0.894981741905212402 -0.186861425638198853
-0.193800181150436401 0.448885202407836914 -1
0.886158406734466553 0.238519266247749329 -0.11601720005273819
0.475329011678695679 -0.123555630445480347 -1
-0.630555093288421631 0.204529702663421631 1
0.0583761967718601227 0.458471029996871948 -1
-0.392245858907699585 0.164719521999359131 1
0.589556455612182617 -0.596736311912536621 -0.712066948413848877
0.245618343353271484 0.651749610900878906 1
-0.828792214393615723 -0.116642430424690247 -1
-0.663602769374847412 0.500948011875152588 -1
0.211827173829078674 -0.392959833145141602 1
-0.669234871864318848 0.516173481941223145 -0.819936394691467285
-0.138329595327377319 -0.293413698673248291 -1
-0.0480967201292514801 -0.0251934025436639786 -1
0.0619884692132472992 0.0409194901585578918 -1
0.364469349384307861 -0.794529855251312256 -0.0257104933261871338
-0.0723600089550018311 -0.976405024528503418 0.878174543380737305
-0.0385615825653076172 -0.0635972321033477783 -1
0.174339443445205688 -0.168640971183776855 1
0.724424600601196289 -0.45360073447227478 0.15001930296421051
0.074492529034614563 0.0744338780641555786 -1
0.0287982970476150513 -0.335576146841049194 1
-0.0978615731000900269 0.859233677387237549 -1
0.155448749661445618 0.933609902858734131 0.66153031587600708
0.115466751158237457 0.0212636310607194901 1
-0.261189103126525879 0.0407769158482551575 1
0.117493167519569397 -0.0356694795191287994 1
0.942585647106170654 0.139455169439315796 -0.0157038886100053787
0.263206601142883301 -0.271267354488372803 -1
0.0314136222004890442 -0.992336869239807129 -0.00991928949952125549
-0.0105691133067011833 0.329755812883377075 1
-0.66605687141418457 -0.516473650932312012 0.500862181186676025
0.21303384006023407 -0.563016295433044434 1
0.167096570134162903 -0.689213275909423828 -1
-0.87642824649810791 -0.250895202159881592 0.070998363196849823
0.404574424028396606 0.567336857318878174 -1
0.128836691379547119 0.948877334594726562 0.579626381397247314
0.384500503540039062 0.778356492519378662 -0.214892402291297913
-0.109647408127784729 -0.336098819971084595 -1
0.207155048847198486 0.906223833560943604 -0.0565760992467403412
-0.765249192714691162 -0.401214957237243652 0.0780690982937812805
0.376798480749130249 0.394418150186538696 -1
-0.0104413814842700958 0.49609750509262085 1
-0.342787176370620728 0.354243755340576172 -1
-0.280666232109069824 -0.855128824710845947 0.468956232070922852
-0.469309478998184204 -0.707749843597412109 0.77318042516708374
-0.714638650417327881 0.315466791391372681 -1
0.300102204084396362 0.0293810702860355377 -1
-0.131478220224380493 -0.94769895076751709 0.555878877639770508
0.359512656927108765 -0.0673200339078903198 -1
0.329186916351318359 -0.798888266086578369 -1
-0.0155113264918327332 0.098941020667552948 1
0.918067455291748047 0.182986274361610413 0.477289825677871704
-0.388862282037734985 0.285415858030319214 -1
0.0541186109185218811 -0.983386337757110596 0.0198933295905590057
0.123799636960029602 0.0539496466517448425 -1
-0.546714127063751221 -0.640847861766815186 -0.0502123422920703888
0.18258221447467804 -0.919634699821472168 -0.897192776203155518
-0.415365725755691528 -0.668042123317718506 1
0.910063683986663818 0.195607468485832214 -0.286841779947280884
0.316202431917190552 0.329955577850341797 1
0.583990037441253662 0.603186607360839844 0.475517392158508301
-0.0806336700916290283 0.523180663585662842 -1
-0.831649363040924072 0.31388622522354126 0.460698485374450684
0.0289519224315881729 -0.0129474401473999023 1
-0.141366004943847656 -0.941581130027770996 0.209700793027877808
0.473097383975982666 -0.706822454929351807 0.751568436622619629
-0.548471808433532715 0.204300031065940857 -1
0.534161806106567383 -0.404551118612289429 1
-0.210747838020324707 0.191646575927734375 -1
-0.0203456878662109375 0.0325444303452968597 1
0.585721075534820557 -0.599380910396575928 0.413349121809005737
-0.55023491382598877 0.634339213371276855 0.38884282112121582
0.74367368221282959 -0.428900480270385742 -0.749317944049835205
0.695310711860656738 0.483457684516906738 -0.44408726692199707
-0.138994142413139343 -0.148937016725540161 1
0.187535807490348816 0.616615831851959229 -1
-0.109040670096874237 0.960273444652557373 0.51848447322845459
0.26989176869392395 -0.357556432485580444 -1
-0.732810378074645996 0.441480726003646851 0.513314545154571533
-0.666917800903320312 -0.518946051597595215 0.982322514057159424
0.0464711934328079224 0.00417840620502829552 -1
-0.0226547177881002426 0.991714298725128174 0.127764225006103516
0.402174592018127441 -0.764086246490478516 -0.613220095634460449
-0.457784026861190796 0.681983768939971924 -1
-0.0594631917774677277 -0.0462583638727664948 1
0.37306174635887146 0.787611186504364014 0.82374495267868042
0.94886481761932373 -0.131828740239143372 0.905611157417297363
-0.137855440378189087 0.213683217763900757 1
-0.130391746759414673 -0.00962525699287652969 -1
0.71910780668258667 -0.127952888607978821 -1
0.591016113758087158 -0.594169855117797852 -0.0171416047960519791
-0.165753647685050964 -0.0874691009521484375 -1
0.403226137161254883 -0.763237237930297852 0.131269395351409912
0.384922564029693604 -0.504049062728881836 -1
0.473420828580856323 0.704196333885192871 0.231053948402404785
-0.894900023937225342 -0.221385776996612549 0.517336368560791016
0.137360736727714539 -0.0837424397468566895 1
-0.0478133633732795715 -0.985021114349365234 -0.104189194738864899
-0.665236294269561768 -0.0444257073104381561 1
0.663941323757171631 -0.518693208694458008 -0.244157478213310242
0.00885063502937555313 0.558337926864624023 -1
-0.80053180456161499 -0.109062187373638153 -1
-0.553610742092132568 -0.255643755197525024 -1
0.277068108320236206 -0.736156642436981201 -1
0.129664689302444458 0.153509855270385742 1
0.328158915042877197 -0.821346282958984375 -0.0676379799842834473
-0.40643802285194397 0.760643899440765381 0.5117606520652771
-0.129782617092132568 -0.000391683948691934347 -1
-0.96441495418548584 -0.098291344940662384 -0.755331575870513916
0.530311763286590576 -0.65502464771270752 0.18805357813835144
0.763389348983764648 0.407250761985778809 -0.723268866539001465
-0.0883340984582901001 -0.178932905197143555 1
-0.905771434307098389 -0.205455929040908813 -0.778554081916809082
-0.581871926784515381 0.488772749900817871 -1
0.616419434547424316 0.0688925683498382568 -1
-0.287655174732208252 0.850271046161651611 -0.0666507631540298462
-0.0456161759793758392 0.98563683032989502 0.521185338497161865
-0.411068260669708252 0.375054121017456055 1
-0.894632518291473389 -0.220972195267677307 0.55199897289276123
-0.209424763917922974 0.296102911233901978 1
0.0495856292545795441 -0.618074715137481689 -1
-0.152210414409637451 -0.540238499641418457 -1
-0.875785231590270996 0.252861768007278442 -0.0278983078896999359
0.409849613904953003 -0.258541971445083618 -1
0.88689345121383667 0.233396559953689575 -0.941230416297912598
0.185456901788711548 0.315545499324798584 -1
-0.597302496433258057 0.5909004807472229 -0.378111362457275391
-0.643606364727020264 0.54241335391998291 -0.816694378852844238
0.482227712869644165 -0.549846172332763672 -1
-0.308298081159591675 0.835922896862030029 -0.456338793039321899
0.1151776984333992 0.917288362979888916 -1
0.0248492900282144547 -0.941514015197753906 1
0.0899647623300552368 -0.475131720304489136 1
-0.367649197578430176 -0.791677594184875488 0.77708512544631958
-0.624744832515716553 -0.170933201909065247 -1
-0.293010473251342773 -0.848568499088287354 -0.980438411235809326
-0.502147197723388672 0.379134863615036011 -1
-0.700962960720062256 0.479850888252258301 0.727531552314758301
-0.257157504558563232 -0.082079671323299408 -1
-0.237739846110343933 -0.0828648209571838379 1
-0.16177600622177124 0.018939431756734848 -1
0.994600653648376465 0.0218929070979356766 0.7039756178855896
-0.991220653057098389 0.0301646869629621506 -0.545316100120544434
0.744963705539703369 -0.427245110273361206 0.0815164446830749512
0.882448673248291016 -0.240999206900596619 -0.552333950996398926
-0.0504468008875846863 -0.535184085369110107 1
-0.700346589088439941 -0.480497568845748901 -0.581064045429229736
0.216819360852241516 0.217454954981803894 -1
-0.238313928246498108 -0.551613211631774902 1
-0.0108514102175831795 0.410485953092575073 1
-0.740587592124938965 0.430793672800064087 -0.0814703777432441711
0.245664104819297791 -0.879457533359527588 -0.143350183963775635
-0.459991723299026489 -0.334436267614364624 -1
-0.0169906727969646454 0.114177212119102478 1
-0.0324055589735507965 -0.115334756672382355 -1
-0.94441753625869751 0.134834408760070801 -0.725347340106964111
-0.166863441467285156 -0.927730679512023926 -0.0625561773777008057
0.959143877029418945 -0.108666315674781799 0.827781796455383301
-0.651959836483001709 -0.429633915424346924 -1
-0.328303694725036621 -0.821237504482269287 0.797750532627105713
0.346739053726196289 -0.292647451162338257 -1
0.0193962641060352325 0.291426360607147217 -1
0.959132671356201172 0.108693622052669525 -0.171692416071891785
-0.873100757598876953 0.25657343864440918 0.730768561363220215
-0.139875113964080811 -0.120865777134895325 -1
0.265442192554473877 0.0770733952522277832 1
0.00703416625037789345 0.0997112169861793518 -1
-0.593735814094543457 -0.592351436614990234 -0.202040210366249084
0.187984362244606018 0.0230527482926845551 1
-0.0247081518173217773 -0.60587310791015625 -1
0.0287760011851787567 -0.0733177885413169861 -1
-0.333162516355514526 0.344554692506790161 -1
0.767037689685821533 0.398919999599456787 -0.982681810855865479
-0.307667076587677002 0.839221000671386719 -0.321251451969146729
-0.185540452599525452 -0.0134506076574325562 1
0.260338664054870605 -0.204985812306404114 -1
0.303564727306365967 0.839212894439697266 0.986099779605865479
0.131737932562828064 0.241025254130363464 -1
-0.564850389957427979 0.619920730590820312 0.957351982593536377
0.026382720097899437 -0.0233950596302747726 -1
0.424038916826248169 -0.000251806050073355436 -1
0.395372062921524048 -0.176182582974433899 1
-0.0263956524431705475 -0.375313937664031982 -1
-0.0540381632745265961 0.135787203907966614 -1
0.765654027462005615 -0.400799453258514404 0.24552619457244873
0.506073534488677979 -0.383891850709915161 -1
-0.165374487638473511 0.105842329561710358 -1
-0.444383293390274048 -0.0445713624358177185 -1
-0.0892183557152748108 0.073904670774936676 -1
-0.770111322402954102 -0.119039379060268402 -1
-0.277032405138015747 0.217591822147369385 1
0.00436292774975299835 0.307202547788619995 -1
-0.275423318147659302 0.858772993087768555 0.0551263466477394104
-0.958403348922729492 -0.110478535294532776 -0.196639388799667358
-0.26714015007019043 -0.629339873790740967 -1
0.0379177108407020569 -0.073280826210975647 1
0.557197809219360352 0.627913177013397217 0.948537588119506836
-0.174794360995292664 0.923962831497192383 0.896396100521087646
0.0754648596048355103 -0.972686052322387695 -0.958176255226135254
0.744992554187774658 -0.427208125591278076 -0.877622485160827637
0.583032131195068359 -0.602027237415313721 0.154475688934326172
-0.0829808935523033142 -0.969333171844482422 -0.653474569320678711
0.00627333996817469597 0.243398815393447876 -1
0.178003713488578796 0.921916067600250244 0.111100956797599792
0.289327085018157959 -0.525673508644104004 -1
-0.105093330144882202 -0.0632742345333099365 -1
0.204920396208763123 -0.109171055257320404 -1
0.96532905101776123 -0.0922159254550933838 -0.954433739185333252
-0.158802583813667297 -0.931498289108276367 -0.0287714023143053055
0.441243141889572144 0.174359977245330811 -1
-0.564546287059783936 -0.325672626495361328 -1
0.572193801403045654 0.614952921867370605 -0.698052346706390381
-0.258186310529708862 0.139261543750762939 -1
-0.0531308837234973907 0.982649028301239014 0.785313963890075684
-0.416237682104110718 0.144709795713424683 1
-0.436831027269363403 0.735821425914764404 -0.461176395416259766
-0.693548321723937988 -0.487630188465118408 0.27443203330039978
0.317782551050186157 -0.800121128559112549 1
0.114089086651802063 -0.0126777403056621552 -1
-0.657756507396697998 0.34354555606842041 1
0.264794588088989258 -0.233240127563476562 -1
-0.346210747957229614 0.797275722026824951 -1
0.302120417356491089 0.598984301090240479 -1
0.799490571022033691 0.194920063018798828 -1
0.681913316249847412 -0.501002609729766846 0.575559377670288086
0.10227193683385849 0.671407163143157959 -1
0.157774493098258972 0.932412028312683105 0.432923257350921631
-0.0507318079471588135 0.292008548974990845 -1
-0.717617630958557129 0.100482776761054993 -1
0.281954258680343628 0.157206818461418152 -1
-0.463751345872879028 -0.714155018329620361 0.501562893390655518
-0.778114080429077148 -0.173212096095085144 1
-0.937038421630859375 0.148319005966186523 -0.0911702141165733337
-0.431111156940460205 0.740722537040710449 0.65217137336730957
-0.654421091079711914 0.528681635856628418 -0.810780167579650879
0.802781403064727783 0.269269764423370361 1
-0.957290291786193848 0.111310958862304688 0.30025017261505127
0.132387101650238037 0.771032214164733887 -1
-0.281945586204528809 0.854239583015441895 0.967491388320922852
-0.249432101845741272 0.0742577686905860901 -1
-0.291911840438842773 0.83050006628036499 -1
0.601319253444671631 -0.584395051002502441 -0.0993402823805809021
-0.158908471465110779 0.931827962398529053 0.326348185539245605
0.141083419322967529 0.941744506359100342 -0.639019906520843506
-0.0528449863195419312 0.0589933916926383972 -1
0.123179569840431213 0.950230240821838379 -0.866836845874786377
0.664352536201477051 -0.5181121826171875 -0.710411965847015381
0.068116992712020874 0.219923511147499084 -1
-0.0765832364559173584 0.232467025518417358 -1
0.345576316118240356 0.148435071110725403 1
-0.104176953434944153 -0.0243339315056800842 -1
0.0538430102169513702 0.0476904548704624176 -1
0.0175213944166898727 -0.119186572730541229 -1
-0.222038984298706055 -0.521620512008666992 1
0.931167304515838623 0.159047737717628479 0.252820461988449097
-0.674425721168518066 0.509962201118469238 0.531017184257507324
-0.0574945844709873199 -0.924409687519073486 -1
0.574658215045928955 -0.61236727237701416 0.165412828326225281
0.0929912403225898743 0.965778827667236328 -0.5612030029296875
0.132979393005371094 0.200661554932594299 -1
0.973359286785125732 -0.0755366533994674683 0.283973425626754761
-0.710050463676452637 0.0670957863330841064 -1
0.021776244044303894 0.0280495192855596542 -1
0.265694886445999146 -0.0506584011018276215 -1
0.326762467622756958 -0.823089003562927246 -0.276921898126602173
0.248311489820480347 -0.245699882507324219 -1
-0.484577476978302002 -0.697553277015686035 0.0650294944643974304
0.32805362343788147 0.66589587926864624 -1
-0.942077457904815674 -0.139110654592514038 0.594527244567871094
0.193207040429115295 0.912219882011413574 0.994207799434661865
-0.848037123680114746 0.294982314109802246 0.430888146162033081
0.961835205554962158 0.0994727909564971924 -0.142850220203399658
0.960049808025360107 -0.106449119746685028 0.280087321996688843
0.0832944661378860474 0.0532106049358844757 -1
-0.209234893321990967 0.531580924987792969 -1
0.106594324111938477 0.961688101291656494 0.183008089661598206
-0.731607615947723389 0.000966061197686940432 1
0.88308870792388916 0.242763593792915344 0.169379785656929016
-0.122355088591575623 -0.24190831184387207 -1
0.268681585788726807 0.866030991077423096 0.730646729469299316
-0.84298938512802124 -0.29925769567489624 -0.885872244834899902
0.0442571155726909637 -0.488076597452163696 -1
-0.587814271450042725 0.457410961389541626 -1
0.152964755892753601 0.0378654487431049347 -1
-0.0468194372951984406 -0.984076619148254395 0.846798598766326904
-0.582595884799957275 0.604039251804351807 0.994621455669403076
-0.383129000663757324 0.780047714710235596 0.494573146104812622
0.559509217739105225 -0.277481377124786377 -1
-0.370940119028091431 -0.78920513391494751 0.505913972854614258
-0.856409907341003418 0.279651075601577759 0.854114234447479248
0.436597824096679688 0.620549261569976807 -1
0.461469441652297974 -0.716261029243469238 0.154991194605827332
0.116169340908527374 0.0555870011448860168 -1
-0.106006942689418793 0.355209767818450928 -1
-0.842264354228973389 -0.220803186297416687 -1
-0.989375710487365723 -0.0345267355442047119 -0.655652284622192383
0.551713883876800537 -0.612423717975616455 1
-0.0470174103975296021 -0.985376179218292236 -0.856796920299530029
0.563128232955932617 0.621615588665008545 -0.920373618602752686
0.900091171264648438 0.211999610066413879 -0.896535038948059082
-0.550360143184661865 -0.00367429060861468315 1
-0.750749349594116211 0.312338501214981079 -1
0.121525891125202179 -0.316823393106460571 -1
-0.11659182608127594 -0.258760541677474976 -1
0.102212518453598022 0.1063232421875 -1
-0.0329375527799129486 0.147373020648956299 -1
-0.149816632270812988 0.936510741710662842 -0.447364360094070435
-0.0184112545102834702 -0.784263432025909424 1
0.61370849609375 0.571396470069885254 0.773448646068572998
0.617276012897491455 -0.570809364318847656 0.257774889469146729
-0.210305973887443542 -0.298562765121459961 -1
-0.159957170486450195 -0.933425545692443848 -0.971087038516998291
0.184872448444366455 0.918455123901367188 0.763127565383911133
-0.839918911457061768 0.303863763809204102 -0.958645105361938477
0.840988218784332275 0.302259653806686401 0.899816453456878662
-0.926496028900146484 -0.168597087264060974 0.273418903350830078
0.413909435272216797 0.755632877349853516 -0.385136514902114868
0.554087817668914795 -0.630783379077911377 -0.0345206297934055328
-0.745537042617797852 0.427234560251235962 0.179151386022567749
-0.398225843906402588 0.499349683523178101 -1
0.185693681240081787 0.0563437305390834808 -1
0.719176173210144043 0.456414282321929932 -0.231076091527938843
-0.245831713080406189 -0.202563554048538208 -1
-0.210718408226966858 -0.315827786922454834 -1
-0.359991788864135742 -0.798145055770874023 -0.385999113321304321
-0.105527438223361969 -0.157770439982414246 -1
0.767898797988891602 -0.397815048694610596 0.903617441654205322
-0.490677744150161743 0.339848935604095459 -1
0.130707740783691406 0.74786454439163208 -1
-0.244645535945892334 0.298028886318206787 1
-0.722403645515441895 0.456194013357162476 0.921702265739440918
0.450448125600814819 0.724051952362060547 -0.276794880628585815
-0.0667382478713989258 -0.97672957181930542 0.434380471706390381
0.306673586368560791 -0.837487995624542236 -0.369610488414764404
0.301807641983032227 0.0200969651341438293 -1
0.00273442268371582031 0.256157219409942627 1
-0.884008944034576416 -0.241491228342056274 0.55777055025100708
-0.14465978741645813 -0.324592471122741699 -1
-0.838431894779205322 -0.307307600975036621 -0.611661732196807861
0.0633685365319252014 -0.193962588906288147 -1
0.757199943065643311 0.414179205894470215 -0.818057775497436523
-0.0631585270166397095 -0.196387931704521179 1
-0.0350663475692272186 0.10750637948513031 -1
0.208100348711013794 0.905566811561584473 -0.295407801866531372
0.416684955358505249 0.753233969211578369 -0.636496484279632568
-0.215124264359474182 0.900684714317321777 0.127699971199035645
-0.236796587705612183 0.885621070861816406 0.973307609558105469
-0.603759765625 0.401112645864486694 -1
-0.0922943651676177979 -0.96613776683807373 -0.357494115829467773
0.263328075408935547 0.867498993873596191 -0.686656296253204346
-0.98991703987121582 0.0333550646901130676 0.360705524682998657
-0.248682856559753418 0.113961562514305115 1
0.0395068526268005371 -0.115501932799816132 -1
0.152558282017707825 0.0615770593285560608 -1
0.533911705017089844 0.649403929710388184 0.819350361824035645
0.0416926741600036621 -0.582520425319671631 -1
-0.137655153870582581 0.0174261908978223801 -1
0.0263663623481988907 -0.0371475778520107269 -1
-0.0589941851794719696 -0.0581416040658950806 1
-0.460562676191329956 -0.317550688982009888 -1
0.433747529983520508 -0.157450258731842041 1
-0.317103654146194458 0.0494781509041786194 -1
0.721966445446014404 0.379407644271850586 -1
-0.94275897741317749 -0.139095202088356018 -0.771794617176055908
0.37976035475730896 0.785148441791534424 0.46977117657661438
0.501816749572753906 0.679653346538543701 0.396248579025268555
0.889668405055999756 -0.229233831167221069 0.628055334091186523
-0.890619337558746338 -0.227568864822387695 0.489851027727127075
-0.113015972077846527 0.955934822559356689 -0.865569889545440674
0.328797638416290283 0.0211591795086860657 -1
-0.578212320804595947 0.608638405799865723 0.441976487636566162
-0.00382889923639595509 -0.0519480369985103607 -1
0.0675877705216407776 0.00897739734500646591 1
-0.989386916160583496 0.0322160609066486359 -0.193083226680755615
0.262565910816192627 -0.337789773941040039 1
0.340122848749160767 -0.814187467098236084 -0.338597863912582397
-0.44377821683883667 0.729816854000091553 -0.0736815258860588074
0.339875698089599609 0.814387023448944092 -0.6739654541015625
0.679527938365936279 0.218940317630767822 -1
-0.505031228065490723 -0.678791522979736328 0.296281754970550537
-0.894751965999603271 0.225592777132987976 0.345017910003662109
-0.218904167413711548 0.510486900806427002 -1
0.194616079330444336 0.910788893699645996 0.129334107041358948
0.952138960361480713 0.125809341669082642 0.893907666206359863
-0.141232550144195557 0.277893900871276855 1
-0.0649625882506370544 0.113478988409042358 1
0.000697040872182697058 0.108853794634342194 1
-0.913161039352416992 0.041886255145072937 1
0.910483717918395996 -0.198008447885513306 0.465219050645828247
-0.70860058069229126 0.240983560681343079 -1
-0.570376694202423096 -0.473266869783401489 1
0.0621330328285694122 0.981265068054199219 0.214329734444618225
0.397968500852584839 -0.0223792940378189087 -1
0.129768326878547668 -0.0113017437979578972 1
0.600423634052276611 -0.585334718227386475 -0.789355158805847168
0.700715780258178711 -0.378100395202636719 -1
0.750860452651977539 0.418501317501068115 0.384080678224563599
0.128411009907722473 0.945413827896118164 -1
-0.208032712340354919 -0.364576756954193115 1
0.885331630706787109 0.239662408828735352 0.567373096942901611
-0.288055390119552612 -0.0411078929901123047 1
-0.292557865381240845 0.84885716438293457 0.555273234844207764
-0.957463264465332031 0.110994845628738403 -0.43959537148475647
-0.491683393716812134 -0.688376486301422119 0.207034334540367126
-0.0773937702178955078 0.381950080394744873 -1
-0.963570356369018555 -0.0958687961101531982 0.180340781807899475
-0.309651285409927368 -0.8379555344581604 0.14665493369102478
0.282182425260543823 -0.855887949466705322 0.891115844249725342
0.321343034505844116 -0.826466977596282959 0.697676956653594971
-0.380028039216995239 -0.00257867318578064442 -1
-0.206293791532516479 -0.000889623071998357773 1
-0.848522067070007324 -0.294360041618347168 -0.551468610763549805
0.0239602793008089066 -0.0609299167990684509 -1
0.0609315149486064911 0.060526430606842041 -1
0.190825149416923523 -0.915389120578765869 -0.224531233310699463
-0.0112942652776837349 0.0815591886639595032 -1
0.420194864273071289 -0.282134413719177246 -1
0.0414996668696403503 0.0821102485060691833 1
0.96758425235748291 0.088010050356388092 -0.302751421928405762
0.0562813878059387207 -0.0055894763208925724 -1
-0.0380664542317390442 -0.0810146257281303406 -1
0.856542706489562988 0.279467493295669556 0.466956555843353271
-0.743376255035400391 -0.180150792002677917 -1
0.436394572257995605 -0.0911982357501983643 -1
-0.105323761701583862 -0.219559758901596069 1
-0.952165186405181885 0.119557946920394897 -0.0170675050467252731
-0.776905834674835205 -0.386257320642471313 -0.44986039400100708
0.438901305198669434 -0.734032034873962402 0.314127951860427856
-0.36210399866104126 -0.796439647674560547 0.576634109020233154
-0.453836709260940552 -0.721123158931732178 0.794915437698364258
0.870079755783081055 -0.260750412940979004 -0.0184113737195730209
-0.103857658803462982 0.278060495853424072 -1
-0.396022647619247437 0.769053399562835693 -0.517232418060302734
0.83553922176361084 -0.308507978916168213 -0.646263599395751953
0.0639088302850723267 -0.977841079235076904 -0.7948189377784729
-0.833364486694335938 -0.313810080289840698 -0.0705680474638938904
0.879190027713775635 -0.246355593204498291 0.962816298007965088
0.30397266149520874 -0.67922675609588623 1
0.785267770290374756 0.378015816211700439 -0.0493171513080596924
0.0318258330225944519 0.131974339485168457 1
0.740289628505706787 0.433242827653884888 -0.489057600498199463
0.525017797946929932 0.659600317478179932 0.753471434116363525
0.30830034613609314 -0.838817119598388672 -0.987749457359313965
-0.250808596611022949 0.875483512878417969 0.976983487606048584
0.0590873062610626221 -0.661363601684570312 1
0.0265396721661090851 -0.993076682090759277 0.21632210910320282
-0.632926702499389648 -0.490795373916625977 -1
-0.150753453373908997 0.173081532120704651 -1
0.560327529907226562 0.624371886253356934 -0.767884433269500732
0.551798880100250244 0.115637116134166718 1
-0.785893559455871582 0.376581043004989624 -0.000414047535741701722
0.990801215171813965 -0.0249381996691226959 0.834497511386871338
-0.676333308219909668 0.120395071804523468 1
0.805387675762176514 -0.353254616260528564 -0.877135753631591797
-0.440888524055480957 0.732314467430114746 0.679030299186706543
0.781347095966339111 0.383436739444732666 0.0659227296710014343
-0.261461496353149414 -0.520208656787872314 -1
0.247344970703125 0.338083714246749878 1
0.642840206623077393 0.274094074964523315 1
0.561033129692077637 -0.130128085613250732 -1
-0.226420372724533081 -0.892833173274993896 -0.389228999614715576
-0.276369035243988037 -0.858115673065185547 0.683081567287445068
0.51966327428817749 0.217051252722740173 1
0.362879902124404907 0.795260727405548096 -0.517489731311798096
0.565726876258850098 -0.144735440611839294 -1
0.645935714244842529 -0.540120959281921387 0.812530338764190674
-0.22981320321559906 0.890435934066772461 0.0108977146446704865
0.591206490993499756 -0.251472324132919312 -1
-0.083526909351348877 0.970537066459655762 0.981496751308441162
-0.67335045337677002 0.0908115431666374207 -1
-0.57442772388458252 -0.295300185680389404 1
-0.209678858518600464 -0.902078747749328613 -0.428447455167770386
-0.374435722827911377 0.471108287572860718 -1
-0.255974829196929932 0.872290968894958496 0.521337270736694336
-0.8266715407371521 -0.111073024570941925 1
0.766933083534240723 0.403283923864364624 -0.935172915458679199
-0.159105613827705383 0.105287328362464905 -1
-0.368465185165405273 0.125933617353439331 -1
0.661630451679229736 0.521117746829986572 -0.120593622326850891
-0.36487850546836853 -0.794199466705322266 0.977490007877349854
-0.427555382251739502 -0.743593513965606689 0.896080434322357178
0.309169620275497437 -0.403398424386978149 -1
-0.572008967399597168 0.139413937926292419 -1
-0.565729856491088867 0.621734738349914551 0.960878670215606689
0.661186575889587402 0.010988268069922924 -1
-0.244430601596832275 -0.880314886569976807 -0.735976457595825195
0.294845163822174072 0.211118996143341064 -1
0.295702368021011353 0.379123210906982422 1
-0.0940886735916137695 0.498030304908752441 1
0.121782898902893066 -0.0113106993958353996 1
-0.913187384605407715 -0.191904127597808838 0.546367168426513672
0.800261497497558594 -0.356287479400634766 -0.435436785221099854
-0.714863717555999756 0.461570173501968384 -0.0805110186338424683
0.047263655811548233 -0.0553320348262786865 -1
-0.653449475765228271 0.529701113700866699 -0.206040441989898682
-0.359584152698516846 0.469079375267028809 -1
-0.958570301532745361 0.10897180438041687 0.568849086761474609
0.353271126747131348 0.804663777351379395 0.723893284797668457
0.0889136567711830139 -0.0377647951245307922 -1
0.992241919040679932 0.0276654455810785294 -0.105188719928264618
0.0466628819704055786 -0.335437208414077759 -1
0.749907076358795166 -0.422342777252197266 0.420673578977584839
0.024610474705696106 -0.992268383502960205 -0.585092902183532715
-0.181067243218421936 -0.0357540734112262726 1
-0.719984352588653564 0.455838173627853394 0.344587087631225586
0.184572264552116394 0.265820771455764771 -1
0.000538255495484918356 0.0709145665168762207 -1
0.395780026912689209 -0.770543158054351807 0.994060873985290527
0.0510673560202121735 0.982509791851043701 -0.0608085915446281433
-0.668262004852294922 0.514160037040710449 -0.743631541728973389
0.954924345016479492 0.113827042281627655 0.964739859104156494
-0.891822457313537598 -0.226002424955368042 -0.982092320919036865
-0.545369088649749756 -0.531608641147613525 -1
0.753820955753326416 -0.415879577398300171 0.532411634922027588
0.283773988485336304 -0.854459226131439209 0.840406835079193115
0.622181355953216553 0.111769050359725952 1
-0.121937103569507599 0.0094645889475941658 -1
0.000839883869048207998 0.590266168117523193 -1
0.0155321694910526276 -0.429465174674987793 -1
0.406039237976074219 -0.38440018892288208 -1
-0.265190213918685913 -0.865885674953460693 -0.735799431800842285
-0.290874689817428589 -0.100204490125179291 -1
-0.845682024955749512 -0.295218408107757568 -0.294259756803512573
0.469240635633468628 0.0194084607064723969 -1
0.690161705017089844 0.177367359399795532 1
0.496676087379455566 -0.0809831023216247559 -1
-0.451692789793014526 -0.722976207733154297 0.960616707801818848
-0.478254705667495728 0.700018346309661865 -0.234277501702308655
0.268675714731216431 0.86603546142578125 -0.981101095676422119
-0.184305205941200256 -0.13739052414894104 -1
-0.0287937521934509277 -0.993076682090759277 0.196380972862243652
0.360574007034301758 -0.578553378582000732 -1
0.996433913707733154 0.0129498904570937157 -0.788354933261871338
-0.897622048854827881 -0.220348000526428223 0.532020926475524902
-0.787921786308288574 -0.312056273221969604 -1
0.90169912576675415 0.209356591105461121 0.725442588329315186
-0.764062285423278809 0.402704089879989624 -0.316543161869049072
0.548468232154846191 -0.24949529767036438 1
0.32314002513885498 -0.469815313816070557 1
-0.341199398040771484 0.0779650211334228516 -1
0.00983085110783576965 0.0190735813230276108 -1
0.362906277179718018 -0.277251154184341431 -1
0.649860382080078125 0.459721148014068604 1
-0.136034458875656128 -0.944664120674133301 -0.879471778869628906
-0.82444298267364502 -0.327079445123672485 -0.882845461368560791
0.887358188629150391 0.232929274439811707 0.809257805347442627
-0.644144892692565918 0.540732502937316895 -0.00224103499203920364
-0.121992029249668121 -0.951930701732635498 0.340559065341949463
-0.177128776907920837 -0.297402113676071167 -1
0.444690525531768799 -0.72975844144821167 0.318677365779876709
0.697002530097961426 -0.482947021722793579 0.506961703300476074
0.327736169099807739 -0.653200387954711914 -1
-0.336108654737472534 0.624558687210083008 1
-0.0981204584240913391 0.281501740217208862 -1
-0.0336312167346477509 0.190501481294631958 -1
-0.111157529056072235 0.956763863563537598 0.0119964741170406342
0.0148205012083053589 -0.175240755081176758 1
-0.980878233909606934 0.0554756708443164825 0.20185050368309021
0.196989253163337708 0.909807682037353516 0.448091059923171997
-0.551309883594512939 -0.636863887310028076 -0.12222636491060257
0.863980293273925781 0.267768919467926025 -0.152338519692420959
-0.831711411476135254 -0.239466756582260132 1
0.0190389920026063919 -0.0201448351144790649 -1
0.404346674680709839 0.62359696626663208 1
-0.119041614234447479 -0.954490363597869873 0.919588863849639893
0.0986156240105628967 -0.962881982326507568 0.929533600807189941
-0.670348823070526123 0.160325020551681519 1
-0.62951427698135376 -0.5548134446144104 -0.834395110607147217
-0.632359087467193604 -0.553925454616546631 -0.53340756893157959
0.68701702356338501 0.314147531986236572 -1
-0.616377592086791992 0.568596184253692627 -0.4434853196144104
-0.0775794535875320435 -0.0812424421310424805 1
0.720179498195648193 0.455213785171508789 -0.975879251956939697
-0.500293433666229248 -0.477205961942672729 -1
-0.922084152698516846 0.175646200776100159 -0.136935591697692871
0.785208404064178467 0.13592374324798584 -1
0.818129837512969971 -0.336549937725067139 0.368281185626983643
0.648576915264129639 -0.534813284873962402 0.960662662982940674
0.189364269375801086 -0.0655519440770149231 -1
0.580678999423980713 0.546143591403961182 -1
-0.561589062213897705 -0.626079201698303223 0.0685930103063583374
0.113626308739185333 -0.16719326376914978 1
0.287628829479217529 0.850289344787597656 -0.305083096027374268
0.902899682521820068 -0.0347065553069114685 -1
0.750582695007324219 -0.308012843132019043 -1
0.367686271667480469 0.791932463645935059 0.718082129955291748
0.375229746103286743 -0.785841763019561768 -0.503551721572875977
-0.0461555533111095428 0.807983279228210449 -1
0.0185363143682479858 -0.069951280951499939 1
-0.646394789218902588 0.0586706139147281647 -1
0.131821811199188232 0.812428951263427734 -1
0.541408777236938477 0.455759257078170776 -1
-0.112931296229362488 0.62272876501083374 -1
-0.370845049619674683 -0.45605546236038208 -1
0.0035477799829095602 -0.156159833073616028 -1
0.10132010281085968 -0.244380593299865723 1
-0.00692335003986954689 -0.0866702795028686523 1
0.0728026479482650757 -0.0228329021483659744 -1
-0.981601476669311523 0.0537057630717754364 0.349571317434310913
-0.288362503051757812 0.851244926452636719 -0.710690736770629883
-0.0417107455432415009 0.0298970825970172882 1
0.13082548975944519 0.220255255699157715 1
0.243112951517105103 0.11140076071023941 1
-0.423820942640304565 -0.0231374837458133698 1
0.343645393848419189 -0.0982833206653594971 -1
0.583326578140258789 0.212426245212554932 -1
0.156041041016578674 0.308782845735549927 -1
-0.146378502249717712 0.938682615756988525 0.0521636232733726501
-0.223439261317253113 -0.892938733100891113 0.862517297267913818
0.548977911472320557 0.635499298572540283 0.227811574935913086
0.443524599075317383 0.730699777603149414 -0.67414402961730957
-0.063646167516708374 -0.32325214147567749 -1
0.798317193984985352 -0.361715078353881836 -0.825455963611602783
0.578132510185241699 0.371380656957626343 -1
-0.10319877415895462 0.0507035143673419952 1
0.328973561525344849 0.00293477275408804417 1
0.10995028167963028 0.052442450076341629 1
0.4474773108959198 0.245389625430107117 1
0.0510660558938980103 -0.545598804950714111 1
-0.30945897102355957 0.322127282619476318 1
-0.510417163372039795 0.387685418128967285 1
-0.0481171049177646637 0.456003636121749878 -1
-0.444781512022018433 0.731662273406982422 -0.669246137142181396
0.663652241230010986 0.518996536731719971 -0.869868159294128418
-0.989230573177337646 0.0355029627680778503 0.0620488710701465607
-0.186635255813598633 -0.53426438570022583 1
-0.337473630905151367 -0.0562256835401058197 -1
0.0766239836812019348 0.0826599374413490295 1
-0.222571194171905518 0.6778220534324646 1
-0.10921052098274231 -0.05529770627617836 -1
0.94945293664932251 -0.130861997604370117 0.155126273632049561
0.881265163421630859 -0.245284914970397949 0.249623566865921021
0.109055809676647186 -0.957504689693450928 0.631139993667602539
-0.949848353862762451 -0.130212053656578064 0.574799895286560059
0.0289421826601028442 -0.0976731553673744202 -1
0.558901667594909668 -0.628898739814758301 -0.203882873058319092
0.519365608692169189 -0.312770664691925049 1
-0.210909426212310791 0.900929868221282959 0.399185746908187866
0.349021375179290771 -0.505155324935913086 -1
-0.133526638150215149 -0.562626361846923828 -1
0.57582932710647583 0.611138582229614258 0.9017600417137146
0.102191396057605743 0.024918578565120697 -1
-0.135278403759002686 -0.207182645797729492 1
0.0558011792600154877 0.108049847185611725 -1
0.567243993282318115 0.380792528390884399 -1
0.990801155567169189 0.0249382797628641129 0.998106062412261963
-0.0121300546452403069 -0.967325866222381592 -1
-0.483736336231231689 -0.368570983409881592 1
-0.865049242973327637 0.269599288702011108 0.722652554512023926
-0.970557570457458496 -0.0807335227727890015 0.489411026239395142
-0.21819111704826355 -0.898553073406219482 0.541087031364440918
-0.138757571578025818 -0.943089425563812256 0.83345264196395874
0.0870338529348373413 -0.968847215175628662 -0.731330931186676025
-0.818123698234558105 0.332587569952011108 0.939890384674072266
0.709104597568511963 -0.468465864658355713 -0.136078193783760071
0.360195457935333252 0.797277510166168213 -0.0822914615273475647
-0.867188036441802979 -0.266083657741546631 0.278621047735214233
0.205872669816017151 -0.814796626567840576 -1
-0.315919250249862671 -0.325447261333465576 -1
-0.48737025260925293 -0.460007309913635254 1
-0.0997127518057823181 0.0482094772160053253 1
0.461691796779632568 0.716055750846862793 0.403957545757293701
-0.768804550170898438 0.39702954888343811 -0.882529079914093018
0.758105456829071045 -0.409832000732421875 -0.929247558116912842
0.195157602429389954 0.180231824517250061 -1
-0.935324966907501221 0.154536053538322449 -0.14120936393737793
0.294541835784912109 0.845484375953674316 -0.144394963979721069
-0.587878048419952393 -0.264763563871383667 -1
-0.0698657035827636719 -0.0591235756874084473 -1
-0.50844186544418335 -0.672910094261169434 0.113294713199138641
0.223852172493934631 -0.491502821445465088 1
-0.520227134227752686 -0.663740932941436768 0.562790751457214355
0.47170788049697876 -0.706811904907226562 -0.938394844532012939
0.0124558163806796074 -0.15676388144493103 -1
0.308001905679702759 0.772799193859100342 -1
0.417979568243026733 0.753864824771881104 0.725348889827728271
-0.841053187847137451 -0.302162289619445801 0.302195250988006592
0.170589074492454529 0.925690948963165283 1
-0.0812359675765037537 -0.197981581091880798 -1
0.193778276443481445 -0.882182776927947998 -1
-0.702849268913269043 0.475019097328186035 0.818551301956176758
0.981206893920898438 -0.0592367462813854218 0.2085094153881073
0.0429806746542453766 -0.0112470947206020355 -1
-0.879578292369842529 0.166457250714302063 1
0.526978611946105957 0.504517257213592529 -1
-0.296342790126800537 0.845249414443969727 -0.863196134567260742
0.501407861709594727 0.679401814937591553 0.970068395137786865
-0.421575307846069336 -0.749007165431976318 0.995096027851104736
0.308854252099990845 -0.11089681088924408 -1
-0.620323896408081055 0.5653267502784729 0.127297371625900269
-0.690648376941680908 -0.00142833078280091286 1
-0.882472395896911621 -0.124661237001419067 1
0.222993239760398865 -0.139749228954315186 1
0.0908451899886131287 -0.14515368640422821 -1
-0.129822432994842529 0.367576956748962402 1
-0.747894346714019775 -0.424595803022384644 -0.951715409755706787
-0.833021044731140137 0.311989724636077881 -0.983083963394165039
-0.622065901756286621 0.56361234188079834 0.510882675647735596
0.953838765621185303 0.121649466454982758 -0.590056240558624268
-0.533452749252319336 -0.342069149017333984 -1
-0.00844944268465042114 -0.998229384422302246 -0.40039360523223877
-0.595293402671813965 -0.589960396289825439 0.459045261144638062
-0.763398110866546631 -0.403590232133865356 0.883769690990447998
0.569223344326019287 -0.615617156028747559 0.570984721183776855
0.0406840518116950989 -0.98633962869644165 0.319731712341308594
0.685994863510131836 0.495555132627487183 -0.915903031826019287
-0.110500514507293701 -0.125646397471427917 1
0.656304001808166504 0.319519221782684326 -1
-0.950673818588256836 0.128855228424072266 -0.463553637266159058
-0.404727011919021606 0.76382136344909668 0.21569158136844635
-0.375788390636444092 -0.788581490516662598 0.601686239242553711
0.783713042736053467 0.333348780870437622 -1
0.60364377498626709 -0.585048139095306396 0.941573262214660645
0.534246146678924561 0.649095237255096436 -0.0959863737225532532
-0.644580185413360596 -0.539006531238555908 -0.105192400515079498
0.138291046023368835 0.159313157200813293 -1
-0.852781116962432861 -0.284668385982513428 -0.0227186977863311768
-0.980298817157745361 0.0568936914205551147 -0.964875280857086182
0.955146431922912598 -0.115228608250617981 0.856228888034820557
-0.250874966382980347 -0.0201787184923887253 -1
0.995045006275177002 -0.00360752199776470661 -0.733652949333190918
-0.150125578045845032 0.307955265045166016 -1
-0.208741039037704468 -0.902312815189361572 -0.181436553597450256
-0.729567408561706543 0.445110887289047241 0.657111167907714844
-0.14043252170085907 -0.205964237451553345 1
-0.435349225997924805 0.693707108497619629 1
0.0825737789273262024 0.304645270109176636 1
0.415445238351821899 0.753371357917785645 -0.512507081031799316
-0.209617584943771362 -0.791404485702514648 -1
0.252741456031799316 0.52857506275177002 -1
0.0771839842200279236 -0.0920020565390586853 1
-0.996288061141967773 -0.0119689228013157845 -0.823288798332214355
0.65470731258392334 0.285856902599334717 1
-0.395721971988677979 0.00904085859656333923 -1
0.801047027111053467 -0.358448594808578491 0.371519118547439575
0.0511718988418579102 -0.983522891998291016 0.110665977001190186
0.478272229433059692 -0.610528171062469482 -1
-0.220135793089866638 0.897201359272003174 -0.338736653327941895
0.736031293869018555 -0.323488324880599976 -1
-0.786813616752624512 -0.373543709516525269 0.0638482421636581421
-0.119197867810726166 0.270580649375915527 -1
0.167040348052978516 -0.648285865783691406 1
0.313194513320922852 -0.0851293131709098816 -1
0.0765521898865699768 -0.972200989723205566 0.0628681331872940063
