ply
format ascii 1.0
element vertex 900
property float x
property float y
property float z
end_header
-0.144733458757400513 0.985892772674560547 -0.387917637825012207
-0.465817272663116455 0.575622797012329102 -1
0.037001539021730423 -0.539317131042480469 -1
0.214244768023490906 -0.301107704639434814 -1
-0.559364140033721924 0.827354371547698975 0.214201822876930237
-0.967135727405548096 0.254086971282958984 -0.120839186012744904
0.027583736926317215 -0.965089738368988037 -1
0.217386052012443542 -0.75114738941192627 -1
0.72199636697769165 0.237500131130218506 -1
0.215862661600112915 0.256609052419662476 -1
-0.645015180110931396 0.760641813278198242 -0.63509523868560791
0.222772687673568726 -0.97484433650970459 0.655738711357116699
0.0523487776517868042 -0.0491616055369377136 -1
0.264168739318847656 0.0313031710684299469 -1
-0.336762607097625732 -0.0943323373794555664 1
-0.190692946314811707 0.979031682014465332 0.586532175540924072
-0.140862450003623962 0.988384783267974854 0.489777982234954834
-0.0860613062977790833 -0.991903126239776611 -0.915251612663269043
-0.622789382934570312 -0.777229428291320801 0.490181893110275269
0.488054007291793823 0.580340564250946045 -1
0.498656570911407471 0.819516479969024658 -1
0.313203483819961548 -0.393526524305343628 -1
0.997553229331970215 0.0253633689135313034 -0.34147942066192627
0.31147804856300354 -0.947756826877593994 0.537779152393341064
0.0291404128074645996 0.127882778644561768 -1
-0.784268736839294434 0.616988956928253174 -0.675336539745330811
0.67753225564956665 -0.729494273662567139 -0.624185264110565186
-0.0143437981605529785 0.225790560245513916 1
0.541581571102142334 -0.346528530120849609 -1
0.082065872848033905 -0.704741537570953369 -1
0.124117232859134674 -0.0433787181973457336 -1
0.372829198837280273 -0.922918498516082764 0.00427177269011735916
-0.647240757942199707 0.197817608714103699 -1
0.698475003242492676 -0.62815392017364502 -1
0.55107349157333374 0.0559967532753944397 1
-0.255969911813735962 -0.964229464530944824 -0.416109830141067505
-0.994532585144042969 -0.0566753223538398743 -0.495972543954849243
0.494330346584320068 0.0711639374494552612 -1
-0.258576482534408569 0.317664802074432373 -1
-0.499051600694656372 0.861321747303009033 -0.4044322669506073
-0.341888576745986938 0.272536545991897583 -1
-0.428653359413146973 -0.89835888147354126 -0.500384151935577393
-0.513326644897460938 -0.331222355365753174 1
0.257756531238555908 0.729793965816497803 -1
0.327035278081893921 -0.0239574611186981201 -1
0.252645671367645264 -0.942192316055297852 1
0.660532593727111816 0.749060928821563721 0.98093104362487793
0.318210482597351074 -0.935989499092102051 -1
0.58111119270324707 -0.694851517677307129 -1
0.456657201051712036 0.578593671321868896 -1
-0.429786801338195801 0.900330960750579834 0.100341826677322388
-0.646863102912902832 -0.187003821134567261 1
0.701128959655761719 0.70664215087890625 0.543060898780822754
-0.000560108106583356857 0.995379090309143066 0.355174630880355835
-0.958691060543060303 0.268208801746368408 0.276990801095962524
0.38588184118270874 -0.182969778776168823 -1
-0.868194282054901123 0.487827032804489136 0.365924447774887085
-0.00434362003579735756 0.0324722528457641602 -1
0.248580560088157654 -0.291499137878417969 1
-0.98544389009475708 -0.141396507620811462 0.375326216220855713
0.00118996261153370142 -0.00821761228144168854 1
-0.681441903114318848 -0.451943933963775635 -1
0.278119683265686035 0.956467866897583008 -0.704593002796173096
0.0678497403860092163 0.993072330951690674 0.567450821399688721
0.122976936399936676 0.845350980758666992 1
0.0352161191403865814 0.262784481048583984 -1
-0.014903252013027668 0.0289502516388893127 -1
-0.0362326279282569885 0.00960569735616445541 -1
-0.0946333631873130798 0.196734786033630371 1
0.489972501993179321 -0.868829131126403809 0.937192797660827637
0.961788594722747803 -0.257772237062454224 -0.413123279809951782
0.203165903687477112 -0.977423489093780518 0.139627397060394287
0.443429946899414062 -0.841427326202392578 -1
-0.0403717197477817535 -0.0111760785803198814 -1
-0.300465047359466553 0.291290938854217529 -1
0.276954114437103271 0.493312925100326538 -1
0.154061049222946167 0.267682343721389771 1
-0.764511823654174805 -0.474273592233657837 1
0.0194278471171855927 -0.0608750395476818085 -1
0.0486360415816307068 -0.118445552885532379 -1
0.636111319065093994 0.769608199596405029 -0.198946967720985413
-0.916314303874969482 0.168483316898345947 -1
0.0472075566649436951 0.0736792385578155518 -1
-0.996422767639160156 0.0165884699672460556 -0.285555183887481689
-0.490119963884353638 0.866351962089538574 -0.623360097408294678
-0.907015740871429443 0.166507512331008911 -1
0.329426616430282593 -0.124605536460876465 -1
0.234303578734397888 -0.968448996543884277 -0.815175712108612061
0.300344944000244141 0.949088573455810547 0.551425755023956299
-0.317341238260269165 0.237917259335517883 -1
-0.245993137359619141 0.142542585730552673 -1
0.995118498802185059 0.0240818560123443604 -0.545962333679199219
0.00250440742820501328 -0.511284410953521729 -1
-0.283386588096618652 -0.234241381287574768 1
-0.0810515806078910828 0.995379090309143066 -0.230948835611343384
0.936455786228179932 -0.337454289197921753 -0.793562710285186768
0.207632288336753845 -0.765128910541534424 -1
0.157545700669288635 0.182833388447761536 -1
0.517577767372131348 0.855535149574279785 0.860911846160888672
0.198616743087768555 0.978009998798370361 -0.863689064979553223
0.3478851318359375 0.602376759052276611 1
-0.126302793622016907 0.989482104778289795 -0.853446304798126221
-0.0391978248953819275 -0.745650649070739746 -1
0.135435998439788818 0.641248404979705811 -1
-0.36834600567817688 -0.548690259456634521 -1
0.994348287582397461 -0.0481010489165782928 -0.936647891998291016
-0.730373919010162354 0.664777398109436035 1
-0.898238241672515869 0.429905831813812256 0.308438241481781006
0.276993453502655029 -0.305948168039321899 -1
0.1284637451171875 0.165217772126197815 -1
-0.779693484306335449 -0.618759453296661377 0.43202170729637146
0.298709869384765625 0.182065784931182861 -1
0.121462307870388031 0.432724565267562866 -1
-0.151478737592697144 -0.155997231602668762 1
-0.754444003105163574 -0.650421261787414551 0.35835796594619751
-0.13031323254108429 -0.34876328706741333 -1
0.525790154933929443 -0.84542691707611084 -0.510018765926361084
0.998998641967773438 0.0103801414370536804 -0.164781942963600159
0.445799380540847778 -0.135624557733535767 -1
0.716784954071044922 -0.697014331817626953 -0.956465661525726318
-0.434283167123794556 -0.801143884658813477 -1
-0.543730497360229492 0.836159050464630127 -0.662451744079589844
-0.124194599688053131 -0.306894600391387939 1
0.241789117455482483 -0.198673605918884277 -1
0.192823618650436401 -0.148103669285774231 -1
0.912580907344818115 0.365768909454345703 -1
-0.800164401531219482 0.132056593894958496 -1
0.0128099163994193077 0.193212687969207764 -1
0.892230808734893799 0.443476736545562744 -0.897102653980255127
-0.390290230512619019 0.304956525564193726 -1
-0.489273190498352051 -0.0196674484759569168 -1
-0.208528891205787659 -0.577093124389648438 1
0.414586156606674194 -0.870617270469665527 1
0.108060702681541443 -0.0741444751620292664 1
0.0518394410610198975 0.20745520293712616 -1
0.0550085417926311493 -0.317294597625732422 1
-0.556430399417877197 -0.829006612300872803 0.564814865589141846
-0.37298467755317688 0.365733087062835693 -1
0.0602962225675582886 0.306896686553955078 1
0.0722109675407409668 -0.135247454047203064 1
-0.629665791988372803 0.530473649501800537 -1
-0.165460929274559021 0.172949641942977905 -1
0.885370314121246338 -0.458974719047546387 0.894582033157348633
0.911732196807861328 -0.404636353254318237 0.141377583146095276
0.467049092054367065 -0.8836631178855896 0.30510517954826355
0.143932744860649109 -0.985060751438140869 -0.762791752815246582
-0.946464896202087402 -0.310256302356719971 -0.234979346394538879
0.0229576379060745239 0.0930034816265106201 1
-0.782198786735534668 -0.00226401514373719692 1
-0.187937065958976746 0.134953573346138 1
-0.798941373825073242 -0.418592184782028198 1
0.978623390197753906 0.183583751320838928 -0.0937582254409790039
-0.76608961820602417 -0.637006163597106934 -0.352852076292037964
0.043628152459859848 -0.5112113356590271 -1
-0.967565953731536865 -0.238306328654289246 0.294864684343338013
-0.306384444236755371 -0.613257348537445068 1
0.389568686485290527 -0.0973542183637619019 -1
0.710332334041595459 -0.611371219158172607 -1
0.168599352240562439 0.981244862079620361 0.037895839661359787
-0.259024083614349365 0.479450732469558716 1
-0.162362277507781982 0.719742000102996826 1
-0.280752360820770264 -0.528117835521697998 -1
0.690947651863098145 0.407111108303070068 -1
0.995256602764129639 0.0491704903542995453 0.929902374744415283
-0.342539727687835693 0.935078918933868408 -0.813190281391143799
0.993155002593994141 0.0709557682275772095 -0.244384706020355225
-0.762189507484436035 0.640708684921264648 0.871125400066375732
0.0130154900252819061 0.00409674551337957382 -1
0.995319545269012451 -0.0178140103816986084 0.501213192939758301
0.614452481269836426 0.0948540419340133667 -1
-0.0436095520853996277 0.994628608226776123 -0.377707093954086304
-0.0395734794437885284 0.994791209697723389 1
0.218849793076515198 -0.493555933237075806 -1
0.128766387701034546 0.258605211973190308 1
-0.507679283618927002 0.186923578381538391 1
0.538060307502746582 0.639772176742553711 1
0.800413668155670166 -0.599211573600769043 -0.400195538997650146
0.127145111560821533 -0.0279086269438266754 -1
-0.287465512752532959 0.754890620708465576 -1
0.0279247704893350601 -0.177119314670562744 1
-0.586339056491851807 0.0657916367053985596 -1
-0.328549981117248535 0.198866754770278931 1
-0.295988738536834717 -0.950534939765930176 0.6958579421043396
0.392577975988388062 0.430999308824539185 1
0.277811765670776367 0.959975779056549072 0.255090981721878052
0.798498272895812988 -0.59511113166809082 -0.311154484748840332
-0.738743126392364502 0.612259745597839355 1
0.0989640206098556519 -0.80553591251373291 1
-0.131851121783256531 0.21102491021156311 1
-0.0511985160410404205 -0.0193248484283685684 -1
-0.2406015545129776 -0.42187073826789856 -1
0.705687046051025391 0.166163116693496704 1
-0.308368444442749023 0.0369193591177463531 -1
0.613535523414611816 0.166249662637710571 1
-0.483345180749893188 0.183690652251243591 1
0.779218077659606934 -0.622750699520111084 0.327779948711395264
-0.407797843217849731 -0.863378226757049561 -1
-0.997060120105743408 0.0364646501839160919 -0.493848502635955811
0.999466121196746826 0.00553417997434735298 0.815274715423583984
-0.018454287201166153 0.0387934409081935883 -1
-0.994413256645202637 0.0460748970508575439 0.409469306468963623
-0.634224951267242432 -0.0717954784631729126 -1
0.933664262294769287 0.349877923727035522 -0.271884441375732422
-0.971851766109466553 -0.225468575954437256 0.79652106761932373
-0.622169733047485352 -0.25382763147354126 -1
-0.0412391051650047302 -0.0712624043226242065 1
0.873373270034790039 0.372648656368255615 -1
-0.0731559023261070251 -0.0839808732271194458 -1
-0.0653184875845909119 0.554832756519317627 1
-0.307559072971343994 -0.0961587503552436829 1
0.74242323637008667 0.663065493106842041 -0.646258115768432617
0.00851365737617015839 -0.995379090309143066 -0.507806062698364258
0.99989849328994751 0.00105240067932754755 0.883817076683044434
0.191732212901115417 0.0401835478842258453 -1
0.686142981052398682 0.461705267429351807 -1
0.768284857273101807 -0.633065402507781982 0.382738173007965088
0.0481969788670539856 -0.0416589342057704926 -1
0.504072785377502441 -0.859563350677490234 0.801119387149810791
0.444097548723220825 -0.737259745597839355 -1
-0.0531684868037700653 -0.970681607723236084 -1
-0.669710934162139893 0.38632616400718689 1
0.5189017653465271 -0.330720305442810059 1
-0.459013819694519043 -0.883870601654052734 -0.978400766849517822
-0.508433520793914795 0.442448526620864868 1
0.430343031883239746 0.110938765108585358 -1
0.302510559558868408 -0.127007454633712769 -1
0.0480726063251495361 -0.17277584969997406 -1
0.531652450561523438 -0.842961251735687256 0.631037116050720215
-0.35731804370880127 0.412787437438964844 1
0.988588273525238037 0.118294581770896912 -0.810957193374633789
0.411015808582305908 0.790991067886352539 -1
0.490329951047897339 0.86865699291229248 0.603533029556274414
0.360221207141876221 0.328838497400283813 1
0.748559117317199707 0.656309187412261963 0.454702138900756836
0.816671788692474365 -0.572390079498291016 -0.186303287744522095
0.201059728860855103 -0.974923193454742432 0.81077951192855835
0.235809743404388428 -0.440872162580490112 1
-0.027066035196185112 0.00644435174763202667 -1
0.307159930467605591 0.103232875466346741 -1
-0.70780479907989502 0.503274381160736084 1
-0.792886555194854736 -0.607499778270721436 -0.644459307193756104
-0.595361053943634033 0.800383985042572021 -0.171750679612159729
-0.234480410814285278 -0.825540482997894287 -1
0.193490251898765564 -0.978671014308929443 0.959348917007446289
-0.0190683472901582718 0.774869740009307861 -1
0.441453158855438232 0.893760561943054199 0.181801974773406982
-0.173706382513046265 0.189813703298568726 -1
0.532755196094512939 -0.376696079969406128 -1
-0.066895708441734314 -0.0691771060228347778 -1
-0.228357523679733276 0.969606995582580566 0.748527586460113525
-0.977495253086090088 0.190506577491760254 -0.45049092173576355
-0.909305214881896973 0.0938968658447265625 -1
-0.170161902904510498 -0.98167884349822998 0.651984632015228271
0.67659527063369751 -0.730401694774627686 -0.854696691036224365
0.960352659225463867 0.262610346078872681 -0.338743388652801514
0.246904447674751282 0.96683204174041748 -0.482164353132247925
0.123069457709789276 -0.990111827850341797 0.834161162376403809
-0.173392653465270996 -0.09732075035572052 -1
0.90139693021774292 0.42418372631072998 -0.943396389484405518
0.605728209018707275 0.79339301586151123 0.294965237379074097
0.0147529523819684982 -0.998375594615936279 -0.604607224464416504
0.383220553398132324 0.411004215478897095 1
0.828296124935150146 0.552393674850463867 -0.226325318217277527
0.667426407337188721 -0.250977814197540283 -1
0.376043766736984253 0.16515369713306427 1
0.668229162693023682 -0.738503873348236084 -0.440340518951416016
-0.0340437553822994232 0.208738908171653748 1
0.129431053996086121 -0.229295477271080017 1
0.0367159396409988403 0.465798318386077881 -1
-0.095570005476474762 0.995379090309143066 0.670366227626800537
0.988486170768737793 -0.142352163791656494 0.965832710266113281
0.00458142254501581192 0.533261299133300781 -1
-0.221200212836265564 -0.971028268337249756 0.367578774690628052
0.337648689746856689 0.317551106214523315 1
-0.584121942520141602 -0.806087672710418701 -0.715270936489105225
0.914368391036987305 0.399319916963577271 -0.337487071752548218
-0.630096018314361572 0.0993579328060150146 -1
0.0688736289739608765 -0.995379090309143066 0.596852004528045654
0.710129439830780029 0.698624551296234131 0.657111644744873047
-0.318534731864929199 0.242770954966545105 1
-0.628033339977264404 0.777431309223175049 0.679961502552032471
0.908885359764099121 0.405853837728500366 -0.888543426990509033
-0.400963276624679565 0.29612848162651062 1
-0.0957084745168685913 -0.101235933601856232 -1
-0.271634936332702637 0.84955066442489624 1
-0.18628789484500885 -0.450475692749023438 1
0.0514174029231071472 -0.152997583150863647 -1
0.74695897102355957 -0.0696064606308937073 1
-0.875969648361206055 -0.357445478439331055 -1
-0.2233428955078125 0.143284499645233154 1
-0.998545229434967041 -0.0150803094729781151 -0.505651652812957764
0.124925889074802399 -0.0245244856923818588 -1
0.932299375534057617 0.309814542531967163 -1
0.342771530151367188 -0.939148545265197754 0.202871575951576233
0.0610298961400985718 0.097264409065246582 -1
-0.0249604322016239166 0.0412809737026691437 -1
0.744097471237182617 0.663395404815673828 0.57226872444152832
0.633327841758728027 -0.768062412738800049 0.675575911998748779
-0.553926289081573486 0.785950958728790283 1
0.431589663028717041 0.248160883784294128 -1
0.473683685064315796 -0.876673400402069092 -0.684305787086486816
-0.0529869720339775085 -0.0450717955827713013 -1
-0.217101842164993286 0.247246488928794861 1
0.326837092638015747 -0.940292537212371826 -0.603302478790283203
-0.303303718566894531 0.389164924621582031 1
0.563171625137329102 -0.308145314455032349 1
0.95998769998550415 -0.273510575294494629 -0.145033746957778931
-0.703633725643157959 0.137709304690361023 -1
-0.515716373920440674 0.284813344478607178 -1
-0.731996774673461914 0.553385436534881592 -1
0.129469349980354309 0.150873810052871704 -1
0.117933988571166992 -0.169011130928993225 -1
0.969204306602478027 -0.232786163687705994 -0.303900480270385742
0.208877414464950562 -0.126942902803421021 -1
-0.217789456248283386 0.356352001428604126 1
0.704857945442199707 -0.704429030418395996 -0.916649758815765381
-0.370373278856277466 -0.0423741675913333893 -1
-0.721528410911560059 -0.686886370182037354 -0.00496771326288580894
-0.3562297523021698 -0.929638862609863281 -0.209581553936004639
-0.362505495548248291 -0.505814135074615479 1
-0.0582673363387584686 0.898727715015411377 -1
0.113420978188514709 -0.991990864276885986 0.643933951854705811
0.09597739577293396 -0.129118829965591431 1
0.563567459583282471 -0.024866962805390358 -1
-0.86257481575012207 0.497218728065490723 0.755309581756591797
-0.873719990253448486 -0.312538027763366699 1
0.756305038928985596 0.150376096367835999 1
0.426962584257125854 -0.303654372692108154 1
0.217473700642585754 -0.00819062534719705582 1
-0.0645471066236495972 0.993284404277801514 -0.326620519161224365
0.945445597171783447 -0.313026070594787598 -0.806306183338165283
-0.242425620555877686 0.0829824283719062805 -1
-0.208047032356262207 -0.0198829304426908493 1
-0.0211462005972862244 -0.998786091804504395 -0.14532877504825592
0.147526055574417114 -0.531110107898712158 -1
-0.846781432628631592 0.528871417045593262 0.285314649343490601
0.0981097668409347534 0.200860053300857544 -1
0.145490095019340515 0.179140612483024597 -1
0.98505324125289917 -0.15493890643119812 -0.734501540660858154
-0.994683325290679932 0.0376522094011306763 -0.555702686309814453
-0.0203909333795309067 -0.866362988948822021 -1
-0.168362647294998169 0.224981546401977539 -1
0.246160745620727539 0.0812167227268218994 1
0.39362218976020813 -0.199716076254844666 1
-0.176467865705490112 -0.890874922275543213 -1
-0.0840406715869903564 -0.992782950401306152 0.69928431510925293
0.720130681991577148 -0.0126161416992545128 -1
0.0679405853152275085 0.111877083778381348 -1
-0.921082854270935059 -0.378299504518508911 -0.327245652675628662
-0.131688728928565979 -0.139470368623733521 1
0.116594091057777405 -0.173718973994255066 1
-0.934906840324401855 -0.326670259237289429 -1
-0.0870140716433525085 -0.0530455075204372406 1
0.177981674671173096 -0.414186745882034302 1
-0.287336230278015137 0.823524296283721924 1
-0.0188486315310001373 -0.0998344123363494873 -1
0.279095888137817383 -0.641834378242492676 -1
-0.136430799961090088 -0.0272631701081991196 -1
-0.0561041682958602905 -0.0347573645412921906 1
-0.828298449516296387 0.092360474169254303 1
-0.953084051609039307 -0.292269885540008545 -0.823014914989471436
0.206826120615005493 0.129268273711204529 1
-0.188652545213699341 -0.685368061065673828 1
0.902330100536346436 0.422395050525665283 -0.0492296814918518066
-0.693427562713623047 0.716898798942565918 -0.557869195938110352
0.488931149244308472 0.49851498007774353 -1
-0.165815398097038269 0.287018537521362305 1
-0.261178046464920044 0.962092876434326172 -0.127624094486236572
0.0651682615280151367 0.0816861987113952637 -1
0.134162440896034241 -0.50557863712310791 1
0.0138459689915180206 -0.207905188202857971 -1
0.198121413588523865 -0.793007314205169678 -1
-0.0152486981824040413 -0.0111624440178275108 1
0.0480662509799003601 0.254977405071258545 -1
0.0813017711043357849 0.593221127986907959 1
-0.0351589061319828033 -0.663419246673583984 1
0.862768352031707764 0.113893523812294006 -1
0.0614851750433444977 -0.101727426052093506 -1
-0.525926768779754639 -0.593078374862670898 -1
-0.0368284471333026886 0.0966297388076782227 -1
0.649172425270080566 0.754573702812194824 -0.415172427892684937
0.554856956005096436 0.709919512271881104 1
-0.0993770807981491089 0.441291749477386475 -1
0.47572636604309082 0.0880432054400444031 -1
0.759747087955474854 -0.385645598173141479 -1
0.0171635877341032028 0.0955425500869750977 -1
0.978868186473846436 -0.18206942081451416 -0.966848850250244141
-0.219357550144195557 0.00365965277887880802 -1
0.551783084869384766 0.495663106441497803 -1
0.975622415542602539 -0.202145770192146301 0.177713200449943542
-0.671805143356323242 0.735306203365325928 -0.853652000427246094
-0.998273611068725586 0.0178955327719449997 0.736421167850494385
0.428223729133605957 -0.376789450645446777 -1
-0.308069318532943726 0.294416695833206177 -1
-0.985960543155670166 0.145533636212348938 -0.187464281916618347
-0.213077232241630554 -0.194479271769523621 -1
0.999861419200897217 -0.00143680034670978785 -0.748228609561920166
0.761450648307800293 -0.648221671581268311 -0.951321601867675781
0.160031735897064209 -0.666693210601806641 1
-0.153247222304344177 0.154501631855964661 -1
0.108618751168251038 -0.984302759170532227 -1
0.46840628981590271 0.367922544479370117 -1
-0.0359373278915882111 -0.432035326957702637 1
-0.0886832326650619507 0.921850621700286865 1
-0.974906444549560547 -0.206574365496635437 0.136507600545883179
-0.96889197826385498 -0.228199928998947144 -0.109415806829929352
0.209361687302589417 0.39529883861541748 -1
-0.997082650661468506 -0.0371659621596336365 -0.0179887004196643829
-0.726272821426391602 -0.685746848583221436 -0.472306102514266968
0.191043511033058167 0.131480097770690918 -1
-0.187529534101486206 0.9775581955909729 -0.029524926096200943
-0.165807753801345825 0.355915158987045288 1
0.0247966255992650986 0.0853521525859832764 1
-0.824028909206390381 0.56316453218460083 0.792140781879425049
0.429006338119506836 -0.900770485401153564 0.720534265041351318
0.84957510232925415 -0.12049652636051178 1
0.904983699321746826 0.417308539152145386 -0.979592502117156982
0.416921287775039673 -0.43440324068069458 -1
-0.116466045379638672 -0.0234251804649829865 1
0.894179344177246094 0.445083796977996826 -0.535134792327880859
0.683792650699615479 0.727624297142028809 -0.520649254322052002
-0.50384986400604248 0.398404926061630249 -1
0.592109560966491699 -0.356499731540679932 -1
0.144727334380149841 0.536418795585632324 -1
-0.473642438650131226 -0.620063424110412598 1
0.993882894515991211 0.0626140311360359192 -0.578819632530212402
-0.904162108898162842 -0.418883353471755981 -0.362060815095901489
-0.217044040560722351 -0.527131974697113037 -1
0.623583555221557617 0.736419558525085449 1
0.225018143653869629 -0.161935910582542419 -1
0.586501479148864746 0.429748713970184326 -1
0.167395323514938354 0.981479346752166748 0.214400440454483032
-0.792734503746032715 -0.601362884044647217 1
-0.847450077533721924 0.524935007095336914 -0.319300830364227295
0.933589160442352295 0.317051559686660767 1
0.80211031436920166 0.596961319446563721 0.353722661733627319
0.58142554759979248 0.0723131671547889709 1
0.290928423404693604 0.821632027626037598 -1
-0.958249807357788086 -0.278232872486114502 -0.314903736114501953
0.396428406238555908 -0.368124574422836304 -1
0.985735297203063965 0.139594122767448425 0.250761896371841431
0.266998499631881714 0.917207896709442139 -1
-0.0287336315959692001 -0.999273180961608887 -0.391699612140655518
0.609408855438232422 0.705017805099487305 1
-0.249682143330574036 0.104035519063472748 -1
-0.365529388189315796 0.0618256963789463043 1
-0.00772555870935320854 -0.318860173225402832 -1
-0.549544095993041992 0.4850941002368927 -1
0.413341939449310303 -0.030493367463350296 -1
0.869008302688598633 -0.486266642808914185 0.479946285486221313
0.0503854714334011078 -0.101357117295265198 -1
0.0656682923436164856 -0.995379090309143066 -0.586133837699890137
-0.0757983475923538208 0.361107438802719116 -1
0.120373517274856567 -0.450646668672561646 -1
0.553404092788696289 -0.066969260573387146 1
0.157139331102371216 0.0368350893259048462 -1
-0.972915112972259521 0.218891501426696777 0.913317739963531494
-0.594557285308837891 -0.800664424896240234 -0.549479544162750244
-0.0195501931011676788 0.888822555541992188 -1
0.299263894557952881 0.352132618427276611 -1
0.189359709620475769 0.0944121852517127991 1
-0.379039257764816284 0.0839217305183410645 -1
0.628222346305847168 -0.7772483229637146 -0.321263045072555542
0.477954506874084473 0.876564443111419678 0.386148214340209961
0.22015698254108429 -0.498243093490600586 -1
0.811224281787872314 0.00837931036949157715 1
0.295045375823974609 0.543657362461090088 1
0.0031302659772336483 0.00179341959301382303 -1
0.0555394217371940613 0.145361095666885376 -1
-0.0223925039172172546 -0.995379090309143066 0.104828022420406342
-0.0448517501354217529 -0.0746973529458045959 1
0.800380110740661621 0.00830790027976036072 -1
0.995914757251739502 0.000746777805034071207 -0.542316854000091553
0.631406426429748535 -0.77416461706161499 -0.296984553337097168
0.146870940923690796 0.522155463695526123 -1
0.595752537250518799 0.526367843151092529 -1
-0.167272090911865234 -0.277048170566558838 -1
0.144214585423469543 0.349165737628936768 1
0.740936338901519775 -0.664702773094177246 0.773158133029937744
0.960301339626312256 0.265838086605072021 0.0181012284010648727
0.384674936532974243 0.919537782669067383 0.250655859708786011
0.0658559352159500122 0.762671411037445068 -1
0.207562714815139771 0.127208590507507324 -1
-0.916707992553710938 0.0264485739171504974 -1
-0.62774580717086792 0.773530364036560059 0.77296823263168335
0.530104637145996094 0.759419620037078857 -1
-0.629203617572784424 -0.772442340850830078 0.437923640012741089
-0.103866353631019592 0.911941170692443848 1
0.159632295370101929 -0.559624731540679932 1
0.119294874370098114 0.038663174957036972 -1
-0.00974902976304292679 -0.0462456904351711273 1
0.80443274974822998 -0.593130111694335938 -0.410882383584976196
0.960928559303283691 -0.270953893661499023 -0.374624788761138916
0.0223961267620325089 0.0608524046838283539 1
0.0546766482293605804 0.130001053214073181 1
0.184048593044281006 0.656361103057861328 -1
0.898095846176147461 0.430227547883987427 -0.231111869215965271
-0.547967910766601562 0.497317343950271606 1
0.617810308933258057 0.780945360660552979 -0.72133868932723999
-0.978448331356048584 0.18466632068157196 -0.456163734197616577
-0.945144414901733398 0.313851892948150635 0.427348494529724121
0.637271761894226074 0.676474690437316895 1
-0.631967544555664062 0.366184115409851074 -1
0.361650466918945312 0.0916221439838409424 -1
-0.520115554332733154 0.849458754062652588 0.297089487314224243
0.136801406741142273 -0.408468812704086304 -1
-0.582199692726135254 0.811588466167449951 -0.737471461296081543
0.989512503147125244 -0.116230562329292297 -0.130677849054336548
0.683866798877716064 -0.365834087133407593 -1
0.0265180580317974091 -0.443227291107177734 -1
-0.0669002607464790344 -0.994992971420288086 0.674743950366973877
0.0334562845528125763 0.113530099391937256 -1
0.386998116970062256 -0.382418721914291382 -1
-0.402216941118240356 0.249499082565307617 1
-0.232278764247894287 -0.968123137950897217 -0.23842698335647583
-0.611074745655059814 -0.364565461874008179 -1
-0.300640314817428589 -0.334537804126739502 -1
0.508326232433319092 -0.190708845853805542 -1
0.2597542405128479 -0.963492453098297119 -0.874557435512542725
-0.556730687618255615 -0.828837454319000244 -0.661539256572723389
0.0101678362116217613 0.0772793292999267578 1
0.933793723583221436 0.349585384130477905 0.241402328014373779
-0.0950908511877059937 -0.99135822057723999 -0.719349265098571777
-0.0904644131660461426 0.0973727405071258545 -1
-0.825791478157043457 0.557896733283996582 -0.706680774688720703
-0.744878172874450684 0.662416458129882812 -0.2055959552526474
-0.127788692712783813 -0.0260202344506978989 1
0.68591231107711792 0.498135566711425781 -1
0.967319607734680176 0.239136397838592529 -0.0188485067337751389
-0.282338142395019531 -0.200664713978767395 1
-0.318251609802246094 0.561958789825439453 -1
-0.305916637182235718 0.503893554210662842 -1
0.377327054738998413 0.677233338356018066 -1
-0.75462418794631958 0.283878922462463379 -1
0.66832268238067627 0.738270878791809082 -0.484747022390365601
-0.358719229698181152 0.344724863767623901 1
0.750622451305389404 0.658710360527038574 0.706152677536010742
-0.201343834400177002 -0.974867880344390869 -0.135202676057815552
0.889426767826080322 -0.449811190366744995 -0.739235937595367432
0.581755220890045166 -0.423799335956573486 -1
0.724689900875091553 -0.682591915130615234 0.847006678581237793
0.698156893253326416 0.709520399570465088 0.466677427291870117
-0.992215812206268311 -0.11459919810295105 -0.641194522380828857
0.595296084880828857 -0.143902987241744995 -1
-0.511032819747924805 -0.620881974697113037 -1
0.582591712474822998 0.807229697704315186 -0.759645283222198486
-0.0880690068006515503 -0.332313776016235352 -1
0.856517791748046875 0.369498848915100098 -1
0.481911629438400269 -0.797278821468353271 -1
0.184610605239868164 0.0884530246257781982 -1
0.0440284162759780884 0.613311111927032471 1
-0.104334339499473572 -0.399782896041870117 -1
-0.655904650688171387 0.00405982695519924164 1
0.460223019123077393 -0.725606918334960938 -1
0.0538253225386142731 0.622547626495361328 -1
-0.759812772274017334 0.64368903636932373 0.4284018874168396
0.0138351330533623695 0.377191364765167236 -1
-0.682729423046112061 0.724461078643798828 -0.470991969108581543
0.877668023109436035 -0.469667643308639526 -0.836038053035736084
0.695110857486724854 -0.715465784072875977 -0.61187446117401123
0.933022737503051758 -0.351327121257781982 -0.926004648208618164
-0.198604270815849304 0.669495761394500732 1
0.443784773349761963 0.0353288054466247559 1
-0.856855511665344238 0.0396111421287059784 -1
-0.219591587781906128 -0.731074333190917969 -1
0.948587298393249512 0.304489076137542725 -0.000201685572392307222
-0.781767010688781738 -0.616159319877624512 -0.89189445972442627
-0.833575665950775146 -0.31648099422454834 1
-0.0886635035276412964 -0.112486518919467926 -1
-0.708634793758392334 -0.0235321018844842911 -1
0.0116525068879127502 0.448159277439117432 -1
0.994218707084655762 0.0871210992336273193 0.749011337757110596
-0.418261408805847168 0.903363406658172607 -0.121894359588623047
-0.306342184543609619 0.949836075305938721 0.965490579605102539
0.618994355201721191 -0.780264675617218018 0.516469597816467285
0.98449629545211792 0.160712137818336487 0.559343338012695312
-0.364484727382659912 0.929260849952697754 -0.480101466178894043
-0.415539741516113281 -0.904674053192138672 0.139023005962371826
0.584446132183074951 -0.696623742580413818 -1
-0.633897900581359863 -0.767577111721038818 -0.274261891841888428
-0.043756488710641861 -0.994619190692901611 -0.985145449638366699
0.345228046178817749 -0.521772980690002441 1
-0.0890663042664527893 -0.993556499481201172 -1
-0.356399118900299072 -0.929570317268371582 0.550032913684844971
0.108703948557376862 0.989602982997894287 0.2449217289686203
-0.754727423191070557 0.654734969139099121 -0.00928185600787401199
0.37297394871711731 -0.497519969940185547 -1
-0.60690617561340332 0.789083302021026611 0.781956791877746582
0.957004725933074951 -0.00446478091180324554 -1
-0.057377208024263382 0.0243783388286828995 -1
-0.269838780164718628 0.0569678284227848053 -1
-0.565286099910736084 -0.625824809074401855 -1
0.375297784805297852 0.0719322487711906433 -1
-0.402046501636505127 -0.255301356315612793 -1
-0.172631189227104187 -0.981360495090484619 -0.899952232837677002
-0.0520575754344463348 -0.161214441061019897 -1
-0.229398354887962341 -0.968878448009490967 -0.640738010406494141
-0.504023194313049316 -0.284549355506896973 1
0.0635705664753913879 0.995422303676605225 -0.470191895961761475
-0.882924795150756836 0.464499175548553467 -0.848102152347564697
-0.552571892738342285 -0.831179678440093994 0.759738922119140625
0.494913637638092041 -0.233068972826004028 -1
0.848041415214538574 -0.521193087100982666 0.675050973892211914
0.872402667999267578 -0.481006711721420288 -0.0459851548075675964
0.0081149740144610405 0.0510574765503406525 -1
-0.938333690166473389 -0.336799561977386475 0.621501743793487549
0.460759460926055908 0.882897436618804932 -0.30556720495223999
-0.231164261698722839 0.535696804523468018 -1
0.939823269844055176 0.331780701875686646 0.240936905145645142
0.899367392063140869 0.428074002265930176 0.0300639476627111435
0.514566183090209961 -0.316491752862930298 -1
0.0634106844663619995 -0.995379090309143066 0.339748531579971313
-0.344296753406524658 -0.232858777046203613 -1
0.0674602612853050232 0.0183615759015083313 1
-0.525056064128875732 -0.846676290035247803 0.87402951717376709
-0.599503815174102783 -0.797444641590118408 0.681953728199005127
-0.116651274263858795 0.0013389271916821599 -1
0.936093986034393311 -0.34434586763381958 0.719581723213195801
0.435875445604324341 -0.084271453320980072 -1
-0.912163853645324707 -0.398447692394256592 0.516720175743103027
-0.232803896069526672 0.0309248287230730057 1
0.720186293125152588 -0.440049111843109131 1
0.510934829711914062 -0.855096638202667236 0.834728598594665527
-0.467691212892532349 -0.616107165813446045 1
-0.698140442371368408 0.711825728416442871 -0.663012504577636719
0.94571608304977417 -0.322652637958526611 -0.655314743518829346
-0.982599318027496338 -0.168144300580024719 0.539204180240631104
0.904271245002746582 0.424910068511962891 0.297644108533859253
0.32144501805305481 0.943721652030944824 -0.0404440835118293762
0.356450498104095459 0.930460214614868164 0.597600638866424561
-0.72673499584197998 -0.680339992046356201 -0.160867422819137573
-0.826533615589141846 -0.556672453880310059 -0.686698496341705322
-0.191329210996627808 0.20846402645111084 -1
-0.406438112258911133 -0.221855670213699341 -1
-0.993478834629058838 -0.0675987377762794495 -0.0298298373818397522
0.688818454742431641 0.634810507297515869 -1
-0.613254666328430176 -0.395561069250106812 -1
-0.728121399879455566 0.0983687639236450195 1
-0.466914117336273193 -0.770891010761260986 1
0.0400957949459552765 -0.185750529170036316 1
0.982637345790863037 0.167977690696716309 -0.19635365903377533
0.0874174311757087708 0.802328944206237793 1
-0.521191596984863281 0.431264132261276245 -1
-0.0812823101878166199 -0.0019263542490079999 1
-0.234533786773681641 0.0119805159047245979 -1
0.546674609184265137 0.834035336971282959 0.799516975879669189
0.332043558359146118 -0.00378337223082780838 -1
-0.361604273319244385 0.927462935447692871 0.610257089138031006
0.133255675435066223 0.313710540533065796 -1
-0.191114649176597595 -0.096549302339553833 1
0.32759857177734375 -0.260680824518203735 1
0.909244060516357422 0.405043542385101318 0.582763314247131348
-0.297154635190963745 -0.953555703163146973 -0.918090760707855225
-0.955720365047454834 -0.278218001127243042 0.526524186134338379
0.773373663425445557 -0.0731385499238967896 -1
-0.191562429070472717 0.136242538690567017 -1
0.933424174785614014 -0.353341341018676758 -0.0535747706890106201
0.389687031507492065 -0.919424951076507568 0.196698412299156189
0.527127444744110107 -0.169733136892318726 -1
0.350160777568817139 0.932548582553863525 0.024258716031908989
-0.219081699848175049 0.159153461456298828 -1
0.518583118915557861 -0.370087534189224243 -1
0.868278384208679199 0.495076090097427368 -0.383528947830200195
-0.0861007273197174072 -0.211397930979728699 -1
0.245809495449066162 -0.426096975803375244 -1
0.29019474983215332 -0.419724136590957642 -1
-0.443252652883529663 0.88039100170135498 -1
0.901228368282318115 -0.433178544044494629 -0.0314536765217781067
0.439864009618759155 -0.291602343320846558 -1
0.992804229259490967 -0.0962503552436828613 -0.0644287541508674622
-0.168818116188049316 0.0423925481736660004 -1
-0.0881429612636566162 0.301595926284790039 -1
-0.319557696580886841 -0.665617883205413818 -1
-0.0493197105824947357 0.994261980056762695 0.737232327461242676
-0.285036951303482056 -0.112131521105766296 1
0.0963915959000587463 -0.00946709234267473221 -1
0.592344462871551514 -0.802952051162719727 0.0531978793442249298
0.206764966249465942 -0.724003791809082031 -1
-0.229824557900428772 0.0219404548406600952 1
-0.0308317001909017563 0.112847983837127686 1
-0.228567048907279968 -0.181585550308227539 -1
0.118050724267959595 0.0757431834936141968 -1
0.16567443311214447 -0.0482463240623474121 -1
0.657328367233276367 0.749060690402984619 -0.576637208461761475
0.381195873022079468 -0.422502398490905762 1
-0.679363489151000977 0.728871703147888184 -0.771706640720367432
0.851438999176025391 -0.51558840274810791 0.0708443745970726013
-0.308135449886322021 0.94650191068649292 0.794302642345428467
-0.121067062020301819 0.0999091789126396179 -1
-0.976112663745880127 0.196564078330993652 -0.305818706750869751
0.737010538578033447 0.537087500095367432 -1
0.319184839725494385 -0.651601612567901611 1
0.0194472931325435638 0.995379090309143066 0.397506445646286011
0.259866535663604736 0.779010653495788574 -1
0.253366440534591675 -0.19891764223575592 -1
0.346313446760177612 0.622263848781585693 1
0.376221388578414917 -0.448278218507766724 -1
-0.213476762175559998 -0.665764153003692627 -1
0.888679981231689453 -0.451498061418533325 0.266864180564880371
-0.0120551558211445808 -0.522100687026977539 1
0.166102752089500427 0.037194371223449707 -1
0.612783193588256836 -0.466150671243667603 -1
-0.062903083860874176 0.995508372783660889 0.986963510513305664
0.859132945537567139 0.505195915699005127 -0.308682411909103394
0.163322761654853821 0.0504399910569190979 -1
0.437892913818359375 0.369123250246047974 -1
0.241109535098075867 -0.2999916672706604 -1
0.0948469936847686768 0.785990297794342041 1
-0.839082121849060059 0.543629586696624756 0.105134829878807068
0.28265911340713501 -0.026451796293258667 1
0.101835280656814575 0.990890383720397949 0.668211162090301514
-0.148614346981048584 0.375488698482513428 -1
-0.306403517723083496 0.949811279773712158 -0.594994723796844482
-0.147069975733757019 0.985437750816345215 -0.869510889053344727
-0.370815813541412354 -0.925690650939941406 -0.46910470724105835
-0.942329585552215576 -0.321493357419967651 0.166598454117774963
0.144902482628822327 0.0819464102387428284 -1
0.906775116920471191 0.418106347322463989 -0.462939560413360596
-0.49925386905670166 -0.774250149726867676 -1
0.661478936672210693 -0.611807107925415039 -1
0.556370079517364502 -0.829040586948394775 -0.548805654048919678
0.181846022605895996 0.186268523335456848 1
-0.62536776065826416 -0.775305092334747314 -0.260583341121673584
0.803400397300720215 -0.58903193473815918 -0.871156096458435059
0.177797451615333557 0.20911581814289093 -1
-0.275608956813812256 0.248853132128715515 -1
0.0492920279502868652 0.0614612437784671783 -1
-0.350400745868682861 0.904836893081665039 1
0.883582353591918945 0.463013797998428345 0.884572923183441162
0.385685741901397705 0.847937285900115967 1
-0.300456911325454712 -0.103487029671669006 1
0.942025303840637207 0.330990135669708252 0.673278570175170898
-0.415856063365936279 -0.563231885433197021 1
0.885956764221191406 0.0987186133861541748 -1
-0.356013745069503784 -0.929726302623748779 -0.512263238430023193
-0.542366147041320801 -0.425519555807113647 -1
-0.256821721792221069 -0.964063584804534912 -0.0657961666584014893
0.668630659580230713 -0.738008677959442139 0.770779848098754883
0.379208266735076904 0.922170400619506836 -0.571745574474334717
0.918888390064239502 -0.0509376749396324158 -1
0.971147298812866211 -0.229825735092163086 -0.856109917163848877
0.212950900197029114 -0.976161837577819824 0.867898643016815186
-0.307471096515655518 -0.586685478687286377 1
0.965837061405181885 0.241584450006484985 0.22038114070892334
-0.330580234527587891 0.940023183822631836 0.315573900938034058
-0.610547244548797607 -0.543252110481262207 1
0.476568818092346191 -0.877466440200805664 0.657769083976745605
-0.55130082368850708 0.831895530223846436 0.0686538070440292358
0.195823177695274353 0.915923178195953369 -1
-0.439789056777954102 0.117094635963439941 1
0.314115554094314575 0.683584928512573242 -1
-0.886595666408538818 0.452555030584335327 -0.733303189277648926
-0.0485303960740566254 -0.394772499799728394 -1
-0.652224063873291016 0.175125554203987122 -1
0.891685128211975098 -0.449198275804519653 0.989037275314331055
0.937559008598327637 0.334456503391265869 -0.570198178291320801
-0.981138765811920166 0.168025165796279907 0.863887667655944824
-0.42005881667137146 -0.905809640884399414 0.0667771846055984497
0.119936749339103699 -0.98815464973449707 -0.452645152807235718
-0.99700695276260376 -0.031025933101773262 0.301021724939346313
-0.584081113338470459 0.287544190883636475 1
-0.469185620546340942 0.0283544939011335373 -1
-0.131874576210975647 0.0803018584847450256 -1
0.0184586495161056519 -0.273521512746810913 -1
-0.346753537654876709 0.114810489118099213 -1
-0.242825612425804138 -0.232444152235984802 -1
0.406961798667907715 -0.0144218718633055687 -1
-0.736936867237091064 -0.0593853853642940521 -1
0.0642594397068023682 0.378102809190750122 -1
0.857187032699584961 0.508925855159759521 -0.853971362113952637
0.282985001802444458 -0.243502810597419739 -1
0.111294381320476532 0.294778287410736084 -1
-0.00530106294900178909 0.299813508987426758 -1
0.850854873657226562 0.367228448390960693 -1
0.323995798826217651 -0.41126096248626709 -1
-0.19442671537399292 -0.808460354804992676 -1
-0.717594146728515625 -0.449770271778106689 -1
0.232319682836532593 -0.0426997654139995575 -1
-0.0173795763403177261 0.678548932075500488 -1
0.0126907406374812126 -0.930640876293182373 -1
-0.508970141410827637 0.777927517890930176 -1
-0.189819440245628357 0.313237845897674561 -1
0.689294755458831787 -0.440855652093887329 1
0.323846250772476196 -0.325608938932418823 -1
-0.197288945317268372 0.628450214862823486 -1
-0.622639119625091553 0.777161836624145508 -0.806922316551208496
0.467967391014099121 -0.347907483577728271 -1
-0.190756827592849731 0.280196785926818848 -1
0.0656890720129013062 0.499205946922302246 -1
-0.992386698722839355 -0.10926954448223114 0.191176846623420715
0.554762363433837891 0.827999234199523926 -0.0104810232296586037
-0.562040269374847412 -0.351891905069351196 -1
0.751054644584655762 0.341191500425338745 -1
0.0938752368092536926 -0.403521835803985596 1
-0.0943722054362297058 0.0170448888093233109 1
0.969973564147949219 0.223461389541625977 -0.627302885055541992
0.499122828245162964 0.156725600361824036 1
0.846951842308044434 -0.525649309158325195 -0.212218567728996277
-0.671956539154052734 0.106111541390419006 -1
0.762650012969970703 0.146937161684036255 1
-0.749809920787811279 0.654931962490081787 -0.913200199604034424
-0.0109528377652168274 -0.29269707202911377 -1
0.327999681234359741 -0.939906537532806396 0.241757899522781372
-0.062275957316160202 -0.375173181295394897 1
-0.635524988174438477 0.701180458068847656 -1
0.152108713984489441 0.48731762170791626 -1
-0.410689651966094971 -0.475801050662994385 -1
0.0496542118489742279 0.0693171843886375427 -1
0.131585195660591125 -0.986652791500091553 -0.546129822731018066
0.106021225452423096 -0.515142977237701416 -1
0.679453074932098389 0.707674562931060791 -1
-0.607908010482788086 0.273035913705825806 1
0.522662222385406494 -0.848024487495422363 -0.428776025772094727
0.64302140474319458 0.491586118936538696 1
-0.132095247507095337 0.0146221835166215897 -1
-0.284984409809112549 0.358052164316177368 -1
0.309343039989471436 0.153221949934959412 -1
0.893213272094726562 -0.439870268106460571 0.806372344493865967
-0.807718515396118164 -0.581893265247344971 -0.882221519947052002
0.0883454158902168274 -0.992227911949157715 -0.889403939247131348
-0.410382091999053955 -0.911259472370147705 0.476984530687332153
-0.0642294585704803467 -0.995379090309143066 -0.487763136625289917
-0.942335724830627441 0.330288797616958618 -0.608508944511413574
-0.710235178470611572 -0.702590227127075195 0.0432524606585502625
-0.399081140756607056 0.504321575164794922 1
0.014812893234193325 0.207808762788772583 -1
-0.27667313814163208 0.310305088758468628 -1
0.560913324356079102 0.0367044396698474884 1
-0.379282504320144653 -0.328765898942947388 -1
-0.410752266645431519 -0.493674516677856445 -1
0.193457469344139099 -0.115432888269424438 1
-0.836382031440734863 -0.440734326839447021 -1
0.150995939970016479 -0.0204211659729480743 -1
0.323408603668212891 0.248243629932403564 -1
-0.785791754722595215 -0.615311980247497559 0.206844300031661987
0.855780422687530518 0.512992799282073975 -0.842195570468902588
0.281069636344909668 -0.801009953022003174 1
-0.0645763427019119263 0.0485863238573074341 1
0.147230267524719238 0.125783443450927734 -1
-0.558568358421325684 0.827802479267120361 -0.482279300689697266
0.0141288386657834053 0.683688879013061523 -1
-0.315828651189804077 0.21248413622379303 -1
-0.934583008289337158 -0.0397550575435161591 -1
0.917824029922485352 -0.35592573881149292 1
-0.343078255653381348 0.237573891878128052 -1
-0.152658805251121521 -0.0857898294925689697 1
0.160760492086410522 0.0982489660382270813 1
-0.981684088706970215 0.17215418815612793 -0.0479734577238559723
0.621062874794006348 -0.778503775596618652 -0.20980970561504364
0.599534451961517334 0.68359076976776123 -1
0.986584365367889404 0.134342014789581299 -0.952747225761413574
0.0841922014951705933 -0.183269992470741272 -1
-0.0158345270901918411 -0.517387032508850098 -1
-0.426821500062942505 -0.902000963687896729 -0.86693120002746582
-0.999135076999664307 0.00896592624485492706 -0.260434389114379883
-0.250967860221862793 -0.965203583240509033 -0.0791324004530906677
-0.517707467079162598 0.421379894018173218 -1
0.716147720813751221 -0.692097306251525879 -0.461035877466201782
0.0176296625286340714 0.0673077702522277832 -1
-0.354167163372039795 0.552234828472137451 1
0.504352331161499023 -0.859381377696990967 0.970064461231231689
0.565432727336883545 -0.0297746565192937851 -1
-0.691067278385162354 -0.716386377811431885 0.0595826990902423859
0.023243732750415802 -0.016139717772603035 -1
-0.0225753262639045715 -0.102402657270431519 1
0.573735654354095459 -0.56413191556930542 -1
-0.998032450675964355 0.0203954558819532394 -0.273780256509780884
-0.647490382194519043 -0.758588254451751709 0.796450674533843994
0.478322058916091919 -0.87632519006729126 -0.933501660823822021
-0.203693121671676636 0.977355480194091797 0.177286833524703979
0.984615981578826904 -0.159308716654777527 -0.241998285055160522
-0.785649120807647705 -0.613531351089477539 -0.486153990030288696
-0.986770451068878174 0.149869292974472046 0.284861326217651367
0.00814254861325025558 -0.0176354590803384781 -1
0.624709963798522949 -0.780649840831756592 -0.646244347095489502
-0.190327703952789307 -0.304932683706283569 1
-0.195155665278434753 0.468966186046600342 1
0.0441961437463760376 0.000460701034171506763 -1
0.448536992073059082 -0.183230191469192505 -1
0.359728157520294189 -0.25953143835067749 -1
-0.185679495334625244 0.409103304147720337 1
-0.209962010383605957 0.976547181606292725 0.799930334091186523
-0.579060614109039307 0.810751676559448242 -0.890400707721710205
-0.0917328298091888428 -0.255833864212036133 -1
0.260162711143493652 -0.172407522797584534 -1
0.529282569885253906 -0.489345818758010864 -1
-0.966452836990356445 0.255942672491073608 0.757843315601348877
0.924305617809295654 -0.370470166206359863 0.868272960186004639
0.855557501316070557 -0.513312399387359619 0.3189736008644104
-0.561671853065490723 0.822070479393005371 -0.090697266161441803
0.476356029510498047 0.187652766704559326 -1
0.015305105596780777 -0.996445834636688232 -0.522359371185302734
0.615837693214416504 -0.782952010631561279 0.609417438507080078
0.994520366191864014 -0.0427343286573886871 0.872204303741455078
0.76390153169631958 0.639415502548217773 0.835408568382263184
-0.0141736967489123344 0.384953856468200684 1
0.991116225719451904 0.106311172246932983 0.391658425331115723
0.289392530918121338 -0.952724993228912354 -0.396039038896560669
0.487522423267364502 0.0173599831759929657 -1
0.212737008929252625 -0.371896922588348389 -1
