ply
format ascii 1.0
element vertex 872
property float x
property float y
property float z
end_header
-0.0275321733206510544 -0.107608713209629059 -1
0.0055128750391304493 -0.302599489688873291 1
-0.176143676042556763 -0.373889297246932983 1
-0.511919677257537842 -0.488080352544784546 0.40173870325088501
-0.914607703685760498 0.0668694600462913513 1
-0.0352386385202407837 -0.121798135340213776 1
-0.332593530416488647 0.667406439781188965 0.90143740177154541
-0.260708719491958618 -0.739291250705718994 -0.611304521560668945
0.223393484950065613 -0.32793387770652771 1
-0.208067208528518677 0.791932821273803711 0.385949969291687012
0.0673489943146705627 -0.219290599226951599 -1
0.496883749961853027 0.503116250038146973 -0.627199769020080566
0.0774471759796142578 0.211900874972343445 1
0.195063725113868713 0.80493628978729248 -0.157660245895385742
0.22910793125629425 0.117274433374404907 -1
-0.543200910091400146 -0.0951558351516723633 1
-0.0619587861001491547 0.435509264469146729 1
-0.180848166346549988 0.540551543235778809 -1
-0.236204713582992554 -0.00331983761861920357 1
-0.0812807157635688782 -0.447743743658065796 1
0.636632800102233887 -0.363367199897766113 0.623489439487457275
0.0625949054956436157 0.0247831400483846664 -1
0.742623269557952881 0.257376700639724731 0.906158208847045898
-0.402842730283737183 -0.59715723991394043 -0.386452943086624146
-0.329869329929351807 -0.469615936279296875 -1
0.0535436198115348816 -0.0405026040971279144 1
-0.00995692331343889236 -0.314638406038284302 1
-0.437353372573852539 0.562646627426147461 0.704783618450164795
-0.315881341695785522 0.684118688106536865 -0.116432823240756989
0.957132220268249512 0.0038217068649828434 1
0.141234874725341797 -0.34154510498046875 1
0.106503918766975403 0.427553057670593262 1
0.226084440946578979 0.00715187937021255493 -1
-0.493257224559783936 -0.506742775440216064 -0.547164797782897949
0.48663628101348877 0.51336371898651123 0.145553052425384521
-0.02835112065076828 -0.971648871898651123 0.585624754428863525
0.0178616736084222794 -0.00739545421674847603 -1
0.13836631178855896 -0.861633658409118652 -0.979690372943878174
-0.628064334392547607 0.371935635805130005 -0.779092848300933838
-0.159076467156410217 0.0226410534232854843 1
-0.0503608845174312592 -0.281997919082641602 -1
-0.781221330165863037 -0.218778654932975769 -0.641817748546600342
0.843918502330780029 0.156081512570381165 0.750478029251098633
0.744866907596588135 0.255133122205734253 0.811758756637573242
-0.821703016757965088 -0.178296968340873718 0.660715162754058838
0.983500003814697266 0.0165000036358833313 -0.757376492023468018
-0.137456938624382019 0.278791457414627075 -1
-0.208196759223937988 0.473943531513214111 -1
-0.472284883260726929 -0.112983442842960358 -1
0.898652195930480957 -0.101347774267196655 -0.841524958610534668
-0.0989070087671279907 0.766027092933654785 -1
0.314840853214263916 0.685159146785736084 -0.0853353738784790039
0.487001895904541016 0.512998104095458984 -0.910922825336456299
-0.0640913397073745728 0.705696046352386475 -1
-0.0546450391411781311 0.0634403228759765625 1
-0.56198197603225708 -0.43801802396774292 -0.0177868306636810303
-0.163805067539215088 0.726274967193603516 1
-0.359618604183197021 -0.189615875482559204 -1
0.466245412826538086 0.533754587173461914 -0.699356615543365479
-0.15799364447593689 -0.242961406707763672 1
-0.869511306285858154 0.130488678812980652 0.940657198429107666
0.116956599056720734 0.149331390857696533 1
-0.135320201516151428 -0.362801223993301392 -1
-0.320598602294921875 -0.679401397705078125 -0.893346309661865234
0.0365502089262008667 -0.0723031312227249146 -1
0.152266219258308411 -0.0388787537813186646 1
0.361450344324111938 -0.00493497308343648911 1
0.551239609718322754 -0.448760420083999634 -0.455937623977661133
-0.011846437118947506 -0.988153576850891113 -0.450538843870162964
-0.275863140821456909 -0.724136829376220703 0.710980236530303955
-0.151105597615242004 0.848894417285919189 -0.232596471905708313
-0.735854566097259521 0.0126213748008012772 1
0.0125502618029713631 0.0407244786620140076 -1
-0.145439833402633667 -0.0822358801960945129 -1
-0.210574805736541748 -0.219332888722419739 1
0.278745055198669434 0.721254944801330566 -0.783412814140319824
0.638388991355895996 0.361611008644104004 0.384153634309768677
0.285704523324966431 -0.0422459244728088379 -1
-0.443957358598709106 0.556042611598968506 0.276372045278549194
-0.660344421863555908 -0.327264636754989624 -1
0.113769449293613434 -0.145289987325668335 -1
-0.107545711100101471 -0.648455142974853516 -1
-0.530253410339355469 -0.469746589660644531 -0.293017685413360596
0.750294208526611328 -0.125147640705108643 1
0.449970126152038574 -0.550029873847961426 -0.567750871181488037
-0.820626735687255859 -0.179373279213905334 -0.943332135677337646
-0.023901788517832756 -0.790251016616821289 1
-0.163346648216247559 0.557053506374359131 -1
-0.491803646087646484 0.209825709462165833 1
0.416551291942596436 -0.583448708057403564 0.691130876541137695
-0.864589154720306396 -0.135410845279693604 -0.0139154307544231415
-0.038206886500120163 -0.0726689770817756653 -1
-0.703817546367645264 0.296182453632354736 -0.755979537963867188
-0.551041722297668457 0.448958307504653931 0.392297536134719849
-0.0215142033994197845 -0.978178918361663818 0.72581106424331665
0.578281700611114502 0.0756341665983200073 -1
-0.122701048851013184 -0.104441024363040924 1
0.239923715591430664 0.395884811878204346 -1
-0.377959221601486206 0.332989662885665894 1
-0.00753443920984864235 0.684439659118652344 -1
0.06195024773478508 -0.938049733638763428 -0.418567091226577759
-0.201313629746437073 0.798686385154724121 -0.0328012034296989441
-0.0655095130205154419 0.694667339324951172 1
0.864015936851501465 -0.135984048247337341 0.872859954833984375
-0.175236970186233521 0.824763059616088867 0.555114269256591797
0.318671345710754395 -0.261559814214706421 -1
0.996501266956329346 0.00349875004030764103 0.136310175061225891
0.73488771915435791 0.265112251043319702 -0.502819657325744629
0.173932120203971863 -0.263226419687271118 -1
0.237611770629882812 0.358748406171798706 1
-0.693758547306060791 -0.306241452693939209 0.204346567392349243
-0.488021492958068848 0.511978507041931152 0.804238736629486084
0.112495250999927521 0.251041233539581299 1
-0.475519627332687378 0.52448040246963501 0.745503664016723633
0.929722070693969727 0.0702779367566108704 -0.387841910123825073
-0.0920149683952331543 -0.593865692615509033 -1
-0.433559685945510864 0.122418224811553955 -1
0.0660376176238059998 -0.933962404727935791 -0.138573497533798218
0.853566646575927734 -0.146433338522911072 -0.165572166442871094
0.17346656322479248 -0.583442330360412598 1
0.393936216831207275 -0.313706338405609131 1
0.686933577060699463 0.313066422939300537 -0.867182075977325439
0.434409499168395996 0.324224293231964111 1
-0.43399423360824585 -0.426662951707839966 -1
-0.157329678535461426 -0.0546846576035022736 -1
0.211479902267456055 -0.788520097732543945 -0.0389244891703128815
0.476288318634033203 -0.523711681365966797 0.734249770641326904
0.000404919061111286283 -0.0105561288073658943 1
-0.869452476501464844 -0.13054753839969635 -0.105860151350498199
0.0509623363614082336 0.260513246059417725 1
0.926432430744171143 -0.0735675394535064697 0.020455455407500267
0.0242127701640129089 -0.0959531962871551514 1
-0.0327653959393501282 -0.174411982297897339 1
0.652440488338470459 0.347559541463851929 -0.308591961860656738
-0.244482353329658508 -0.755517661571502686 0.968721151351928711
0.818760693073272705 0.181239321827888489 0.915476977825164795
0.423757731914520264 -0.0809305161237716675 -1
-0.461004018783569336 -0.538995981216430664 -0.706311464309692383
-0.356937885284423828 0.0753021091222763062 -1
0.565867066383361816 -0.0119780860841274261 -1
0.105525471270084381 -0.894474506378173828 0.132791489362716675
0.0773047283291816711 0.202702179551124573 -1
0.654339849948883057 -0.345660150051116943 -0.173889920115470886
-0.20734521746635437 0.266997158527374268 -1
0.0860031694173812866 0.91399681568145752 -0.207824170589447021
0.228997454047203064 -0.150030896067619324 1
-0.16506783664226532 -0.756064474582672119 -1
-0.878848731517791748 -0.121151238679885864 0.487792015075683594
-0.101752236485481262 0.0211544763296842575 -1
-0.511460542678833008 -0.349394440650939941 -1
-0.329340547323226929 -0.670659422874450684 -0.257739931344985962
0.0113024236634373665 0.337181329727172852 -1
0.193871691823005676 -0.806128323078155518 0.786408901214599609
0.952509582042694092 -0.0474904254078865051 -0.00878704991191625595
0.165638893842697144 -0.652311384677886963 -1
0.607792556285858154 -0.392207473516464233 0.311840802431106567
-0.0687681436538696289 -0.0864467546343803406 -1
-0.196392744779586792 -0.538154304027557373 1
0.394542723894119263 -0.0100427865982055664 -1
-0.209756821393966675 0.382349848747253418 -1
-0.0090747736394405365 -0.39854004979133606 -1
0.441486358642578125 -0.558513641357421875 -0.186287567019462585
0.424878954887390137 0.386138916015625 -1
-0.537182390689849854 -0.462817579507827759 0.667712271213531494
0.288576394319534302 0.569984018802642822 -1
0.186526015400886536 0.813473999500274658 -0.810283184051513672
0.922621786594390869 0.0454490482807159424 -1
0.0188729315996170044 0.0417340658605098724 -1
-0.413315743207931519 -0.586684286594390869 0.759198665618896484
0.444405168294906616 0.261651456356048584 -1
-0.620368421077728271 0.379631549119949341 -0.171779125928878784
-0.397795259952545166 0.602204740047454834 -0.166622549295425415
-0.632358789443969727 0.146292001008987427 -1
-0.137260273098945618 -0.0472984127700328827 -1
-0.650727808475494385 -0.167097494006156921 -1
0.473575592041015625 -0.39833495020866394 -1
0.0537451058626174927 0.946254909038543701 -0.585452497005462646
-0.271440356969833374 0.590866982936859131 -1
-0.902020394802093506 0.0360795818269252777 1
-0.0106697715818881989 -0.988182544708251953 0.126656472682952881
-0.501356661319732666 0.0607780255377292633 1
-0.280344188213348389 0.544336259365081787 -1
0.0771346241235733032 -0.02077469602227211 1
0.139989644289016724 0.599787235260009766 1
-0.418419986963272095 -0.508107781410217285 -1
0.693381845951080322 -0.306618154048919678 -0.336645662784576416
0.357017338275909424 0.191475465893745422 1
0.152569040656089783 0.0073634907603263855 -1
-0.357756346464157104 0.642243683338165283 0.468016952276229858
-0.0904367938637733459 -0.0192840360105037689 -1
0.302387595176696777 -0.697612404823303223 0.645366191864013672
-0.0632812455296516418 0.668050646781921387 -1
-0.290596306324005127 -0.36743539571762085 -1
0.23797018826007843 0.431069850921630859 -1
0.0766544565558433533 0.923345565795898438 0.538244843482971191
0.0717743337154388428 0.259390681982040405 -1
-0.257365137338638306 0.560556352138519287 1
-0.000244750524871051311 -0.104915723204612732 1
0.207594737410545349 0.0100095029920339584 -1
-0.156438812613487244 -0.236205071210861206 1
0.513494133949279785 -0.0510699860751628876 -1
-0.466958701610565186 -0.0250293053686618805 1
0.0261468160897493362 -0.86538618803024292 1
-0.574625194072723389 0.119811698794364929 1
0.440440475940704346 -0.136014252901077271 -1
0.0780539587140083313 0.921946048736572266 -0.769757330417633057
0.284114539623260498 -0.715885460376739502 -0.989633083343505859
-0.86050117015838623 -0.139498814940452576 0.575245916843414307
0.806858539581298828 0.193141475319862366 -0.345070242881774902
-0.442216873168945312 -0.557783126831054688 0.0537618696689605713
0.0730178579688072205 -0.92698216438293457 -0.622050166130065918
0.924004316329956055 -0.0759956762194633484 0.874896109104156494
0.535154819488525391 -0.464845210313796997 0.996295273303985596
-0.173116758465766907 -0.00962954293936491013 -1
-0.102386295795440674 -0.897613704204559326 -0.118983574211597443
-0.425154775381088257 0.0911127030849456787 -1
0.96341317892074585 -0.0365868434309959412 0.0707599073648452759
0.207755729556083679 -0.233519136905670166 1
-0.246798142790794373 0.753201842308044434 -0.266052126884460449
0.533089578151702881 -0.466910451650619507 -0.530476212501525879
-0.053503081202507019 0.398263990879058838 -1
-0.176999673247337341 -0.373921602964401245 -1
-0.31791388988494873 -0.68208611011505127 0.980398595333099365
-0.683781325817108154 0.316218703985214233 -0.299156010150909424
-0.0434533990919589996 -0.21146179735660553 -1
-0.418237596750259399 0.505165278911590576 1
-0.375769644975662231 -0.27330896258354187 -1
0.0956408903002738953 -0.904359102249145508 -0.228027582168579102
-0.355936378240585327 0.644063651561737061 -0.806066393852233887
-0.18315790593624115 0.816842079162597656 0.594540715217590332
0.766632616519927979 -0.00197165226563811302 -1
0.328825920820236206 -0.122628152370452881 1
0.0539653487503528595 0.946034669876098633 0.21152786910533905
-0.765350937843322754 -0.0915192365646362305 -1
-0.107641413807868958 -0.892358601093292236 0.65497291088104248
0.0837655812501907349 0.0269319545477628708 -1
-0.962285399436950684 -0.0377146042883396149 0.0138331055641174316
0.365416646003723145 -0.634583353996276855 -0.786819934844970703
-0.592260420322418213 -0.197033718228340149 -1
-0.370621263980865479 0.0787000730633735657 -1
0.589253425598144531 -0.410746604204177856 -0.156234964728355408
0.767597019672393799 0.232402965426445007 0.110841661691665649
0.95409703254699707 0.0459029488265514374 0.737763941287994385
-0.268115252256393433 -0.73188471794128418 0.268391191959381104
0.864792108535766602 0.135207906365394592 -0.0989414751529693604
0.0175680834800004959 -0.0865307077765464783 -1
-0.51522594690322876 -0.484774023294448853 -0.832204818725585938
0.156507477164268494 -0.843492507934570312 0.351623773574829102
0.900165200233459473 0.0998347997665405273 -0.622229099273681641
0.360595405101776123 -0.639404594898223877 -0.103092864155769348
-0.0312993079423904419 -0.224993854761123657 1
0.942933440208435059 -0.0570665784180164337 -0.129914179444313049
-0.722353518009185791 0.277646481990814209 -0.897723853588104248
-0.483610451221466064 0.443546026945114136 1
-0.00226073781959712505 -0.321839809417724609 1
-0.165161296725273132 -0.834838688373565674 0.479451686143875122
0.662214100360870361 -0.181231901049613953 -1
-0.0993799269199371338 0.220259726047515869 -1
0.474561572074890137 0.525438427925109863 0.660727798938751221
0.0546332933008670807 0.94536668062210083 -0.831955075263977051
-0.858203232288360596 0.141796797513961792 -0.830388069152832031
-0.806791245937347412 -0.0246258899569511414 -1
-0.907657444477081299 -0.0793940648436546326 1
-0.144759848713874817 0.813446760177612305 1
-0.894942522048950195 -0.105057470500469208 0.167220711708068848
0.0109475515782833099 0.0585613846778869629 -1
-0.820637762546539307 0.1793622225522995 -0.562893509864807129
-0.944637596607208252 -0.0553624294698238373 -0.044110715389251709
0.0508814901113510132 -0.357217401266098022 -1
-0.6720162034034729 0.281735330820083618 -1
0.374727159738540649 0.625272810459136963 0.209179461002349854
-0.128798991441726685 -0.323094189167022705 -1
0.248183101415634155 -0.658119857311248779 -1
0.505915343761444092 -0.494084656238555908 0.103516288101673126
0.344901621341705322 -0.655098378658294678 -0.127836793661117554
0.505754351615905762 -0.0733700916171073914 -1
0.0648306980729103088 -0.9351692795753479 0.0946351438760757446
-0.0197151508182287216 0.160612747073173523 1
-0.963406741619110107 0.0365932434797286987 0.557149589061737061
-0.0967352315783500671 0.903264760971069336 -0.249557241797447205
0.425285041332244873 0.00673954328522086143 1
-0.80550771951675415 -0.194492310285568237 0.969176292419433594
0.306409955024719238 0.594701647758483887 1
0.500677347183227539 0.499322652816772461 -0.763475418090820312
0.828240513801574707 0.171759456396102905 -0.735745072364807129
-0.291094779968261719 0.708905220031738281 -0.468314260244369507
-0.0737425684928894043 0.926257431507110596 -0.42013627290725708
-0.182880893349647522 0.0393842235207557678 1
-0.00538835581392049789 -0.133310556411743164 -1
-0.133865013718605042 -0.199947893619537354 -1
0.8033638596534729 -0.0648023635149002075 1
-0.640311062335968018 -0.359688907861709595 -0.191311165690422058
-0.167565315961837769 0.446695178747177124 -1
0.121408842504024506 -0.00386087968945503235 -1
-0.0932631790637969971 0.906736850738525391 0.605552732944488525
0.327444344758987427 -0.0612708106637001038 -1
0.166940584778785706 -0.833059430122375488 0.96449810266494751
-0.783691525459289551 0.216308459639549255 -0.124196551740169525
-0.940730094909667969 -0.0592699013650417328 0.626701891422271729
-0.0460985787212848663 0.641583442687988281 1
0.82558363676071167 0.174416378140449524 0.156246379017829895
0.745559096336364746 0.254440903663635254 -0.487522929906845093
-0.0104389796033501625 -0.0337607339024543762 -1
-0.843916833400726318 -0.156083151698112488 0.730490028858184814
-0.874387860298156738 -0.125612124800682068 0.784394919872283936
-0.427366137504577637 0.572633862495422363 -0.647197604179382324
-0.00539030460640788078 -0.663039028644561768 1
-0.436608552932739258 0.0613520219922065735 1
0.579200029373168945 -0.420800000429153442 -0.652361869812011719
-0.00671100104227662086 0.990779578685760498 0.211726278066635132
0.97173917293548584 0.0282608196139335632 0.934255301952362061
0.469294458627700806 0.530705571174621582 -0.712612450122833252
0.117628850042819977 0.00342269847169518471 -1
-0.0274945273995399475 0.494998693466186523 1
-0.0561912953853607178 -0.933619678020477295 -1
-0.481654495000839233 -0.518345534801483154 -0.301037818193435669
0.142590716481208801 -0.52597808837890625 1
-0.0854760780930519104 0.439151078462600708 -1
0.469764471054077148 0.0251087117940187454 -1
0.179690092802047729 0.325671166181564331 -1
0.0634440630674362183 -0.110666379332542419 -1
-0.0123645300045609474 0.932785511016845703 1
0.565726935863494873 0.267779946327209473 1
-0.180766060948371887 -0.308264881372451782 1
0.485754430294036865 -0.0467753969132900238 -1
0.625804364681243896 0.374195665121078491 0.345187962055206299
0.0286688096821308136 -0.95869755744934082 1
-0.0158739406615495682 -0.133773595094680786 -1
0.660371840000152588 -0.127825722098350525 -1
-0.118338979780673981 -0.801804959774017334 -1
-0.112420409917831421 -0.00944370962679386139 -1
-0.87434077262878418 -0.125659212470054626 0.587964534759521484
-0.406952202320098877 0.593047797679901123 -0.368518739938735962
-0.663356006145477295 -0.0313177295029163361 1
0.0632748007774353027 0.120308496057987213 -1
-0.402950823307037354 -0.597049176692962646 0.485434234142303467
0.867386698722839355 0.132613301277160645 -0.615971207618713379
-0.0663352161645889282 0.933664798736572266 0.417009532451629639
0.485249310731887817 -0.0577277466654777527 -1
0.610058724880218506 -0.389941245317459106 -0.540082931518554688
-0.687917828559875488 -0.312082201242446899 -0.127352774143218994
0.277082681655883789 0.722917318344116211 -0.405893892049789429
-0.861674308776855469 0.138325676321983337 0.30863189697265625
0.0436562150716781616 -0.0341715551912784576 -1
-0.135806828737258911 -0.0668148323893547058 -1
0.0825368687510490417 -0.718941867351531982 1
-0.304534375667572021 0.400989711284637451 -1
0.04309806227684021 0.144673332571983337 -1
0.0996130108833312988 0.223185017704963684 -1
0.671326935291290283 0.0336325392127037048 -1
0.152755364775657654 -0.106785662472248077 -1
0.114317081868648529 0.010324857197701931 1
-0.588674366474151611 0.0435309857130050659 -1
0.463981181383132935 0.222277000546455383 -1
0.0755746215581893921 -0.496992409229278564 1
0.352403014898300171 -0.647596955299377441 0.967172980308532715
-0.413887083530426025 -0.516257405281066895 -1
0.371651768684387207 -0.069430522620677948 -1
-0.447921305894851685 -0.552078723907470703 0.186973512172698975
-0.159201964735984802 -0.0278897099196910858 -1
-0.569811165332794189 -0.430188834667205811 0.189967826008796692
0.243633344769477844 -0.0220016557723283768 -1
0.129150480031967163 -0.491182804107666016 -1
0.543614089488983154 -0.456385880708694458 -0.229403689503669739
-0.933239161968231201 0.0667608529329299927 -0.821129918098449707
-0.0735160782933235168 -0.92648392915725708 0.973029434680938721
0.128301069140434265 -0.871698915958404541 0.824696362018585205
0.250635296106338501 0.600931406021118164 -1
0.991630494594573975 -0.0030181684996932745 -0.4203643798828125
-0.661421597003936768 -0.338578402996063232 -0.0492454618215560913
-0.192878559231758118 -0.807121455669403076 0.290320485830307007
-0.200318425893783569 0.799681544303894043 -0.986293792724609375
-0.0111679388210177422 0.314021170139312744 1
0.319139659404754639 -0.0394200421869754791 1
0.0669221207499504089 -0.933077871799468994 -0.203051567077636719
-0.0482676103711128235 -0.103534646332263947 1
0.688018202781677246 0.311981827020645142 0.935963690280914307
-0.770465314388275146 -0.229534700512886047 -0.538406193256378174
0.858610272407531738 -0.141389727592468262 0.869794547557830811
-0.558195173740386963 -0.441804826259613037 -0.912679493427276611
0.961951255798339844 0.0380487367510795593 -0.0793045163154602051
0.343743443489074707 -0.656256556510925293 -0.345200955867767334
-0.10871441662311554 0.552008986473083496 1
0.317228078842163086 -0.682771921157836914 0.0542605854570865631
0.0701697394251823425 0.0216989181935787201 -1
-0.303321540355682373 -0.411559194326400757 1
0.0257313046604394913 -0.0485772006213665009 -1
-0.105115048587322235 0.400230139493942261 1
0.00670624291524291039 -0.317171156406402588 -1
-0.32633635401725769 0.581871867179870605 -1
0.759195208549499512 -0.210610538721084595 1
0.451793462038040161 -0.320181190967559814 1
0.0961795896291732788 0.903820395469665527 0.511559128761291504
-0.156669437885284424 0.483043819665908813 -1
0.16925203800201416 0.83074796199798584 0.941068887710571289
0.551748096942901611 0.448251932859420776 0.55845034122467041
0.485188513994216919 0.514811456203460693 0.737464606761932373
0.174669086933135986 0.825330913066864014 0.741239011287689209
-0.0462354645133018494 -0.00833148881793022156 1
0.760595858097076416 0.23940412700176239 -0.766074240207672119
-0.196147322654724121 0.0522986911237239838 -1
0.257184743881225586 -0.0652289092540740967 -1
-0.638383448123931885 0.255414754152297974 -1
-0.096759401261806488 0.440797954797744751 1
0.623593270778656006 -0.214449360966682434 -1
-0.390767127275466919 0.234470531344413757 -1
-0.26335608959197998 -0.0415530689060688019 -1
0.214244157075881958 0.388480931520462036 1
0.015568549744784832 -0.0136215202510356903 1
-0.174295082688331604 0.82570493221282959 -0.978776693344116211
0.294835776090621948 0.705164253711700439 -0.810798048973083496
0.841708183288574219 0.158291831612586975 -0.756180286407470703
0.529140889644622803 -0.470859110355377197 0.130574554204940796
-0.0807133913040161133 0.919286608695983887 0.259414792060852051
0.0724299997091293335 0.308491945266723633 1
-0.0167802236974239349 -0.0784385427832603455 -1
-0.173541828989982605 -0.0175105687230825424 1
0.340017944574356079 -0.659982025623321533 -0.479695439338684082
0.691358983516693115 -0.175108283758163452 -1
0.0144970575347542763 -0.00530271138995885849 -1
0.00854527298361063004 -0.667255163192749023 1
-0.283691823482513428 0.716308176517486572 0.0379616729915142059
0.299208641052246094 0.00327562703751027584 1
0.232624396681785583 0.767375588417053223 -0.595287740230560303
-0.377956688404083252 0.573805868625640869 -1
-0.514161646366119385 -0.485838323831558228 0.503907918930053711
-0.116593137383460999 0.300821393728256226 -1
0.912154316902160645 -0.0878456532955169678 -0.337201058864593506
-0.131860643625259399 0.868139326572418213 0.0474008433520793915
0.341023892164230347 0.658976137638092041 0.185420304536819458
0.0696576312184333801 0.930342376232147217 0.930113554000854492
-0.245483160018920898 -0.754516839981079102 -0.975686490535736084
-0.0666589364409446716 0.379265546798706055 1
-0.644552290439605713 0.00183045957237482071 -1
-0.245530664920806885 -0.754469335079193115 -0.831614255905151367
-0.47242051362991333 -0.52757948637008667 -0.974971234798431396
0.757183253765106201 0.242816761136054993 -0.890313148498535156
0.816002428531646729 0.183997571468353271 0.865092813968658447
0.414039641618728638 0.58596038818359375 -0.924008965492248535
0.184789657592773438 0.441323220729827881 -1
-0.609299659729003906 0.291561394929885864 -1
0.448225229978561401 0.393809914588928223 -1
0.335277855396270752 -0.0988107994198799133 -1
-0.653594017028808594 0.304588764905929565 -1
-0.147612020373344421 -0.192911580204963684 -1
-0.742492139339447021 0.257507860660552979 0.66911691427230835
0.160146057605743408 0.839853942394256592 0.496016830205917358
-0.594883859157562256 -0.405116140842437744 -0.192429840564727783
0.626355230808258057 -0.373644798994064331 -0.0796047598123550415
0.228049740195274353 0.684538900852203369 -1
-0.121356725692749023 0.878643274307250977 -0.0741030797362327576
0.0322870910167694092 -0.21671256422996521 -1
-0.777780234813690186 0.193437054753303528 -1
0.16414448618888855 -0.0688781961798667908 -1
-0.383513391017913818 -0.616486608982086182 -0.920054852962493896
-0.0152247771620750427 -0.810125231742858887 -1
-0.266869604587554932 0.733130395412445068 0.413937419652938843
-0.472407072782516479 0.527592897415161133 0.287164479494094849
0.656501352787017822 -0.343498647212982178 -0.290127098560333252
0.732931435108184814 -0.117970399558544159 -1
-0.0260765347629785538 -0.412208050489425659 1
-0.00366178201511502266 -0.168014302849769592 1
-0.532317280769348145 0.140084207057952881 1
-0.122230008244514465 0.640209734439849854 -1
-0.158888131380081177 0.101481594145298004 1
-0.0780480951070785522 -0.652369916439056396 -1
0.928470432758331299 -0.0715295597910881042 -0.203101247549057007
0.373453468084335327 0.0533236265182495117 -1
0.202698469161987305 0.797301530838012695 -0.308772921562194824
0.835389554500579834 -0.164610415697097778 -0.980105578899383545
0.280902981758117676 -0.379191339015960693 1
-0.264725416898727417 -0.735274553298950195 -0.187570676207542419
0.189527437090873718 -0.0279531162232160568 1
0.00889449752867221832 0.632284045219421387 1
0.0854994431138038635 0.914500534534454346 0.968377232551574707
0.0198311060667037964 -0.193561956286430359 -1
0.964780330657958984 0.0352196581661701202 -0.387762457132339478
-0.067082822322845459 -0.221802443265914917 -1
-0.279242336750030518 0.602753579616546631 1
-0.218465343117713928 -0.781534671783447266 0.666110515594482422
0.0464391820132732391 -0.643796384334564209 -1
0.320687919855117798 -0.170499682426452637 1
0.0888666808605194092 -0.0469690412282943726 1
0.923617899417877197 0.0763821229338645935 -0.650745928287506104
-0.325677394866943359 0.514045834541320801 1
0.053287215530872345 0.0289091970771551132 -1
-0.523392677307128906 0.476607322692871094 0.0787545591592788696
-0.20962388813495636 0.733499705791473389 -1
0.325195521116256714 -0.674804449081420898 0.040183093398809433
0.364828228950500488 -0.635171771049499512 0.0476545915007591248
0.820526123046875 -0.179473847150802612 -0.674914181232452393
0.0872059091925621033 0.697350144386291504 1
0.429827064275741577 -0.570172905921936035 -0.639545738697052002
-0.214845448732376099 -0.0248659253120422363 -1
0.810084521770477295 0.189915463328361511 -0.99330979585647583
0.984273076057434082 -0.0157269369810819626 0.222856506705284119
0.619684278964996338 -0.380315721035003662 -0.191464096307754517
-0.887746453285217285 0.00608699722215533257 -1
0.742013633251190186 0.257986366748809814 -0.52725750207901001
0.674077391624450684 0.325922608375549316 0.152641028165817261
0.0904036909341812134 0.213579133152961731 1
-0.388970404863357544 0.611029624938964844 -0.694084405899047852
-0.54132610559463501 -0.458673924207687378 0.46021723747253418
0.554367899894714355 -0.445632070302963257 -0.101176083087921143
0.715722084045410156 0.122624672949314117 1
0.455242067575454712 0.544757962226867676 0.22493395209312439
-0.0328930839896202087 0.137746408581733704 -1
0.580061435699462891 -0.419938564300537109 0.834977328777313232
0.58908456563949585 0.41091543436050415 -0.334564507007598877
0.0522555485367774963 -0.0262578260153532028 -1
0.642814040184020996 -0.357185989618301392 0.597450137138366699
-0.722742021083831787 0.277258008718490601 0.927010059356689453
0.00822259951382875443 0.396776795387268066 -1
0.175245985388755798 0.309393882751464844 -1
0.602246105670928955 0.397753924131393433 0.541082322597503662
0.91991126537322998 0.0800887346267700195 -0.580031991004943848
0.370866477489471436 -0.629133522510528564 0.863267779350280762
0.727966189384460449 0.272033810615539551 -0.175696641206741333
-0.230441242456436157 0.769558727741241455 0.734826564788818359
-0.0388558842241764069 0.186780557036399841 -1
0.0454011298716068268 -0.0303860083222389221 -1
-0.0390269681811332703 -0.379615038633346558 1
0.878215134143829346 -0.121784858405590057 0.652626335620880127
0.98229825496673584 0.0177017543464899063 0.92861330509185791
0.914619624614715576 0.0853803530335426331 -0.641789078712463379
0.29861980676651001 -0.70138019323348999 0.886918008327484131
0.775594353675842285 0.190839990973472595 -1
-0.168766960501670837 0.831233024597167969 -0.873108983039855957
0.496374994516372681 0.248920276761054993 1
-0.0292018186300992966 0.101046420633792877 -1
0.645182311534881592 -0.354817688465118408 -0.280908972024917603
-0.627750694751739502 -0.372249335050582886 -0.1997174471616745
0.879630625247955322 0.120369374752044678 -0.00377422035671770573
-0.253422409296035767 0.47002100944519043 -1
-0.47498747706413269 -0.431752562522888184 -1
-0.34202238917350769 -0.0035918145440518856 1
0.600600123405456543 0.399399906396865845 -0.150090456008911133
0.0751672908663749695 -0.0231315065175294876 -1
-0.435616731643676758 -0.564383268356323242 -0.735249459743499756
-0.198520228266716003 -0.507442176342010498 -1
-0.339951634407043457 -0.232890784740447998 -1
0.0038704408798366785 -0.236987724900245667 -1
0.427470892667770386 -0.572529137134552002 0.366211026906967163
-0.284448623657226562 -0.0701189190149307251 -1
0.458229333162307739 0.276700377464294434 -1
0.109846599400043488 0.23581540584564209 1
-0.0263327360153198242 -0.973667263984680176 -0.709918439388275146
-0.366209119558334351 -0.00651096366345882416 -1
-0.213809609413146973 -0.04503646120429039 1
-0.102995693683624268 0.835116684436798096 -1
-0.0285530220717191696 -0.114857830107212067 1
0.0169532932341098785 -0.918343186378479004 -1
-0.0243822596967220306 0.184833943843841553 -1
-0.0410815253853797913 -0.0333009026944637299 -1
0.0256672482937574387 0.293302744626998901 -1
0.0183747299015522003 -0.976829230785369873 -1
0.552582859992980957 -0.256655752658843994 -1
-0.344279706478118896 0.487817198038101196 1
0.408223390579223633 -0.591776609420776367 0.11634518951177597
-0.249390885233879089 0.750609099864959717 -0.492182016372680664
0.464529663324356079 0.535470306873321533 0.428986787796020508
-0.328902482986450195 -0.671097517013549805 0.45928579568862915
0.350868880748748779 -0.527163684368133545 1
-0.382298290729522705 -0.504292190074920654 -1
-0.536069035530090332 0.463930964469909668 -0.154626458883285522
0.13028407096862793 -0.86971592903137207 -0.319146066904067993
0.476589947938919067 0.167881742119789124 -1
0.528285622596740723 -0.471714407205581665 0.565194845199584961
-0.202685251832008362 -0.0464908070862293243 -1
0.0443059541285037994 -0.955694019794464111 -0.93458479642868042
-0.488779723644256592 0.423641175031661987 1
0.0259638521820306778 -0.974036157131195068 -0.562326014041900635
-0.495119839906692505 0.137994065880775452 -1
-0.938940048217773438 -0.0610599778592586517 -0.413875550031661987
0.68998563289642334 -0.310014396905899048 -0.375668734312057495
0.422810345888137817 -0.577189624309539795 -0.171734929084777832
-0.122248172760009766 -0.194842755794525146 1
-0.123709432780742645 0.876290559768676758 -0.156165167689323425
0.51134955883026123 -0.48865044116973877 0.806710720062255859
0.550682127475738525 0.399067044258117676 -1
0.123778492212295532 -0.876221537590026855 0.523691356182098389
-0.205629214644432068 -0.794370770454406738 -0.568799316883087158
0.910197079181671143 -0.0898029357194900513 0.256851494312286377
-0.0276123080402612686 0.0332999899983406067 1
-0.0912747383117675781 -0.13482367992401123 -1
0.730260491371154785 -0.269739508628845215 -0.797460079193115234
-0.400143533945083618 0.358392894268035889 -1
0.0444820858538150787 0.392121493816375732 1
-0.00745753664523363113 -0.239605545997619629 -1
-0.5943412184715271 -0.380588293075561523 -1
0.619741618633270264 0.23718792200088501 1
-0.3510856032371521 -0.6489143967628479 0.281974524259567261
-0.0447922833263874054 0.00823018420487642288 -1
0.831838846206665039 0.168161138892173767 -0.0476320907473564148
0.302466154098510742 0.0118372011929750443 -1
0.229057848453521729 -0.0161728858947753906 1
0.400259196758270264 -0.599740803241729736 -0.819894552230834961
-0.163465887308120728 0.197972029447555542 -1
-0.499456286430358887 0.500543713569641113 0.976379573345184326
-0.238842681050300598 -0.761157333850860596 0.22593119740486145
0.189879387617111206 0.150688007473945618 -1
0.0388139598071575165 0.0357519537210464478 -1
-0.379796624183654785 0.620203375816345215 0.897599577903747559
0.106951907277107239 0.337417721748352051 1
0.139003470540046692 -0.860996544361114502 -0.0136840362101793289
0.515643477439880371 -0.484356492757797241 0.907578945159912109
-0.0090702669695019722 0.990929722785949707 -0.0561412274837493896
-0.314322322607040405 -0.392389804124832153 -1
-0.205135226249694824 -0.699267446994781494 -1
-0.673487663269042969 0.135607719421386719 1
-0.00541237089782953262 0.0572302788496017456 -1
0.440200954675674438 0.202633261680603027 -1
0.0288311261683702469 0.331794470548629761 -1
0.608609855175018311 0.178619399666786194 -1
0.845490217208862305 0.154509812593460083 -0.373123258352279663
-0.0858732089400291443 -0.0524302273988723755 -1
0.74843144416809082 -0.25156855583190918 0.980157732963562012
-0.00202054926194250584 0.354539602994918823 1
-0.0972150042653083801 -0.902785003185272217 0.732223391532897949
-0.988610208034515381 -0.011389818973839283 0.910264194011688232
-0.303557872772216797 -0.194183006882667542 -1
0.616262912750244141 -0.0926924422383308411 -1
-0.795455634593963623 0.204544365406036377 0.816181063652038574
-0.270217448472976685 0.25323978066444397 1
0.69562685489654541 0.304373174905776978 0.65502464771270752
-0.189404278993606567 0.213110968470573425 -1
0.265499323606491089 0.172812849283218384 1
-0.271570324897766113 0.728429675102233887 -0.208311274647712708
-0.726631879806518555 -0.273368120193481445 -0.68738555908203125
0.643003165721893311 0.356996864080429077 -0.60844266414642334
-0.537139177322387695 -0.219299003481864929 -1
0.565094649791717529 -0.14981764554977417 1
-0.351422011852264404 -0.482371270656585693 -1
0.375671297311782837 0.455917686223983765 -1
-0.164828792214393616 0.106886796653270721 -1
0.0328698903322219849 0.278084158897399902 1
0.0777518078684806824 -0.922248184680938721 0.409392267465591431
0.741991937160491943 0.258008062839508057 -0.905184030532836914
-0.362820953130722046 -0.637179076671600342 -0.671536862850189209
0.196513518691062927 0.0113725000992417336 1
0.252570360898971558 -0.747429609298706055 -0.811280012130737305
0.934765040874481201 0.0652349516749382019 -0.934762775897979736
-0.0124090658500790596 0.322888702154159546 -1
0.34276968240737915 -0.65723031759262085 0.95703357458114624
-0.541396439075469971 -0.458603531122207642 0.178502008318901062
0.143363669514656067 0.0070315282791852951 -1
0.987230896949768066 0.0127690741792321205 0.241533160209655762
0.868047654628753662 0.131952360272407532 -0.31863325834274292
-0.107857689261436462 0.0828401446342468262 -1
0.144779011607170105 0.689665734767913818 -1
0.215578198432922363 -0.784421801567077637 -0.0826151743531227112
-0.234768405556678772 -0.203676000237464905 1
0.510658800601959229 0.129992455244064331 -1
-0.333833426237106323 -0.540531396865844727 1
0.111531071364879608 0.888468921184539795 0.640369594097137451
0.0130585916340351105 -0.0581093914806842804 -1
0.675351381301879883 0.324648618698120117 0.506119251251220703
0.271176725625991821 0.245862126350402832 -1
-0.639345526695251465 0.360654473304748535 -0.719007313251495361
0.388581842184066772 0.243620947003364563 -1
0.0620420053601264954 0.937958002090454102 -0.782644510269165039
-0.0525969676673412323 -0.175972133874893188 -1
0.128044813871383667 0.871955156326293945 -0.5279807448387146
-0.00866355095058679581 0.349881350994110107 -1
-0.115182995796203613 -0.56782221794128418 -1
0.813344955444335938 0.0535839460790157318 -1
-0.127997070550918579 0.250679820775985718 -1
0.123330660164356232 -0.876669347286224365 0.918586790561676025
0.145691856741905212 -0.854308128356933594 0.936635017395019531
-0.137745842337608337 0.590798676013946533 -1
0.664779245853424072 0.335220783948898315 -0.141865596175193787
0.47842821478843689 -0.521571815013885498 0.578904330730438232
-0.599540114402770996 0.400459915399551392 0.594453871250152588
-0.623580336570739746 0.376419663429260254 0.0334647633135318756
0.232188090682029724 -0.280691087245941162 1
0.143762558698654175 -0.856237411499023438 -0.0569730512797832489
-0.303383439779281616 -0.444488048553466797 1
0.00925700739026069641 -0.110803000628948212 -1
0.461973994970321655 -0.538025975227355957 0.21427309513092041
0.280118107795715332 0.719881892204284668 -0.193803772330284119
-0.0737424120306968689 -0.538897037506103516 1
0.764317035675048828 0.235682964324951172 -0.487121403217315674
0.540897667407989502 0.45910230278968811 0.664510548114776611
-0.0763448402285575867 0.172116532921791077 -1
-0.944727003574371338 0.055273003876209259 0.779189705848693848
-3.20466351695358753e-05 0.260104119777679443 1
-0.761446058750152588 0.238553956151008606 -0.121143214404582977
-0.210774451494216919 -0.789225578308105469 0.970003485679626465
0.0807983577251434326 0.91920161247253418 0.971736371517181396
-0.378550112247467041 -0.621449887752532959 -0.472292721271514893
-0.846981227397918701 -0.153018757700920105 0.661338627338409424
0.322778820991516113 -0.677221179008483887 0.847218155860900879
-0.210786715149879456 -0.744014203548431396 -1
0.154984176158905029 -0.192096158862113953 1
0.941759407520294189 0.0582405701279640198 0.434435516595840454
0.350926309823989868 -0.376658022403717041 -1
0.478663444519042969 0.521336555480957031 0.23996126651763916
-0.725697100162506104 0.274302870035171509 -0.578518807888031006
-0.0110284937545657158 -0.290350407361984253 -1
0.111793793737888336 0.647495627403259277 -1
0.194473549723625183 0.805526435375213623 -0.235292196273803711
-0.273979157209396362 -0.72602081298828125 -0.182684198021888733
0.0238574109971523285 0.0653626173734664917 -1
-0.695472359657287598 -0.304527640342712402 -0.679788351058959961
-0.054625440388917923 -0.945374548435211182 0.593626976013183594
-0.39327847957611084 0.296829074621200562 1
-0.394719809293746948 -0.605280160903930664 -0.845982193946838379
0.392659366130828857 -0.333758145570755005 -1
0.885149121284484863 0.114850863814353943 -0.767160415649414062
0.350054711103439331 -0.649945259094238281 -0.919484138488769531
-0.850734710693359375 -0.149265319108963013 0.789782583713531494
0.0351175889372825623 -0.022628268226981163 1
0.385665625333786011 0.433144509792327881 -1
-0.79516369104385376 0.204836294054985046 0.198292866349220276
-0.130561605095863342 0.869438409805297852 0.42071080207824707
0.763543009757995605 0.236456990242004395 0.435308694839477539
-0.804399192333221436 -0.195600792765617371 -0.853803873062133789
0.844762027263641357 -0.15523800253868103 0.77936786413192749
0.0332579053938388824 0.0249138195067644119 -1
-0.196240708231925964 0.803759276866912842 0.193832457065582275
0.7225075364112854 0.237131863832473755 -1
0.0447933375835418701 0.805713534355163574 1
0.158059418201446533 -0.290540784597396851 -1
-0.366518199443817139 -0.199441879987716675 -1
-0.077543891966342926 0.0518406443297863007 -1
-0.0802880749106407166 0.827405869960784912 -1
-0.781814694404602051 -0.218185335397720337 0.0209685452282428741
-0.211699634790420532 -0.788300395011901855 -0.727548658847808838
-0.242750361561775208 0.250512093305587769 1
0.983675360679626465 -0.0163058731704950333 0.0763073563575744629
-0.141558021306991577 0.0861474201083183289 -1
0.0458416454493999481 0.13143467903137207 -1
0.757816612720489502 -0.242183372378349304 0.76623225212097168
0.0207700822502374649 0.614685118198394775 -1
-0.263528198003768921 -0.481057435274124146 -1
0.0107929836958646774 0.0373404882848262787 -1
-0.620929837226867676 0.137546434998512268 -1
0.26314660906791687 -0.690239071846008301 1
0.653183519840240479 -0.346816450357437134 0.486186236143112183
-0.245417401194572449 0.754582583904266357 -0.373289167881011963
0.282527387142181396 -0.32493889331817627 -1
-0.498137027025222778 -0.501862943172454834 0.36822807788848877
-0.237120509147644043 -0.0122195631265640259 1
0.0686077699065208435 0.912439048290252686 -1
0.695542454719543457 -0.304457575082778931 0.304534554481506348
-0.622207105159759521 0.377792894840240479 0.987339556217193604
-0.63894420862197876 0.161558523774147034 1
0.915564775466918945 -0.0844352468848228455 -0.59593123197555542
-0.0757774785161018372 0.92422252893447876 0.782450437545776367
0.381168484687805176 0.580925166606903076 -1
0.0467534363269805908 -0.847618401050567627 -1
0.254326790571212769 -0.504831910133361816 -1
-0.100077114999294281 -0.0359852053225040436 -1
-0.00625224225223064423 -0.800879180431365967 -1
-0.140982687473297119 0.107082940638065338 1
0.194948881864547729 -0.805051088333129883 0.213327571749687195
-0.291533440351486206 -0.397435873746871948 1
-0.103300034999847412 0.896699965000152588 -0.567840576171875
0.916136801242828369 -0.0838631689548492432 -0.0636710301041603088
0.172718122601509094 0.336849451065063477 -1
-0.287997007369995117 0.300047427415847778 1
0.392461985349655151 0.607538044452667236 0.955452799797058105
0.030343400314450264 -0.0723570436239242554 1
0.861066997051239014 0.138932973146438599 -0.209668621420860291
0.644504666328430176 0.355495333671569824 0.484007298946380615
-0.863845705986022949 0.136154323816299438 0.0229322090744972229
-0.353622913360595703 -0.646377086639404297 -0.227793022990226746
-0.259366810321807861 0.740633189678192139 -0.906700670719146729
0.845311343669891357 0.154688641428947449 0.896155834197998047
-0.2672291100025177 0.12429027259349823 -1
0.0654242709279060364 -0.934575736522674561 -0.581476211547851562
-0.706045627593994141 0.293954372406005859 -0.415218621492385864
-0.312277823686599731 -0.0852906852960586548 1
-0.23836149275302887 -0.677697837352752686 -1
-0.252560734748840332 -0.620202183723449707 1
0.843549489974975586 0.156450480222702026 0.931267857551574707
-0.117034107446670532 0.882965922355651855 0.0732816532254219055
0.635024011135101318 0.364975959062576294 0.611561238765716553
0.690769016742706299 -0.309230983257293701 0.425608128309249878
0.271815121173858643 0.00418992247432470322 1
0.63667452335357666 -0.327152013778686523 -1
-0.855153799057006836 0.144846200942993164 -0.319844335317611694
0.109647110104560852 0.890352904796600342 -0.137602970004081726
0.770162045955657959 -0.229837968945503235 0.011803923174738884
0.160226151347160339 0.839773833751678467 0.909181892871856689
0.74881136417388916 0.251188606023788452 0.839894294738769531
0.191468134522438049 0.0066448659636080265 1
0.00480903126299381256 0.614721834659576416 -1
0.00660708220675587654 -0.00609728554263710976 1
-0.0391186028718948364 -0.960881412029266357 0.621129870414733887
-0.92076343297958374 0.079236544668674469 0.255502700805664062
0.627343356609344482 0.37265661358833313 -0.881721079349517822
-0.0229841191321611404 0.770149469375610352 -1
0.796734154224395752 -0.0465203225612640381 -1
-0.117339134216308594 -0.882660865783691406 0.903208613395690918
0.514804065227508545 -0.485195964574813843 -0.495327025651931763
0.0757372379302978516 -0.924262762069702148 0.188545510172843933
0.415656834840774536 -0.498453080654144287 1
0.37057727575302124 0.62942272424697876 0.65531158447265625
0.142771452665328979 -0.857228517532348633 -0.163879901170730591
-0.13207457959651947 -0.0472502894699573517 1
0.0148222176358103752 0.870661377906799316 -1
0.474016517400741577 -0.525983452796936035 -0.306834280490875244
-0.55795896053314209 0.44204103946685791 0.304433047771453857
0.816340863704681396 -0.0194559283554553986 1
-0.394399136304855347 -0.605600833892822266 -0.436651796102523804
0.1797209233045578 0.429245948791503906 -1
-0.0545371472835540771 0.276935100555419922 -1
-0.456982970237731934 0.436511367559432983 1
0.0369240306317806244 0.179717406630516052 1
-0.025811322033405304 0.974188685417175293 0.965259134769439697
-0.871908903121948242 -0.128091096878051758 -0.911385476589202881
0.99585270881652832 -0.00414731539785861969 -0.796302556991577148
-0.396347761154174805 0.603652238845825195 -0.569726049900054932
0.882865846157073975 0.117134168744087219 -0.340796679258346558
-0.0791774466633796692 -0.624564945697784424 -1
0.276271075010299683 -0.248245313763618469 -1
-0.343865245580673218 -0.643197834491729736 -1
0.219992980360984802 -0.780007004737854004 -0.63289797306060791
0.0614184960722923279 -0.143406614661216736 -1
-0.832298576831817627 0.167701408267021179 -0.654289662837982178
0.531407356262207031 0.468592613935470581 -0.942330718040466309
-0.0335537083446979523 -0.0336667299270629883 1
-0.342445850372314453 0.0893107205629348755 -1
-0.640212774276733398 -0.359787195920944214 0.427977979183197021
0.427553713321685791 0.572446286678314209 0.866057693958282471
0.162833616137504578 -0.0147484615445137024 1
0.0242858715355396271 0.975714147090911865 0.995396912097930908
0.303620398044586182 0.139214202761650085 1
0.126096218824386597 0.0525230914354324341 -1
0.536050140857696533 -0.463949859142303467 -0.0787858366966247559
0.179634034633636475 -0.188612625002861023 -1
0.0656798183917999268 -0.934320151805877686 0.540451526641845703
-0.117079615592956543 0.0979567542672157288 1
-0.0508018359541893005 -0.16949106752872467 -1
-0.468475699424743652 0.531524300575256348 -0.000188774691196158528
0.542097628116607666 -0.140476137399673462 1
-0.686817944049835205 -0.313182055950164795 -0.676363289356231689
0.00568943284451961517 0.104292556643486023 -1
-0.958281099796295166 -0.0417188890278339386 0.936855018138885498
0.288211017847061157 0.702284634113311768 -1
-0.978471219539642334 -0.0215287767350673676 -0.270486593246459961
0.47695276141166687 0.407979130744934082 -1
-0.365019142627716064 0.418351680040359497 -1
-0.313524693250656128 -0.0640830546617507935 1
-0.380273193120956421 0.619726836681365967 -0.269443929195404053
0.410129427909851074 0.00679467106238007545 -1
0.751887917518615723 -0.248112112283706665 -0.507496774196624756
0.118200451135635376 0.421567291021347046 1
-0.0701940581202507019 0.0621772482991218567 -1
0.28970751166343689 -0.710292518138885498 0.553520083427429199
-0.423650205135345459 -0.576349794864654541 -0.574104130268096924
-0.712945282459259033 0.287054717540740967 -0.14570927619934082
0.00371127203106880188 -0.754348814487457275 -1
0.343821853399276733 0.656178116798400879 -0.754330873489379883
-0.756313443183898926 0.243686556816101074 0.01276373490691185
0.310932368040084839 -0.689067602157592773 -0.349201500415802002
0.735817134380340576 -0.120158635079860687 1
-0.25381430983543396 0.577401876449584961 -1
0.987598061561584473 -0.00975370313972234726 -0.578283488750457764
0.0102616399526596069 0.0826926529407501221 1
0.300867825746536255 0.699132204055786133 0.993135213851928711
-0.0699307918548583984 0.930069208145141602 0.998095810413360596
-0.114664644002914429 0.562702357769012451 -1
-0.131507158279418945 -0.868492841720581055 0.399313151836395264
0.139313817024230957 -0.221292510628700256 -1
-0.595404267311096191 -0.163402259349822998 1
-0.792279362678527832 -0.207720637321472168 0.936315238475799561
-0.0440546534955501556 0.298313558101654053 -1
0.274126648902893066 0.725873351097106934 -0.312712788581848145
-0.91588824987411499 -0.0841117724776268005 0.802802383899688721
0.032323937863111496 0.171308964490890503 1
