ply
format ascii 1.0
element vertex 739
property float x
property float y
property float z
end_header
0.0998246297240257263 0.0156121468171477318 -0.990017175674438477
-0.00477666221559047699 -0.543970584869384766 -0.832275271415710449
-0.0708918869495391846 -0.278734743595123291 -0.932725906372070312
-0.991026461124420166 -0.0045033581554889679 -0.0463381260633468628
-0.0569535084068775177 -0.373346179723739624 -0.900042057037353516
-0.793239951133728027 -0.170192763209342957 0.252118676900863647
-0.113960385322570801 0.876546263694763184 0.133500039577484131
0.116021923720836639 0.83907771110534668 0.288628190755844116
-0.645260453224182129 0.271075338125228882 -0.395548760890960693
-0.729928255081176758 0.240399077534675598 -0.234897494316101074
-0.476219683885574341 0.246198683977127075 -0.690580189228057861
-0.212562277913093567 -0.706214368343353271 -0.390870153903961182
-0.206094175577163696 0.563008606433868408 0.637251794338226318
-0.109623774886131287 0.878658950328826904 0.14324362576007843
-0.369740873575210571 -0.616770148277282715 -0.139827534556388855
-0.420722872018814087 0.573955357074737549 0.03781132772564888
0.373558282852172852 -0.0385450124740600586 -0.906328976154327393
-0.104247957468032837 0.496254920959472656 -0.793862283229827881
-0.417790412902832031 0.192515239119529724 -0.787661492824554443
0.194972425699234009 0.169783532619476318 -0.929130256175994873
-0.258932381868362427 -0.654231250286102295 -0.400746613740921021
0.582260072231292725 0.369660139083862305 -0.295432478189468384
-0.603451251983642578 0.00805734004825353622 0.789630353450775146
0.0968600660562515259 -0.677111804485321045 -0.625934123992919922
-0.633910298347473145 -0.346832156181335449 0.176279664039611816
0.346760720014572144 -0.415208667516708374 -0.640984714031219482
-0.182733669877052307 -0.202676877379417419 0.917824864387512207
-0.624322712421417236 0.369342029094696045 0.0694169923663139343
-0.0166628193110227585 0.959160327911376953 -0.208340391516685486
0.181970387697219849 -0.423753827810287476 0.793395578861236572
-0.649141430854797363 -0.339954525232315063 -0.118807196617126465
0.0855966508388519287 0.907598495483398438 -0.0705394446849822998
0.603084087371826172 -0.387804239988327026 -0.107720546424388885
-0.125126942992210388 -0.0428119264543056488 0.981373488903045654
0.891566455364227295 -0.101991325616836548 0.0727510526776313782
-0.133819490671157837 -0.595763146877288818 -0.681596457958221436
0.812550604343414307 -0.138504981994628906 -0.293935269117355347
-0.499847531318664551 0.42917168140411377 -0.368183135986328125
-0.063997901976108551 0.784420192241668701 0.523547232151031494
-0.34085923433303833 -0.533382415771484375 0.484114587306976318
0.213831260800361633 0.273214519023895264 -0.870238602161407471
-0.131480783224105835 -0.589904367923736572 0.687025129795074463
0.111787132918834686 -0.338511347770690918 -0.887935161590576172
-0.539573252201080322 0.0981668531894683838 -0.764306187629699707
-0.00353773590177297592 0.93376767635345459 -0.334940850734710693
0.198739379644393921 -0.424600303173065186 -0.776818692684173584
0.453891396522521973 -0.540127277374267578 0.0583800822496414185
-0.681764125823974609 0.117592550814151764 -0.600375473499298096
0.419802486896514893 0.146996572613716125 0.818733036518096924
0.0780242383480072021 0.806841790676116943 0.460113853216171265
-0.427446156740188599 -0.4036293625831604 0.548409223556518555
0.21631777286529541 -0.171812057495117188 -0.917873978614807129
0.457461714744567871 -0.415600568056106567 -0.478495955467224121
0.567342519760131836 0.401604950428009033 0.227957054972648621
0.520748019218444824 0.466597467660903931 -0.129634469747543335
-0.718812108039855957 0.279266893863677979 -0.0199131425470113754
-0.383619785308837891 -0.248598635196685791 -0.770192325115203857
0.126047089695930481 0.291375398635864258 -0.903767406940460205
0.920090615749359131 0.0281446892768144608 -0.305445551872253418
-0.0395358279347419739 -0.68692094087600708 -0.680646359920501709
-0.313931018114089966 0.650161862373352051 -0.262355387210845947
-0.645957767963409424 0.254408717155456543 0.42509809136390686
0.460352003574371338 -0.494997143745422363 0.287535130977630615
0.563358485698699951 -0.070332162082195282 0.771952509880065918
-0.583595395088195801 0.411133557558059692 0.036229938268661499
0.949346303939819336 0.050105120986700058 -0.00568645726889371872
-0.988549947738647461 -0.000286623573629185557 0.0306628923863172531
-0.386550456285476685 0.403463900089263916 0.607273459434509277
0.0141050377860665321 -0.630982279777526855 -0.760453104972839355
-0.129517853260040283 0.853338837623596191 -0.15739913284778595
0.182480365037918091 0.576085567474365234 -0.645252585411071777
-0.356703728437423706 0.206417769193649292 -0.821760714054107666
0.551047861576080322 -0.313511759042739868 -0.494793951511383057
-0.524442195892333984 -0.164131894707679749 0.718800842761993408
0.157055824995040894 -0.22013556957244873 -0.923573791980743408
-0.498367190361022949 0.470974862575531006 0.226228103041648865
-0.681621432304382324 -0.29552161693572998 0.192049622535705566
0.200474709272384644 -0.255750954151153564 0.889155030250549316
-0.233935505151748657 -0.672158896923065186 -0.419955998659133911
0.480751395225524902 0.349220305681228638 -0.555712521076202393
0.69688260555267334 -0.180579423904418945 0.476839631795883179
-0.0493565239012241364 -0.673977851867675781 0.685137391090393066
0.376664519309997559 0.57419198751449585 -0.29460597038269043
0.870971977710723877 0.107741042971611023 0.185171142220497131
-0.0174795780330896378 0.951149344444274902 -0.234724923968315125
0.107208698987960815 -0.195039257407188416 0.951493680477142334
-0.388244211673736572 -0.606812179088592529 0.0260191969573497772
-0.356155216693878174 0.616262137889862061 -0.221970215439796448
0.619459450244903564 -0.225149691104888916 -0.533035337924957275
-0.58280479907989502 0.0390865877270698547 -0.777899563312530518
0.00959417317062616348 -0.488675385713577271 0.863184154033660889
0.247529000043869019 -0.604066967964172363 -0.515329480171203613
0.951918244361877441 -0.040958743542432785 0.0939816311001777649
-0.674800336360931396 -0.241156116127967834 -0.393157541751861572
-0.440298020839691162 0.222911715507507324 0.743364870548248291
0.623390257358551025 0.172756031155586243 0.598482847213745117
-0.19169171154499054 -0.774669766426086426 -0.25619092583656311
-0.224430263042449951 -0.538873016834259033 -0.640074253082275391
0.383626729249954224 0.354988127946853638 0.670339107513427734
-0.239372372627258301 0.559986472129821777 -0.594099879264831543
-0.407573580741882324 -0.562356829643249512 -0.237352833151817322
0.69834589958190918 -0.260425955057144165 -0.267936557531356812
-0.091199144721031189 -0.898345470428466797 -0.108381159603595734
0.709488749504089355 -0.261754721403121948 -0.229230910539627075
-0.339900553226470947 0.122189953923225403 0.886780619621276855
-0.602423727512359619 0.385946780443191528 0.142859160900115967
-0.471176236867904663 0.456357568502426147 0.363726675510406494
-0.12540687620639801 0.181904047727584839 -0.94844740629196167
0.5823974609375 0.376583844423294067 -0.276245236396789551
-0.68401724100112915 0.263974696397781372 -0.304257780313491821
0.10838654637336731 -0.782161176204681396 -0.451074481010437012
-0.608754575252532959 -0.324593156576156616 -0.353598922491073608
-0.540499448776245117 -0.0968781635165214539 -0.766341924667358398
0.454285144805908203 0.318216592073440552 -0.629945695400238037
0.0774726346135139465 0.91691136360168457 -0.0860987827181816101
0.601018071174621582 0.330879777669906616 -0.349839776754379272
0.683965206146240234 0.215290829539299011 -0.42828744649887085
0.017559124156832695 0.952538430690765381 0.220484063029289246
0.124565795063972473 0.775806784629821777 -0.426147192716598511
0.406467139720916748 -0.376899093389511108 -0.614153921604156494
-0.212295070290565491 -0.714408338069915771 -0.363954663276672363
-0.592340230941772461 -0.383549362421035767 -0.21026119589805603
-0.0517765209078788757 -0.601890861988067627 -0.754184544086456299
0.0424017608165740967 -0.417915850877761841 -0.883110165596008301
0.904358804225921631 0.0326168052852153778 -0.336041808128356934
-0.329140275716781616 -0.654875099658966064 -0.165697470307350159
-0.886217892169952393 -0.0977837368845939636 -0.165839672088623047
0.835873126983642578 -0.11874718964099884 -0.281924545764923096
-0.105765253305435181 -0.882001698017120361 -0.127027511596679688
0.0462914332747459412 -0.824600160121917725 -0.482656776905059814
0.156671956181526184 -0.832095503807067871 -0.11643701046705246
0.165199503302574158 -0.750972151756286621 -0.395863354206085205
0.552881419658660889 0.4125557541847229 -0.245478957891464233
0.420891493558883667 0.0888705700635910034 0.855860054492950439
0.485411882400512695 0.30733683705329895 -0.60765153169631958
-0.0700362175703048706 -0.515616297721862793 0.806460857391357422
0.444668561220169067 0.536083817481994629 0.176236152648925781
0.136559709906578064 0.330445021390914917 0.883691966533660889
0.711189150810241699 -0.222969412803649902 -0.350866943597793579
-0.646470308303833008 -0.216417938470840454 -0.497997641563415527
-0.551193296909332275 0.320436388254165649 -0.481242001056671143
0.162283733487129211 -0.0745284110307693481 0.9679604172706604
-0.163079902529716492 -0.516021430492401123 -0.732789933681488037
0.679793715476989746 0.144784599542617798 -0.559897899627685547
0.468600928783416748 0.281423896551132202 -0.655962765216827393
-0.26917538046836853 -0.275659680366516113 0.833030045032501221
-0.272196799516677856 0.28013339638710022 -0.829814434051513672
0.134261593222618103 0.731065034866333008 0.499307602643966675
-0.903144001960754395 -0.0807339698076248169 -0.167121902108192444
0.762446284294128418 -0.159029334783554077 -0.385696619749069214
0.0111730387434363365 0.953186750411987305 0.248056948184967041
0.180786564946174622 -0.776818692684173584 -0.279984354972839355
0.48662838339805603 0.484055221080780029 -0.232694059610366821
-0.599004566669464111 0.291626840829849243 0.447089821100234985
-8.28036718303337693e-05 0.745344936847686768 -0.658308625221252441
-0.90141063928604126 0.0935227498412132263 0.0298553053289651871
0.110309615731239319 0.257805019617080688 -0.926587462425231934
0.789364993572235107 -0.193778336048126221 -0.17473679780960083
0.421667665243148804 0.304266095161437988 -0.681222259998321533
-0.140757277607917786 -0.0831758081912994385 -0.974459052085876465
-0.469203740358352661 0.352653026580810547 -0.56438744068145752
0.453589588403701782 -0.0113703906536102295 0.885022938251495361
-0.440877705812454224 0.512005984783172607 -0.292814433574676514
-0.615524351596832275 0.381537646055221558 -0.0365223698318004608
-0.112864390015602112 -0.870417296886444092 -0.154770568013191223
-0.0465823337435722351 0.706900656223297119 0.655940115451812744
0.190372034907341003 0.0523940660059452057 -0.968206048011779785
-0.0763828456401824951 0.803870916366577148 0.470533072948455811
0.331501126289367676 -0.507004499435424805 0.537757575511932373
-0.310140162706375122 -0.463179409503936768 0.631206631660461426
0.13207930326461792 0.462821602821350098 -0.798043131828308105
-0.666856944561004639 -0.260274201631546021 0.364636272192001343
-0.222015097737312317 -0.759795188903808594 -0.163871645927429199
0.0290865376591682434 0.534252941608428955 -0.82159799337387085
0.069569714367389679 -0.680117547512054443 -0.655066967010498047
0.273188889026641846 0.387138903141021729 -0.749213755130767822
-0.566902279853820801 0.423269152641296387 0.134968727827072144
0.197883784770965576 -0.505719304084777832 -0.708236217498779297
-0.249624118208885193 -0.701904654502868652 0.30427318811416626
0.544430255889892578 0.430347651243209839 -0.214006915688514709
0.226214617490768433 -0.639250576496124268 -0.493058115243911743
0.621846616268157959 0.306124687194824219 -0.371713966131210327
-0.332386046648025513 -0.010953991673886776 -0.934813201427459717
-0.251218557357788086 0.406070441007614136 -0.75148165225982666
-0.702298283576965332 -0.273623824119567871 0.197398975491523743
-0.243943318724632263 0.234585300087928772 -0.874340236186981201
-0.831115484237670898 -0.0354711301624774933 -0.490908563137054443
0.141572177410125732 0.809926092624664307 -0.296579092741012573
-0.261214643716812134 -0.710660994052886963 0.215127646923065186
-0.0301254075020551682 0.572283029556274414 -0.794384479522705078
0.620790839195251465 0.367476373910903931 -0.123932994902133942
0.205034822225570679 0.141693532466888428 0.933485567569732666
0.189629644155502319 0.754796743392944336 0.325566023588180542
-0.792689085006713867 -0.179409638047218323 0.214150428771972656
0.29145437479019165 0.0357609540224075317 -0.940166950225830078
0.588216841220855713 0.407074272632598877 -0.0488128624856472015
0.123567186295986176 -0.861747920513153076 -0.152224019169807434
-0.0749399960041046143 -0.18312390148639679 -0.963126838207244873
-0.588229000568389893 0.124541938304901123 0.695367515087127686
0.243893995881080627 0.47411876916885376 -0.695969104766845703
0.288206547498703003 0.611251235008239746 -0.436376452445983887
0.85430610179901123 -0.140363976359367371 0.0380661971867084503
-0.00942593347281217575 -0.895308375358581543 -0.420776784420013428
0.330855816602706909 -0.659086704254150391 0.135971471667289734
-0.82294231653213501 -0.151100188493728638 0.205633953213691711
0.132950454950332642 0.861293554306030273 0.051352817565202713
0.294228345155715942 0.344185948371887207 0.767377912998199463
0.0104794790968298912 0.90852886438369751 -0.382135242223739624
-0.0237713363021612167 0.914421617984771729 0.339647471904754639
-0.63630300760269165 0.196154326200485229 0.546428263187408447
0.742702901363372803 0.251553148031234741 0.0509771183133125305
0.648911833763122559 0.338490337133407593 -0.130589649081230164
0.226928457617759705 -0.480733215808868408 -0.704781115055084229
0.73450767993927002 0.257342249155044556 -0.0844843164086341858
-0.0815595537424087524 0.846112906932830811 -0.372720837593078613
-0.473672181367874146 0.303170680999755859 0.6261557936668396
0.0913241133093833923 -0.630995273590087891 0.686120331287384033
0.381334543228149414 0.587152481079101562 -0.24628053605556488
-0.81389307975769043 -0.00446150405332446098 0.566645562648773193
0.60088193416595459 0.375671565532684326 -0.196386665105819702
0.0571879521012306213 -0.702624380588531494 0.649810492992401123
-0.062032114714384079 0.719411790370941162 0.619559824466705322
0.499059140682220459 -0.187247768044471741 0.720996499061584473
0.907064378261566162 -0.0906453356146812439 -0.0237413551658391953
0.473759323358535767 0.0898931249976158142 0.820781290531158447
0.792619705200195312 -0.181562557816505432 -0.211053416132926941
-0.599515736103057861 -0.391856551170349121 -0.0894352719187736511
0.451864182949066162 0.485859155654907227 0.340708315372467041
-0.510883331298828125 -0.422515660524368286 -0.345760554075241089
-0.741261124610900879 0.253852397203445435 -0.0815862491726875305
-0.897243499755859375 -0.0333589017391204834 -0.362848877906799316
-0.538144350051879883 -0.413490861654281616 0.303806811571121216
0.521114230155944824 -0.245701804757118225 0.640529990196228027
0.545454978942871094 -0.361533135175704956 -0.417527586221694946
-0.743648409843444824 0.240993037819862366 0.159197211265563965
-0.330555260181427002 -0.422479122877120972 0.656374514102935791
0.607195377349853516 -0.272318333387374878 0.472204864025115967
0.596269786357879639 -0.262215495109558105 0.509115219116210938
-0.828442990779876709 -0.0304475873708724976 -0.503296256065368652
0.964864134788513184 0.018977288156747818 -0.167500525712966919
-0.135845452547073364 0.839684486389160156 -0.21147310733795166
0.147735550999641418 0.00551732024177908897 -0.983859062194824219
0.742313921451568604 -0.0893249437212944031 -0.553622007369995117
0.426504522562026978 0.11333918571472168 -0.838348031044006348
0.426260620355606079 0.541948497295379639 -0.247999459505081177
-0.15696406364440918 -0.696447908878326416 -0.512333810329437256
0.609374284744262695 -0.384830743074417114 -0.0600707828998565674
-0.683643817901611328 -0.313887059688568115 -0.0511440262198448181
-0.706726968288421631 -0.226406916975975037 -0.354319393634796143
0.273680686950683594 0.708524346351623535 0.169871732592582703
-0.799620449542999268 0.0379263199865818024 -0.538505077362060547
-0.698999583721160889 -0.265228092670440674 -0.249554157257080078
0.690275669097900391 -0.0781169235706329346 -0.632930278778076172
-0.719515204429626465 0.210413739085197449 -0.36511799693107605
-0.114157050848007202 -0.86734306812286377 -0.165790095925331116
0.00598157709464430809 0.922728419303894043 -0.354770958423614502
-0.0627557858824729919 -0.345361381769180298 -0.908248603343963623
0.604769468307495117 0.247279614210128784 -0.518774271011352539
0.0027673731092363596 -0.956268191337585449 0.26401093602180481
0.798522114753723145 -0.184637323021888733 0.165690138936042786
0.255072265863418579 -0.568573355674743652 0.559060513973236084
0.522551000118255615 -0.441120564937591553 -0.251427829265594482
0.06864909827709198 -0.716605067253112793 -0.611786544322967529
0.770336568355560303 0.128923669457435608 0.427597194910049438
-0.0439131483435630798 -0.123399630188941956 0.981495440006256104
-0.136061087250709534 0.845075428485870361 -0.192582622170448303
0.513475954532623291 0.2438230961561203 -0.646841168403625488
-0.0394526422023773193 -0.95479428768157959 0.0512614138424396515
-0.0661651194095611572 0.415302962064743042 -0.872924685478210449
0.506064832210540771 -0.326895147562026978 -0.546071469783782959
-0.26119762659072876 -0.602025330066680908 -0.497356057167053223
-0.813631892204284668 -0.124162726104259491 0.340547263622283936
0.0438587181270122528 -0.511450588703155518 0.826212048530578613
-0.594735980033874512 0.269566059112548828 -0.495287656784057617
-0.482121676206588745 0.500776052474975586 -0.177282944321632385
0.0614810138940811157 0.68139880895614624 -0.662562727928161621
0.911061406135559082 -0.0806513503193855286 0.128215640783309937
0.100320674479007721 -0.789723694324493408 -0.451904863119125366
0.498660922050476074 -0.479270190000534058 0.188596948981285095
0.581725776195526123 0.363312065601348877 -0.314211040735244751
-0.0528336428105831146 0.310563057661056519 -0.929784834384918213
0.257213383913040161 0.722914218902587891 -0.174279659986495972
0.564951241016387939 0.2633952796459198 -0.553681910037994385
0.739678621292114258 0.122838124632835388 -0.497314572334289551
-0.56173396110534668 0.0839129388332366943 -0.760170400142669678
0.711801350116729736 -0.172432482242584229 -0.461489886045455933
-0.333410978317260742 -0.488688886165618896 -0.565583527088165283
-0.0746744126081466675 -0.883724749088287354 -0.269192248582839966
0.126473709940910339 0.259751379489898682 -0.918791234493255615
-0.883217871189117432 -0.0103110810741782188 -0.44615665078163147
0.143803179264068604 -0.544402480125427246 -0.722765088081359863
-0.0721685662865638733 0.614303529262542725 -0.724673926830291748
-0.843447446823120117 0.0774363130331039429 -0.379768490791320801
-0.31899908185005188 0.528094470500946045 -0.522756695747375488
0.260927259922027588 0.629165768623352051 -0.445851266384124756
0.151525139808654785 0.443895906209945679 0.80010223388671875
0.432605385780334473 0.561279535293579102 0.0625497549772262573
-0.392652362585067749 -0.293173134326934814 -0.723370492458343506
-0.110311433672904968 0.835527956485748291 0.32237398624420166
-0.281960099935531616 0.317843854427337646 0.797249257564544678
-0.864825189113616943 0.0355351492762565613 -0.426170706748962402
0.395450472831726074 0.596432805061340332 0.124968476593494415
-0.561653196811676025 0.0359856225550174713 -0.798444926738739014
-0.119574300944805145 0.563781380653381348 -0.728105425834655762
0.72633814811706543 -0.0605072714388370514 0.611816346645355225
0.667602300643920898 0.0930694863200187683 0.648978114128112793
-0.0857435464859008789 -0.689789533615112305 0.628033459186553955
-0.56914520263671875 0.260515570640563965 -0.551513910293579102
0.677868425846099854 -0.127458199858665466 -0.591655611991882324
0.17782120406627655 -0.614872872829437256 0.603431880474090576
0.917693138122558594 -0.0587465800344944 0.195131152868270874
0.00305433850735425949 0.585273563861846924 -0.806371390819549561
0.351209044456481934 -0.625182628631591797 0.19534166157245636
0.386025965213775635 0.558116614818572998 -0.317227452993392944
0.375282049179077148 -0.391380816698074341 -0.635099291801452637
-0.112661547958850861 -0.871304035186767578 0.162158191204071045
-0.364044159650802612 -0.443777084350585938 0.581745922565460205
0.021763388067483902 0.923068881034851074 0.324244886636734009
0.854657530784606934 -0.141979709267616272 -0.0232777465134859085
0.243505209684371948 -0.441549152135848999 -0.726235032081604004
-0.0762604773044586182 0.910250008106231689 -0.13983289897441864
0.816454946994781494 -0.0133697809651494026 -0.555896878242492676
0.0684040337800979614 -0.525628924369812012 -0.801514625549316406
-0.424931168556213379 0.561968445777893066 -0.13579927384853363
-0.556772708892822266 0.214971914887428284 0.633464455604553223
0.211699977517127991 -0.731607913970947266 -0.318834930658340454
0.972775042057037354 -0.0205326583236455917 0.0805491805076599121
0.145294353365898132 0.12174803763628006 -0.959007024765014648
0.807879030704498291 0.130911856889724731 -0.335259020328521729
0.620383858680725098 -0.0168628431856632233 -0.766439616680145264
0.389349043369293213 0.397754043340682983 -0.60946810245513916
-0.429989457130432129 -0.562052011489868164 -0.100588038563728333
0.277904748916625977 0.227643430233001709 -0.861328303813934326
0.517606019973754883 0.290211141109466553 -0.587547242641448975
0.915170848369598389 0.0769252404570579529 0.118332125246524811
0.53427886962890625 -0.415637820959091187 -0.297772496938705444
0.0248861201107501984 0.56056898832321167 -0.808817088603973389
-0.162456125020980835 0.705330550670623779 -0.488608330488204956
0.478718608617782593 -0.451627761125564575 -0.354055553674697876
-0.269156277179718018 -0.564900338649749756 -0.550590217113494873
-0.0677184611558914185 0.537784039974212646 0.793539941310882568
0.346610486507415771 0.614967465400695801 -0.269189238548278809
-0.00400184886530041695 -0.780618369579315186 0.610328912734985352
0.415322870016098022 -0.581403791904449463 -0.0260663758963346481
0.167640194296836853 -0.374849557876586914 -0.837158560752868652
-0.362855643033981323 0.409660667181015015 0.632358253002166748
-0.505817234516143799 -0.474353790283203125 0.178783193230628967
-0.576047420501708984 0.342475444078445435 -0.391356587409973145
-0.496184229850769043 0.497882694005966187 -0.0880598574876785278
-0.00246992637403309345 -0.975295424461364746 0.181686609983444214
0.642313301563262939 -0.0977680161595344543 -0.668431520462036133
0.148417204618453979 0.0654649138450622559 -0.976041793823242188
-0.421969145536422729 0.482474058866500854 0.415888726711273193
-0.955847740173339844 -0.0389336384832859039 0.0345961973071098328
0.61331409215927124 0.351410150527954102 0.246459886431694031
-0.372202485799789429 -0.497370034456253052 0.493220806121826172
-0.29046061635017395 0.160969942808151245 -0.888141393661499023
0.919345974922180176 -0.0705505982041358948 -0.104732885956764221
-0.478240251541137695 0.0511551573872566223 -0.844232380390167236
-0.701078474521636963 0.198422938585281372 -0.436304450035095215
0.363513946533203125 -0.632623195648193359 -0.0400428995490074158
0.528620064258575439 -0.093345053493976593 0.78282397985458374
0.323234140872955322 0.609056711196899414 -0.357159942388534546
0.510585486888885498 -0.460217207670211792 0.219828680157661438
-0.00590245518833398819 0.16467033326625824 0.980860531330108643
-0.0914688482880592346 0.828430891036987305 -0.388717293739318848
0.0199667233973741531 0.276840955018997192 0.953696191310882568
0.636831760406494141 -0.191853985190391541 -0.553122341632843018
-0.224179744720458984 0.577308118343353271 0.590825319290161133
-0.0778251886367797852 0.396581441164016724 0.878873884677886963
-0.897070407867431641 -0.0983713045716285706 -0.0795564278960227966
0.121096409857273102 0.680601954460144043 -0.597640812397003174
-0.00510720442980527878 -0.0346807129681110382 -0.994873940944671631
-0.186796009540557861 0.369341105222702026 -0.826973259449005127
-0.206940829753875732 -0.0984915345907211304 0.950204432010650635
0.556219935417175293 0.201858699321746826 0.651489436626434326
-0.132366642355918884 -0.549758613109588623 -0.7265205979347229
0.129035681486129761 0.845598399639129639 -0.208258867263793945
0.711039066314697266 -0.282428711652755737 0.0755574628710746765
-0.421834111213684082 -0.525234639644622803 -0.307368159294128418
-0.93508458137512207 -0.0182309374213218689 -0.291640937328338623
-0.376235902309417725 -0.54703134298324585 -0.382262468338012695
0.0292887985706329346 -0.908962845802307129 0.339514940977096558
0.328005403280258179 0.256176531314849854 -0.809900939464569092
-0.213627085089683533 0.771476268768310547 0.157173305749893188
-0.211049437522888184 0.0534562431275844574 0.96256709098815918
-0.15211331844329834 -0.841966986656188965 0.0564575642347335815
0.00314926146529614925 -0.321832150220870972 -0.943709135055541992
-0.0177426524460315704 -0.84437870979309082 -0.499467641115188599
-0.101671397686004639 -0.0750204846262931824 0.979668855667114258
0.200056016445159912 0.78870236873626709 -0.120894946157932281
-0.685945391654968262 -0.308976888656616211 0.0302025582641363144
0.191855460405349731 -0.736060202121734619 0.36286395788192749
0.0901366248726844788 0.897671103477478027 -0.126385852694511414
0.0257899947464466095 -0.516955912113189697 -0.836967408657073975
0.0760741904377937317 0.75059133768081665 0.554731190204620361
-0.016092304140329361 0.956970810890197754 -0.217975810170173645
-0.171990275382995605 -0.448296964168548584 -0.77916407585144043
-0.225624889135360718 0.759222507476806641 -0.15707242488861084
0.207062453031539917 -0.784881055355072021 0.123091205954551697
0.288659632205963135 0.566143631935119629 -0.513495087623596191
-0.49338918924331665 0.495608270168304443 0.140112146735191345
-0.732439160346984863 -0.00634155608713626862 0.667933106422424316
0.25201183557510376 0.731270670890808105 -0.154765218496322632
-0.519303560256958008 -0.441789954900741577 -0.260114192962646484
-0.313381224870681763 -0.570992708206176758 -0.456813633441925049
0.453690975904464722 0.545739293098449707 -0.00590582471340894699
-0.771532416343688965 -0.0999524816870689392 0.490342170000076294
0.72525942325592041 -0.243518427014350891 -0.234223157167434692
-0.308115303516387939 0.57939225435256958 0.454146623611450195
0.504074513912200928 -0.463120996952056885 -0.25392460823059082
0.527114748954772949 0.124745927751064301 -0.752285182476043701
-0.880798101425170898 -0.0745295211672782898 -0.286173373460769653
0.452483385801315308 -0.438435763120651245 0.446439772844314575
0.219652220606803894 -0.305596292018890381 0.845779478549957275
-0.344211846590042114 0.653352141380310059 -0.0521771982312202454
-0.810227811336517334 -0.0561057217419147491 0.497864127159118652
0.19860115647315979 0.344225704669952393 -0.836906969547271729
-0.525783956050872803 0.440049529075622559 0.241600096225738525
0.747234225273132324 -0.0487070679664611816 0.598776757717132568
-0.572620511054992676 -0.312056154012680054 -0.456233352422714233
0.0275713298469781876 -0.537192642688751221 0.82005774974822998
-0.0311023946851491928 0.285021066665649414 -0.946136474609375
0.235123351216316223 0.680843174457550049 0.389857292175292969
-0.0203371364623308182 0.642190694808959961 0.744025290012359619
0.858203113079071045 0.0568526796996593475 -0.39800223708152771
-0.229406282305717468 -0.70337224006652832 -0.347446620464324951
0.786967813968658447 0.199830576777458191 -0.133018419146537781
-0.092075936496257782 0.787146687507629395 -0.466687768697738647
-0.11136297881603241 0.859500110149383545 -0.23158399760723114
-0.424909621477127075 0.302126020193099976 -0.684790253639221191
-0.588162362575531006 0.407380253076553345 0.010857483372092247
0.879356563091278076 0.013861573301255703 -0.43986096978187561
-0.219526126980781555 0.610907793045043945 -0.550238549709320068
-0.0206134878098964691 0.0946284160017967224 0.991636216640472412
-0.874345898628234863 -0.0324958376586437225 0.410470366477966309
-0.0176357682794332504 0.952065944671630859 -0.238767459988594055
0.348760843276977539 0.648837924003601074 -0.0248912815004587173
-0.291305869817733765 0.706029653549194336 -0.045052703469991684
-0.917264461517333984 0.0750626325607299805 0.111128121614456177
-0.750114798545837402 0.234075769782066345 -0.149148479104042053
0.152146026492118835 -0.324056863784790039 -0.875460267066955566
0.413426339626312256 0.351364552974700928 0.643433213233947754
0.0534174852073192596 0.284968018531799316 -0.936458230018615723
-0.24994872510433197 0.474111706018447876 0.684434235095977783
-0.157199621200561523 -0.100023001432418823 0.96398550271987915
-0.325845003128051758 0.140682920813560486 -0.880119442939758301
0.41449323296546936 -0.568625211715698242 -0.174994945526123047
0.539561629295349121 -0.411451369524002075 0.306532979011535645
0.992380023002624512 0.00167960487306118011 0.0571028217673301697
0.888190865516662598 -0.083549201488494873 -0.226159542798995972
-0.061392761766910553 -0.316028863191604614 0.921059250831604004
0.151969954371452332 -0.164782986044883728 -0.943640708923339844
0.145373836159706116 -0.317532449960708618 -0.881678402423858643
0.318340659141540527 -0.557089924812316895 -0.476011812686920166
0.280665457248687744 -0.568134844303131104 0.522999346256256104
0.31397092342376709 -0.537837982177734375 -0.514978229999542236
0.00215677311643958092 -0.386174231767654419 0.916060686111450195
0.500785231590270996 0.247926115989685059 -0.657609760761260986
-0.181397274136543274 -0.698778390884399414 -0.46818426251411438
0.738558590412139893 0.101602286100387573 -0.534192860126495361
0.292084693908691406 0.274935603141784668 0.81858903169631958
0.0524323545396327972 0.852200746536254883 0.415459722280502319
0.305407434701919556 -0.33678099513053894 -0.760519266128540039
0.316729456186294556 0.390274375677108765 0.700952649116516113
0.462551206350326538 -0.338736861944198608 -0.598248779773712158
0.387564927339553833 -0.365650027990341187 -0.651962459087371826
-0.549288332462310791 -0.127693802118301392 -0.73089897632598877
0.538868844509124756 0.445427536964416504 -0.148493975400924683
-0.690054476261138916 0.22268444299697876 0.397148579359054565
0.877113759517669678 -0.0796198323369026184 0.281469464302062988
0.80966717004776001 -0.0174866970628499985 0.554031193256378174
0.0342476777732372284 0.855547189712524414 0.448979586362838745
0.395677566528320312 0.555061757564544678 0.307732135057449341
-0.0485376864671707153 -0.895016252994537354 -0.31921088695526123
-0.548877239227294922 -0.433534830808639526 -0.18231712281703949
-0.946567952632904053 0.0396919474005699158 -0.142430216073989868
-0.880398750305175781 -0.115491308271884918 2.30820260185282677e-05
-0.444375753402709961 0.370840638875961304 0.571144461631774902
-0.669113993644714355 -0.276973754167556763 -0.310673683881759644
-0.656377851963043213 0.255093157291412354 -0.404873639345169067
0.173526853322982788 -0.420707046985626221 0.800874948501586914
0.281587690114974976 0.63598024845123291 -0.388778746128082275
-0.514963448047637939 -0.338098108768463135 -0.512911856174468994
-0.129512414336204529 -0.604044258594512939 -0.672828614711761475
-0.394618183374404907 0.275701224803924561 -0.736571013927459717
0.475169956684112549 0.501276612281799316 0.195101127028465271
-0.450842678546905518 0.0346650630235671997 0.871647834777832031
-0.255937159061431885 0.739046335220336914 -0.0520009063184261322
0.611817359924316406 -0.298854440450668335 -0.406405627727508545
-0.390149384737014771 -0.452608078718185425 -0.536584615707397461
0.328090965747833252 -0.662182152271270752 -0.100829385221004486
-0.110839389264583588 0.695420980453491211 0.583983540534973145
-0.350812643766403198 -0.64765477180480957 -0.0158867072314023972
0.860744953155517578 0.131612047553062439 0.110197439789772034
0.393046081066131592 -0.603404402732849121 -0.0174539797008037567
0.314729273319244385 -0.135082900524139404 0.891751527786254883
0.530924141407012939 0.451788395643234253 0.167648151516914368
0.0964821577072143555 0.888762772083282471 -0.152951821684837341
0.361870884895324707 -0.614064335823059082 0.197341620922088623
0.713448166847229004 -0.057303696870803833 0.6348876953125
-0.43689766526222229 -0.553220391273498535 -0.102436311542987823
0.720826268196105957 -0.0870354324579238892 -0.583437621593475342
-0.509387314319610596 0.285542339086532593 0.600226938724517822
-0.0203108657151460648 -0.924760818481445312 0.324108332395553589
0.178957432508468628 0.759145677089691162 -0.33297806978225708
0.834879219532012939 0.018952077254652977 0.515787065029144287
-0.678847730159759521 -0.31540188193321228 0.0511776283383369446
0.54710996150970459 -0.431297838687896729 0.186508446931838989
0.276943802833557129 -0.129585370421409607 -0.909013330936431885
-0.443991959095001221 0.40007483959197998 -0.52774965763092041
0.0294089708477258682 -0.539261162281036377 -0.817619621753692627
0.0910902917385101318 -0.79284292459487915 -0.457658380270004272
0.754467666149139404 0.236484616994857788 -0.0937892347574234009
-0.410315841436386108 -0.0247182939201593399 -0.897375702857971191
0.268515259027481079 -0.516340792179107666 -0.612285792827606201
0.137767225503921509 -0.384864658117294312 -0.8480415940284729
-0.45923343300819397 -0.0191391743719577789 0.876292288303375244
0.136475995182991028 0.785791397094726562 0.375623613595962524
0.85483396053314209 -0.143038913607597351 -0.061808999627828598
0.430361837148666382 0.513860046863555908 -0.316351413726806641
0.145488336682319641 0.738784551620483398 -0.461425513029098511
-0.333200722932815552 0.55802685022354126 -0.443676531314849854
-0.258757293224334717 0.415069818496704102 0.73308253288269043
0.218692168593406677 -0.587772727012634277 0.583690345287322998
-0.163796126842498779 0.410627126693725586 0.813770294189453125
-0.794173300266265869 0.180383384227752686 0.203381240367889404
0.649438321590423584 -0.288768470287322998 -0.337227195501327515
0.635785460472106934 0.198951870203018188 0.543159663677215576
0.915078878402709961 -0.0185396149754524231 0.34998127818107605
0.458032280206680298 0.538102865219116211 -0.0752672553062438965
0.184061646461486816 0.589055120944976807 -0.627006351947784424
-0.318493783473968506 0.600296854972839355 -0.385456323623657227
-0.450318217277526855 -0.354805320501327515 -0.591990649700164795
0.294837325811386108 0.617213129997253418 -0.403771460056304932
0.504456639289855957 0.440821945667266846 0.323640882968902588
0.671043336391448975 -0.111921690404415131 0.617379128932952881
0.65062183141708374 0.343342721462249756 0.0600675567984580994
0.752761662006378174 -0.230018541216850281 0.167351767420768738
0.605399608612060547 0.373605966567993164 -0.181219920516014099
-0.836003720760345459 -0.0292414836585521698 -0.492813706398010254
0.0983054190874099731 -0.315938472747802734 -0.909084558486938477
-0.212659746408462524 -0.742196142673492432 -0.281130820512771606
0.214275345206260681 0.410597264766693115 -0.775260448455810547
-0.734277844429016113 0.175735637545585632 -0.40930667519569397
-0.718789339065551758 0.011973237618803978 -0.680116832256317139
-0.789740979671478271 0.160951122641563416 0.307938843965530396
-0.560153782367706299 -0.173122003674507141 0.67550969123840332
0.0599810443818569183 0.823372125625610352 0.463531553745269775
-0.755863547325134277 -0.236680656671524048 0.104359596967697144
-0.253912776708602905 -0.700862228870391846 0.290050417184829712
-0.337248057126998901 -0.368936300277709961 -0.706038773059844971
-0.0319735854864120483 0.817766189575195312 -0.523200869560241699
-0.0977644920349121094 0.878913640975952148 -0.1956157386302948
0.136205524206161499 0.635532021522521973 -0.630787134170532227
-0.454740256071090698 -0.358836650848388672 -0.576270937919616699
-0.0559490881860256195 -0.480074763298034668 -0.840499341487884521
-0.96307682991027832 -0.0054713110439479351 -0.234997138381004333
-0.106916725635528564 -0.114580772817134857 0.970942974090576172
0.449282824993133545 0.482823491096496582 -0.349273234605789185
-0.785264134407043457 -0.189313650131225586 0.203288957476615906
-0.662092626094818115 0.325734853744506836 -0.126653015613555908
0.0461234487593173981 -0.75822526216506958 0.586724042892456055
-0.526737093925476074 -0.0936228558421134949 0.783868789672851562
-0.295405149459838867 0.474157899618148804 -0.631462633609771729
-0.205702126026153564 -0.793407678604125977 -0.009227801114320755
0.00928457267582416534 0.808885633945465088 0.565622925758361816
0.44895249605178833 -0.341212809085845947 -0.610496222972869873
-0.360947608947753906 -0.634292721748352051 -0.0493391193449497223
-0.251546263694763184 0.167992323637008667 -0.902748346328735352
0.949001491069793701 0.00774872070178389549 -0.264000087976455688
0.708472549915313721 -0.274841248989105225 0.165013790130615234
0.153692200779914856 -0.844923198223114014 -0.0143530648201704025
-0.275070160627365112 -0.0895038694143295288 -0.927763044834136963
-0.319390743970870972 -0.662825584411621094 -0.161359935998916626
-0.297796189785003662 0.459120690822601318 0.6526145339012146
0.756842315196990967 0.153664365410804749 0.402191221714019775
0.52236473560333252 -0.471597790718078613 -0.0887057557702064514
-0.151467740535736084 -0.138144582509994507 -0.953088521957397461
-0.324400484561920166 -0.671390891075134277 0.00310039939358830452
-0.533914327621459961 -0.39189794659614563 -0.366376131772994995
0.590519428253173828 -0.403313606977462769 -0.0639268830418586731
0.950919985771179199 0.020784866064786911 -0.226377204060554504
0.33352816104888916 -0.662450551986694336 -0.00274200225248932838
0.159813001751899719 0.822994410991668701 -0.178218945860862732
-0.655344307422637939 0.312933027744293213 -0.247577577829360962
0.089567236602306366 0.876394212245941162 -0.243712469935417175
-0.180546358227729797 0.667568564414978027 -0.521071851253509521
0.0246585626155138016 -0.815550863742828369 -0.54146873950958252
0.336491793394088745 -0.0511207692325115204 0.916933357715606689
-0.372877895832061768 0.42528533935546875 0.595591366291046143
-0.668957054615020752 0.207166045904159546 -0.472628980875015259
-0.100806623697280884 -0.486090779304504395 -0.804016292095184326
0.0840338021516799927 0.851670503616333008 0.345269352197647095
0.579032242298126221 0.310940742492675781 -0.452022671699523926
0.561593055725097656 0.336682528257369995 0.42982146143913269
-0.252799481153488159 0.689887404441833496 -0.320522457361221313
0.1628074049949646 -0.505652248859405518 0.738280653953552246
0.324170172214508057 -0.65955197811126709 -0.15204620361328125
-0.243365541100502014 -0.630389511585235596 -0.477168083190917969
-0.479950249195098877 -0.452341079711914062 -0.348770469427108765
-0.477772802114486694 -0.492220133543014526 -0.236966058611869812
0.00265441043302416801 -0.907123029232025146 -0.405616283416748047
0.585806906223297119 -0.368400335311889648 -0.289217889308929443
0.384232491254806519 0.610115766525268555 -0.0863199308514595032
-0.0894326493144035339 0.903703093528747559 -0.0711554661393165588
-0.668372094631195068 0.32423698902130127 0.102335602045059204
-0.129218786954879761 -0.864225506782531738 0.0762915462255477905
-0.0570229105651378632 -0.310953587293624878 -0.927579343318939209
0.561519503593444824 -0.165412396192550659 -0.680123209953308105
-0.114314861595630646 -0.873435556888580322 0.145575881004333496
-0.394462943077087402 0.489728420972824097 -0.461559951305389404
-0.441191941499710083 0.486477702856063843 -0.361329078674316406
-0.315779417753219604 0.630334079265594482 0.321754783391952515
0.252094149589538574 -0.607822954654693604 0.507062613964080811
0.398023277521133423 -0.283037483692169189 0.726077139377593994
0.322467118501663208 -0.664487183094024658 0.149063825607299805
0.781823694705963135 0.205198913812637329 -0.134524449706077576
0.0290883798152208328 0.825414597988128662 -0.514070689678192139
-0.347470015287399292 0.631751954555511475 -0.17988121509552002
-0.373269915580749512 0.617738902568817139 -0.0932027623057365417
-0.177111640572547913 -0.551724731922149658 -0.678026199340820312
0.40010601282119751 0.581847131252288818 0.170975387096405029
0.602929592132568359 0.180450648069381714 0.616783976554870605
0.7196236252784729 -0.258203715085983276 -0.188507363200187683
0.438111364841461182 -0.550326764583587646 -0.119850985705852509
0.732782065868377686 -0.152495130896568298 -0.455082297325134277
-0.404473841190338135 0.527952730655670166 0.352673828601837158
0.1936054527759552 -0.699968814849853516 -0.446081936359405518
-0.0556769184768199921 0.158895432949066162 -0.972766280174255371
-0.247772127389907837 -0.740535616874694824 -0.121202327311038971
0.444576114416122437 0.193323239684104919 0.767876625061035156
0.0684335678815841675 -0.375528007745742798 -0.890986859798431396
0.454638898372650146 -0.53065800666809082 0.156325384974479675
0.367195606231689453 0.323999375104904175 0.716262638568878174
-0.460308343172073364 0.376775413751602173 0.539795935153961182
-0.279599577188491821 -0.658223569393157959 0.340482890605926514
-0.670815110206604004 0.173165172338485718 0.529909193515777588
0.196065500378608704 -0.539049506187438965 -0.671112656593322754
-0.0128490561619400978 -0.978772878646850586 0.128613650798797607
-0.243057981133460999 -0.651634156703948975 -0.437035590410232544
-0.876496851444244385 0.043398488312959671 0.380982100963592529
-0.796669185161590576 0.00833357498049736023 -0.59218984842300415
-0.286186635494232178 0.506782889366149902 0.603036999702453613
-0.467125356197357178 -0.425941437482833862 -0.446919023990631104
0.955378055572509766 0.0176411066204309464 -0.219932764768600464
-0.181826502084732056 -0.800004482269287109 -0.188340902328491211
-0.70245063304901123 0.288120031356811523 0.133219391107559204
-0.509477734565734863 0.0444441251456737518 0.827115178108215332
0.937498331069946289 -0.0573233254253864288 0.0333398282527923584
-0.0689492076635360718 -0.821688413619995117 0.447075784206390381
0.490430980920791626 -0.105532050132751465 0.799749433994293213
0.0390881150960922241 0.651915907859802246 -0.719683825969696045
0.529720425605773926 -0.247480198740959167 -0.621885359287261963
-0.189294159412384033 -0.467943578958511353 -0.747707605361938477
0.541526079177856445 0.403644859790802002 0.323884010314941406
0.72807013988494873 -0.0576742887496948242 -0.61536407470703125
0.178965449333190918 -0.780301809310913086 -0.266267329454421997
0.0365266613662242889 0.197598084807395935 -0.96763908863067627
0.692107617855072021 0.271038085222244263 0.2533760666847229
-0.241927862167358398 -0.228623718023300171 -0.878181755542755127
-0.0672455579042434692 -0.894322752952575684 -0.258514344692230225
0.572778165340423584 -0.394041955471038818 0.237277373671531677
-0.665691852569580078 -0.105816274881362915 -0.631039798259735107
-0.42078891396522522 -0.55359119176864624 0.204155057668685913
-0.625332295894622803 -0.350405037403106689 -0.201435074210166931
0.560789704322814941 -0.421755373477935791 -0.180938512086868286
-0.819210469722747803 0.163666203618049622 -0.177501529455184937
0.124830611050128937 0.651633739471435547 -0.625582456588745117
0.227013707160949707 -0.685634493827819824 0.397353529930114746
0.436639219522476196 0.550851523876190186 -0.129671573638916016
-0.479735314846038818 0.515711486339569092 0.0138445300981402397
0.0667761638760566711 -0.684549927711486816 0.658028960227966309
-0.338639378547668457 -0.655875265598297119 0.042914215475320816
0.466285914182662964 0.52954941987991333 0.00173028453718870878
-0.554880082607269287 -0.417062908411026001 -0.224904239177703857
0.308588474988937378 -0.381311923265457153 0.71751636266708374
0.474833160638809204 -0.147039666771888733 0.782884001731872559
-0.352545469999313354 -0.558819174766540527 -0.405077546834945679
0.490037113428115845 0.40394890308380127 -0.445402711629867554
-0.138015583157539368 -0.740930736064910889 0.473486661911010742
0.176318183541297913 -0.498850911855697632 0.731782913208007812
-0.131169959902763367 -0.438266724348068237 -0.821681618690490723
-0.541087448596954346 0.315854638814926147 -0.509395360946655273
-0.621965229511260986 -0.373990356922149658 -0.00202072202228009701
-0.24916781485080719 -0.712962865829467773 0.257823288440704346
-0.585488319396972656 -0.217076152563095093 -0.590080142021179199
0.00727064907550811768 -0.0925523862242698669 -0.990748047828674316
0.452167481184005737 -0.236900985240936279 -0.720609724521636963
-0.264298737049102783 -0.376476049423217773 0.765091896057128906
-0.123400211334228516 -0.595920145511627197 -0.694464921951293945
-0.778143525123596191 0.143961027264595032 -0.384491115808486938
0.202486887574195862 -0.381925016641616821 -0.805871248245239258
-0.0468179546296596527 0.882997989654541016 -0.355496913194656372
-0.343757361173629761 0.618229985237121582 -0.257102638483047485
-0.0507557801902294159 -0.324611306190490723 -0.924020230770111084
-0.229069739580154419 0.653281331062316895 -0.460691124200820923
0.596247673034667969 0.310996085405349731 0.409562259912490845
-0.215453386306762695 0.152126729488372803 -0.926764965057373047
-0.0694254189729690552 0.880762696266174316 -0.296857982873916626
-0.582516789436340332 0.263141036033630371 -0.531025111675262451
-0.369114488363265991 -0.353445649147033691 -0.690402388572692871
0.837561845779418945 0.152787178754806519 0.134190648794174194
-0.0338795334100723267 -0.771247208118438721 -0.586867153644561768
-0.801423549652099609 0.111402362585067749 -0.402276515960693359
-0.625256001949310303 -0.20438307523727417 -0.556129693984985352
0.854470610618591309 0.0269420687109231949 0.467915087938308716
-0.856222450733184814 -0.103878609836101532 -0.263457953929901123
-0.0862194299697875977 0.55419999361038208 -0.764071762561798096
0.719243109226226807 -0.277766048908233643 -0.0698612406849861145
0.356170773506164551 -0.362515419721603394 0.689638912677764893
-0.947898149490356445 0.0392147675156593323 -0.133588239550590515
-0.51900094747543335 -0.348343223333358765 0.49641534686088562
0.739044904708862305 0.0863143354654312134 -0.55860978364944458
-0.269140511751174927 0.253810644149780273 -0.851740598678588867
-0.575143694877624512 -0.395631611347198486 0.219948694109916687
-0.590560317039489746 -0.146592646837234497 -0.668868660926818848
0.548675835132598877 -0.418178021907806396 -0.254852950572967529
0.35419541597366333 0.0902656763792037964 -0.892066538333892822
-0.320244729518890381 -0.444272011518478394 -0.637790441513061523
-0.174591138958930969 -0.761119246482849121 0.345255583524703979
0.847783029079437256 -0.0901964306831359863 -0.337993055582046509
-0.0560961067676544189 -0.328275442123413086 0.918245494365692139
0.57912975549697876 -0.260010242462158203 -0.535876870155334473
-0.826050281524658203 0.0532731004059314728 -0.466494649648666382
-0.315868139266967773 0.17045651376247406 -0.868489444255828857
0.436897993087768555 0.108872890472412109 -0.835009932518005371
0.493462413549423218 0.294427603483200073 -0.608481287956237793
0.55171048641204834 0.376152127981185913 -0.372080028057098389
0.113611698150634766 -0.733126282691955566 0.525955855846405029
0.301044076681137085 0.663567721843719482 -0.248259812593460083
-0.346097439527511597 -0.649319648742675781 -0.0797084271907806396
0.319344311952590942 0.0309212524443864822 -0.93610846996307373
-0.17401459813117981 -0.746860742568969727 -0.386847198009490967
-0.869563937187194824 -0.112014882266521454 -0.190954849123954773
-0.324209153652191162 -0.636647880077362061 -0.271148204803466797
-0.302446693181991577 -0.0391766242682933807 0.935552358627319336
-0.188280493021011353 0.205946832895278931 -0.914937615394592285
-0.973206520080566406 -0.0134167317301034927 -0.138663813471794128
