ply
format ascii 1.0
element vertex 740
property float x
property float y
property float z
end_header
-0.984382748603820801 0.1192888543009758 0.112421482801437378
0.6065940260887146 -0.264304697513580322 -0.742276549339294434
0.727965176105499268 0.259820640087127686 0.626656770706176758
-0.636596500873565674 0.763026118278503418 -0.045725703239440918
0.701972544193267822 0.558669745922088623 0.427270025014877319
0.502905607223510742 0.826058685779571533 -0.226230233907699585
0.537771821022033691 -0.812756121158599854 -0.207947388291358948
0.829371869564056396 0.544787168502807617 0.0999572575092315674
-0.381864428520202637 -0.0681879520416259766 0.916107296943664551
-0.582289755344390869 0.423976421356201172 -0.684520840644836426
-0.0864518508315086365 0.956455767154693604 0.249135613441467285
-0.0747505053877830505 -0.872973263263702393 -0.470898449420928955
-0.752510190010070801 -0.580497384071350098 0.294728845357894897
-0.916589558124542236 -0.370985329151153564 0.140846818685531616
0.211948469281196594 0.0124311884865164757 -0.97622990608215332
-0.967456996440887451 0.0984097197651863098 -0.193931117653846741
-0.408896446228027344 -0.190834760665893555 0.890974521636962891
-0.39675605297088623 0.664915740489959717 -0.627420961856842041
-0.154769107699394226 0.547604978084564209 -0.821519374847412109
0.988439023494720459 -0.00515237776562571526 -0.119796052575111389
-0.922486484050750732 -0.350417256355285645 -0.105006560683250427
0.841426730155944824 -0.503200173377990723 -0.180946499109268188
-0.212912231683731079 -0.859370589256286621 0.452293455600738525
-0.0513978376984596252 -0.964530229568481445 -0.243058919906616211
-0.253166168928146362 0.556536853313446045 -0.784427285194396973
-0.236359000205993652 0.950130701065063477 -0.170506879687309265
-0.324489235877990723 0.803379058837890625 0.494450211524963379
-0.892044544219970703 -0.182548165321350098 -0.405152469873428345
-0.845097243785858154 -0.399459332227706909 0.338275760412216187
-0.29761090874671936 0.945760905742645264 -0.041861269623041153
-0.764407873153686523 -0.599108517169952393 -0.217423960566520691
-0.344654321670532227 -0.709562003612518311 -0.60793071985244751
-0.175275951623916626 0.474932760000228882 -0.857245981693267822
-0.956685841083526611 -0.112906090915203094 0.233957961201667786
-0.155751988291740417 0.782297849655151367 0.593078434467315674
0.745245456695556641 0.589545726776123047 -0.294014453887939453
-0.123599439859390259 0.703498482704162598 -0.690544188022613525
-0.0478905625641345978 -0.547056615352630615 0.82993084192276001
-0.440740406513214111 0.167245000600814819 -0.875672817230224609
-0.614960193634033203 0.773905634880065918 -0.0765072405338287354
0.773752808570861816 -0.450379997491836548 0.427511155605316162
0.890016674995422363 0.430540025234222412 0.0958480536937713623
0.633446753025054932 0.475733160972595215 0.603818774223327637
-0.818171977996826172 -0.439427822828292847 -0.354130566120147705
0.562626481056213379 -0.174644395709037781 -0.800359070301055908
-0.422609329223632812 0.89251941442489624 0.137368753552436829
-0.726708352565765381 -0.0356275588274002075 0.677855014801025391
-0.0985412672162055969 0.959814310073852539 0.227669313549995422
0.559345722198486328 0.473248183727264404 -0.673825860023498535
-0.469168782234191895 -0.847262203693389893 -0.228198781609535217
0.983038723468780518 -0.0570954605937004089 -0.118725888431072235
-0.544839084148406982 -0.829824090003967285 -0.0440334789454936981
0.381568312644958496 -0.47123447060585022 -0.787537813186645508
-0.836706340312957764 0.518846750259399414 -0.119153581559658051
-0.3478565514087677 0.323006927967071533 -0.873813092708587646
0.417845457792282104 0.841752886772155762 -0.324050545692443848
0.45295831561088562 -0.840220153331756592 -0.278289258480072021
0.187824204564094543 -0.944850265979766846 0.242740049958229065
-0.767172336578369141 -0.0381829328835010529 -0.628949344158172607
-0.768658816814422607 -0.439155340194702148 -0.453501880168914795
-0.294367671012878418 -0.440791010856628418 -0.844636499881744385
-0.116886131465435028 0.926875948905944824 0.343574404716491699
0.756251215934753418 0.0953144058585166931 -0.640393614768981934
-0.246920973062515259 0.818945586681365967 0.508717477321624756
0.283585637807846069 -0.0186430215835571289 -0.95420461893081665
0.38395729660987854 0.502297759056091309 -0.7672385573387146
0.18642108142375946 0.875543355941772461 0.429661691188812256
0.239041909575462341 0.383123725652694702 -0.886923432350158691
-0.948034882545471191 0.23493427038192749 -0.173675060272216797
-0.678654611110687256 -0.697345852851867676 0.190120339393615723
0.0910048335790634155 -0.330587565898895264 0.934407532215118408
0.860921680927276611 0.307935774326324463 0.38708806037902832
0.59403461217880249 0.452401220798492432 -0.656033992767333984
-0.275506734848022461 0.262432992458343506 -0.921926975250244141
0.249226212501525879 -0.0470698252320289612 -0.964553534984588623
-0.307453393936157227 -0.228973671793937683 0.918024182319641113
-0.142343923449516296 0.218846738338470459 -0.960256338119506836
-0.124299593269824982 0.616507828235626221 0.775281012058258057
0.93021845817565918 0.158357888460159302 -0.309259027242660522
0.207781508564949036 0.351578027009963989 -0.911531209945678711
0.265048623085021973 -0.797372281551361084 -0.537165045738220215
-0.804950058460235596 -0.529824256896972656 0.233023479580879211
0.636280715465545654 -0.47714531421661377 0.599429845809936523
-0.372412890195846558 -0.815123260021209717 -0.427892595529556274
-0.723508596420288086 -0.174654334783554077 -0.659617722034454346
-0.434145092964172363 -0.661625444889068604 0.600104093551635742
0.943035662174224854 -0.237345024943351746 -0.195360735058784485
0.273774117231369019 0.154166191816329956 0.946131587028503418
-0.0795693174004554749 -0.455356419086456299 -0.881367266178131104
0.196807444095611572 -0.850611209869384766 0.478793084621429443
-0.888219058513641357 0.0690202116966247559 -0.438158184289932251
0.321320295333862305 0.631747066974639893 -0.703270554542541504
0.080578930675983429 0.371705472469329834 -0.920816540718078613
0.716178297996520996 -0.691887795925140381 -0.000841134227812290192
-0.155046552419662476 0.945641994476318359 0.273853331804275513
0.0419460125267505646 0.422895759344100952 -0.899270832538604736
0.974313974380493164 -0.110646143555641174 -0.165533140301704407
0.385940462350845337 0.343963921070098877 -0.8549918532371521
-0.54230964183807373 0.0303522888571023941 0.832767963409423828
-0.838160991668701172 0.504750549793243408 -0.170463979244232178
-0.827819108963012695 -0.528235733509063721 -0.142070874571800232
-0.535818874835968018 -0.30564272403717041 -0.779841244220733643
0.971974015235900879 0.0152668459340929985 0.194971621036529541
0.915549755096435547 -0.139477089047431946 -0.368231296539306641
0.988467574119567871 0.0417605526745319366 0.105857513844966888
0.103457435965538025 0.466977506875991821 0.876154065132141113
0.57261425256729126 -0.0758401006460189819 -0.809120059013366699
0.843456029891967773 -0.452076733112335205 -0.273300826549530029
0.336322247982025146 -0.371821284294128418 -0.858837902545928955
-0.726402103900909424 -0.680302679538726807 -0.0342968255281448364
0.696712851524353027 0.356087923049926758 -0.61503678560256958
-0.153256386518478394 -0.948349177837371826 -0.260938048362731934
-0.191821858286857605 -0.88267982006072998 -0.425265192985534668
-0.0876376181840896606 -0.755925655364990234 0.64526134729385376
-0.458131670951843262 -0.800036966800689697 -0.365376442670822144
0.05458846315741539 -0.974193871021270752 -0.173712730407714844
0.252196371555328369 0.176950246095657349 -0.946045279502868652
-0.317833304405212402 0.921769797801971436 -0.186225026845932007
-0.303358703851699829 0.786058008670806885 -0.534710824489593506
0.83208853006362915 0.544477283954620361 0.0394687652587890625
0.138795390725135803 -0.804964065551757812 -0.567627310752868652
-0.290280371904373169 -0.935980260372161865 -0.168625295162200928
0.31156766414642334 -0.257192164659500122 -0.913825750350952148
-0.293939024209976196 0.90481412410736084 0.296081304550170898
-0.785213947296142578 0.583308219909667969 0.169587135314941406
0.804487228393554688 -0.420987725257873535 0.402774989604949951
-0.00341981695964932442 0.287269949913024902 0.957168638706207275
0.229419112205505371 -0.414917677640914917 0.878429651260375977
-0.467587709426879883 -0.855528950691223145 0.182084128260612488
0.0707440748810768127 -0.965820252895355225 -0.23504263162612915
0.125021487474441528 -0.946429610252380371 0.271195143461227417
-0.0869133919477462769 0.794069468975067139 -0.59032142162322998
0.749132633209228516 -0.656058549880981445 -0.0359910540282726288
-0.267110645771026611 -0.946790993213653564 -0.156079873442649841
0.197163447737693787 0.0381288826465606689 0.974807620048522949
0.414020448923110962 0.14852045476436615 0.894962608814239502
-0.607172548770904541 0.19044068455696106 -0.763630032539367676
0.73404771089553833 0.126700043678283691 -0.660670757293701172
0.412884414196014404 0.166381806135177612 0.892887234687805176
0.442696213722229004 0.203265026211738586 0.869149088859558105
0.208326786756515503 -0.870959162712097168 0.427114784717559814
0.575562655925750732 -0.383244514465332031 -0.715959906578063965
-0.253274738788604736 0.708940684795379639 0.653379321098327637
-0.247995078563690186 0.486523717641830444 -0.834123134613037109
-0.345189362764358521 0.839853882789611816 0.403233349323272705
0.00881258305162191391 0.962338566780090332 -0.254982709884643555
0.544893503189086914 0.453129827976226807 -0.696756482124328613
0.158062353730201721 0.944148838520050049 -0.269685268402099609
-0.0577576532959938049 0.234742790460586548 0.966930091381072998
-0.444724082946777344 -0.772735893726348877 -0.437660664319992065
0.364841729402542114 0.814658522605895996 0.441766649484634399
-0.849989116191864014 0.220194205641746521 -0.462164759635925293
-0.719400703907012939 0.682378768920898438 -0.000985746853984892368
0.399582237005233765 0.732813239097595215 -0.544802188873291016
0.682741343975067139 0.565298557281494141 -0.450853824615478516
-0.372016012668609619 -0.175405114889144897 -0.909859120845794678
0.567358016967773438 -0.678649544715881348 -0.458074897527694702
0.78084111213684082 -0.0754677876830101013 -0.614539682865142822
-0.798224210739135742 -0.150171026587486267 -0.573572218418121338
-0.255525201559066772 0.915208935737609863 -0.282320916652679443
-0.106368184089660645 -0.0735219717025756836 -0.986899375915527344
0.921763598918914795 0.0902799218893051147 0.361209481954574585
-0.0649085342884063721 0.958495855331420898 -0.253874123096466064
0.59606701135635376 -0.479844778776168823 -0.634071707725524902
0.753413915634155273 -0.621742546558380127 0.1783781498670578
0.300333946943283081 0.891899943351745605 0.323209881782531738
0.656913340091705322 -0.626899540424346924 0.399838447570800781
0.3997478187084198 -0.743125081062316895 -0.528663218021392822
0.125232219696044922 -0.982990741729736328 0.0110951149836182594
0.765315830707550049 -0.634163200855255127 -0.0170459616929292679
-0.164598405361175537 0.974568963050842285 0.115062065422534943
-0.584082126617431641 0.800163209438323975 0.0213514082133769989
0.26967427134513855 0.476521611213684082 0.83030545711517334
-0.651997685432434082 0.666631042957305908 -0.340982347726821899
0.605562448501586914 0.765264272689819336 -0.176444530487060547
-0.259984344244003296 -0.0929737314581871033 -0.956713855266571045
0.911602437496185303 -0.319848239421844482 0.225934281945228577
-0.921316564083099365 0.035881824791431427 0.366573721170425415
-0.0660256817936897278 0.842081129550933838 -0.520433127880096436
-0.146510332822799683 0.116016760468482971 -0.97941124439239502
0.571416914463043213 -0.512099266052246094 0.634741008281707764
-0.498252838850021362 -0.7940216064453125 0.33399730920791626
0.255292683839797974 -0.91877216100692749 -0.274471879005432129
0.416638791561126709 0.814779102802276611 -0.391152828931808472
0.371379762887954712 0.419119328260421753 -0.823639094829559326
0.927905738353729248 0.272919684648513794 0.215911701321601868
-0.483613520860671997 0.867224514484405518 -0.0493685528635978699
0.558143258094787598 -0.652448415756225586 -0.497186273336410522
0.812384963035583496 0.257496684789657593 0.516608953475952148
0.527746796607971191 -0.211055949330329895 -0.817662537097930908
0.357996881008148193 -0.91592562198638916 -0.138579815626144409
0.0592613853514194489 -0.959815859794616699 0.249771729111671448
-0.975225389003753662 0.0397736057639122009 -0.203256413340568542
-0.171249300241470337 -0.541623771190643311 0.816661298274993896
0.164891496300697327 0.140173763036727905 -0.972046196460723877
-0.289230257272720337 0.111999683082103729 -0.947334766387939453
0.861821115016937256 0.413032978773117065 -0.277761191129684448
0.775120675563812256 -0.547172904014587402 -0.292210280895233154
0.638161361217498779 0.614431381225585938 -0.447095006704330444
-0.973723828792572021 0.124855868518352509 -0.139388486742973328
-0.0133060244843363762 0.890091896057128906 0.441189736127853394
0.263431072235107422 -0.867215335369110107 -0.413665980100631714
-0.230278849601745605 -0.653746068477630615 -0.714624702930450439
0.222700119018554688 -0.130203783512115479 0.963613152503967285
-0.101195313036441803 -0.967563927173614502 -0.214875698089599609
-0.436746865510940552 -0.5940285325050354 -0.66912764310836792
0.9608001708984375 0.207896694540977478 -0.136583968997001648
-0.865567445755004883 0.11041925847530365 -0.472444266080856323
-0.632251560688018799 -0.242923319339752197 -0.728661417961120605
0.830057144165039062 -0.435698926448822021 -0.322911947965621948
0.266590654850006104 0.276806920766830444 -0.920619010925292969
0.0763330087065696716 -0.667027413845062256 0.733243823051452637
0.315512388944625854 -0.545370221138000488 -0.769896149635314941
0.349927783012390137 0.804867744445800781 -0.471463978290557861
-0.583159983158111572 -0.593313515186309814 0.543583691120147705
-0.158895567059516907 0.910807251930236816 0.368093162775039673
-0.0508579947054386139 0.540862560272216797 -0.834889113903045654
0.865349173545837402 0.142761871218681335 0.468591481447219849
-0.574230313301086426 0.729683518409729004 -0.356318116188049316
0.454728424549102783 0.364351391792297363 -0.80981820821762085
-0.0302443746477365494 0.961123645305633545 -0.258222877979278564
-0.057814672589302063 0.877551853656768799 0.467433750629425049
0.567933380603790283 -0.617415487766265869 0.53648066520690918
0.525597691535949707 -0.0214903522282838821 -0.845203697681427002
-0.734788119792938232 0.404916495084762573 -0.530093729496002197
0.13029634952545166 0.893762528896331787 0.4158649742603302
0.0194308273494243622 0.593227863311767578 -0.799855530261993408
0.588209450244903564 0.167717814445495605 0.787711083889007568
0.211562395095825195 0.757493078708648682 -0.610641241073608398
-0.695844471454620361 -0.694235563278198242 -0.131099849939346313
-0.373414188623428345 -0.896351456642150879 0.205363273620605469
0.680757343769073486 0.670597612857818604 0.270551502704620361
0.379405498504638672 0.894993245601654053 0.194977641105651855
0.100609548389911652 -0.99164968729019165 -0.0686610788106918335
0.139642834663391113 0.858509302139282227 -0.477834254503250122
0.933820903301239014 -0.348470568656921387 -0.0104717118665575981
0.403842806816101074 0.538399398326873779 0.730835199356079102
-0.107533469796180725 0.975934982299804688 -0.175845757126808167
-0.434650242328643799 0.889146804809570312 0.102385908365249634
0.220630764961242676 0.169405937194824219 -0.955828070640563965
-0.503798604011535645 -0.853750646114349365 0.0291629992425441742
-0.738782227039337158 0.354130983352661133 -0.5689505934715271
0.0240426976233720779 -0.90426337718963623 -0.410642683506011963
0.219276934862136841 -0.4638175368309021 -0.85658031702041626
0.863454937934875488 -0.281555205583572388 0.406369566917419434
-0.318606376647949219 -0.646013975143432617 -0.691482782363891602
-0.214477196335792542 0.406961917877197266 0.886877000331878662
0.11227155476808548 -0.799165248870849609 -0.582697033882141113
0.530921459197998047 -0.304393559694290161 -0.785856723785400391
0.551475167274475098 -0.730146348476409912 -0.394249975681304932
0.808721184730529785 -0.334369301795959473 0.480782061815261841
0.85908961296081543 0.206636801362037659 -0.452792495489120483
-0.663782238960266113 -0.246604666113853455 -0.702727913856506348
0.298037588596343994 -0.390278249979019165 0.867453932762145996
-0.94287109375 0.30151069164276123 0.0501433350145816803
0.969716370105743408 -0.214781031012535095 0.0169754382222890854
-0.332478940486907959 -0.93681257963180542 0.0244396105408668518
0.909795045852661133 0.132624000310897827 -0.383562237024307251
-0.0267595499753952026 -0.617847263813018799 0.783346295356750488
-0.700662791728973389 -0.41819646954536438 -0.568536937236785889
0.273951560258865356 0.608445107936859131 -0.74208599328994751
0.672160804271697998 0.175144076347351074 -0.713427901268005371
-0.314191251993179321 -0.511240899562835693 -0.794177114963531494
-0.569312870502471924 0.813559889793395996 -0.0308696776628494263
-0.134389743208885193 -0.858523190021514893 0.4882468581199646
0.244968518614768982 -0.878639101982116699 -0.394945263862609863
-0.333667546510696411 0.6996307373046875 -0.62175363302230835
-0.869245827198028564 0.441792696714401245 -0.194457828998565674
-0.0692587569355964661 0.510458469390869141 0.850813031196594238
-0.921052336692810059 -0.316398531198501587 -0.207237869501113892
-0.667766451835632324 0.727133691310882568 -0.0920706167817115784
-0.659829914569854736 -0.744486629962921143 -0.0160947535187005997
-0.694745421409606934 0.645947158336639404 -0.287453949451446533
0.580655813217163086 0.783641219139099121 -0.202989354729652405
-0.593369483947753906 0.0244359001517295837 -0.800665020942687988
0.579035699367523193 0.719856083393096924 -0.37324872612953186
0.834058880805969238 0.505191028118133545 -0.189804643392562866
0.543073475360870361 -0.779374778270721436 -0.290167093276977539
-0.0879512354731559753 0.977839112281799316 -0.140353977680206299
-0.665147125720977783 -0.740643858909606934 -0.00327899283729493618
-0.338884860277175903 0.793293476104736328 -0.490754812955856323
0.595022380352020264 0.281611800193786621 0.745643913745880127
-0.640980899333953857 -0.735811412334442139 0.178163141012191772
0.192685425281524658 0.942981183528900146 -0.240573093295097351
-0.480029642581939697 0.394949913024902344 0.781566977500915527
-0.507953464984893799 -0.665387272834777832 -0.534776687622070312
-0.679333806037902832 0.00537900067865848541 -0.729256808757781982
-0.242637142539024353 -0.846356987953186035 -0.466488689184188843
-0.764078319072723389 -0.570884466171264648 0.277174562215805054
0.591190695762634277 -0.786341011524200439 -0.144141599535942078
-0.151014819741249084 0.651334762573242188 0.735536336898803711
0.218287020921707153 -0.563683807849884033 -0.790855109691619873
-0.531208992004394531 -0.163665667176246643 -0.827896952629089355
0.833765387535095215 -0.497180461883544922 0.207221999764442444
0.364140510559082031 -0.508705258369445801 -0.773420751094818115
0.392619460821151733 0.50301671028137207 -0.764021515846252441
-0.0145557662472128868 -0.329800665378570557 0.939718961715698242
-0.23606148362159729 -0.791334927082061768 -0.552333831787109375
0.849757611751556396 -0.256198793649673462 -0.442864537239074707
-0.483854293823242188 -0.793778181076049805 -0.34580501914024353
0.188413649797439575 -0.83875119686126709 -0.49759182333946228
-0.264465123414993286 0.673959255218505859 -0.681903541088104248
0.345182478427886963 -0.90136033296585083 0.225529178977012634
-0.458562582731246948 0.212244570255279541 0.857284367084503174
0.159091562032699585 0.96932452917098999 -0.135363519191741943
0.819111108779907227 -0.34512627124786377 0.448584198951721191
0.394501775503158569 -0.763449192047119141 -0.502010881900787354
0.5846099853515625 0.364862382411956787 0.715225636959075928
0.126296103000640869 -0.164266377687454224 -0.974513530731201172
-0.9692344069480896 -0.00515036750584840775 0.20990455150604248
0.142411500215530396 0.485314309597015381 -0.85638803243637085
0.957580506801605225 0.249675720930099487 0.0676328912377357483
-0.363347917795181274 0.924790382385253906 0.0134965823963284492
0.48799857497215271 0.354302406311035156 -0.791979670524597168
-0.704584956169128418 -0.678792476654052734 -0.183305263519287109
-0.793019413948059082 -0.192804887890815735 -0.568432033061981201
0.509281754493713379 -0.273044675588607788 -0.814403831958770752
-0.236768767237663269 0.635134279727935791 -0.731014668941497803
-0.202273666858673096 0.975369930267333984 -0.0223983265459537506
0.0914182737469673157 -0.987986207008361816 -0.0164336226880550385
0.233526647090911865 -0.921531021595001221 0.299701541662216187
0.123831078410148621 -0.6630668044090271 -0.731237411499023438
-0.198296055197715759 0.445876836776733398 0.868708789348602295
-0.828057646751403809 0.427941769361495972 0.343648314476013184
0.757409751415252686 0.346477806568145752 0.540346443653106689
-0.678986310958862305 -0.69031369686126709 0.222213968634605408
-0.554794788360595703 -0.563078582286834717 0.601390957832336426
0.148444876074790955 -0.45205765962600708 -0.873780310153961182
0.834937751293182373 -0.478499472141265869 -0.253689855337142944
-0.705822885036468506 -0.446998029947280884 -0.536922752857208252
-0.673078954219818115 0.270529329776763916 -0.683150589466094971
0.646295785903930664 0.625741541385650635 -0.420551717281341553
0.363834381103515625 -0.716440081596374512 -0.593296170234680176
0.0262139942497014999 -0.635130941867828369 0.76733773946762085
0.00464144442230463028 0.282627969980239868 -0.954650580883026123
-0.596981287002563477 0.176520869135856628 -0.775852203369140625
0.0682642385363578796 -0.926599621772766113 -0.35254785418510437
-0.863578855991363525 -0.425745099782943726 0.251214176416397095
-0.391308486461639404 -0.155084341764450073 -0.901204288005828857
0.0047839670442044735 0.832811176776885986 -0.547303915023803711
0.757625341415405273 -0.0183175522834062576 0.650217115879058838
0.682752788066864014 0.269289314746856689 -0.668870449066162109
-0.605924427509307861 -0.655848979949951172 -0.440754503011703491
-0.0687944218516349792 -0.946369409561157227 0.307629257440567017
0.375415176153182983 0.0996343567967414856 0.91597670316696167
-0.656216681003570557 0.719277799129486084 -0.217120006680488586
0.884953022003173828 0.271068066358566284 0.364098936319351196
0.184756502509117126 0.568792641162872314 0.797560453414916992
-0.644154250621795654 -0.545022726058959961 -0.534137368202209473
-0.668249011039733887 0.300623863935470581 -0.673368155956268311
-0.136628448963165283 -0.179818958044052124 -0.973481714725494385
-0.623201906681060791 0.770890176296234131 0.0232880841940641403
0.616869509220123291 -0.776872754096984863 0.115202538669109344
0.719775617122650146 0.676959395408630371 -0.103251844644546509
0.575006783008575439 0.149989336729049683 -0.796719968318939209
0.240017548203468323 0.837902486324310303 0.488357603549957275
0.973707139492034912 -0.142306342720985413 -0.119149148464202881
-0.481956571340560913 0.718292832374572754 0.497812002897262573
-0.117726519703865051 0.799422979354858398 0.576235771179199219
-0.53875964879989624 0.76204383373260498 -0.336243540048599243
0.169080719351768494 -0.975013673305511475 0.0605911687016487122
0.765078186988830566 0.630997955799102783 0.0873606428503990173
-0.837869167327880859 -0.0613729655742645264 0.534454703330993652
0.416553467512130737 0.869433820247650146 -0.242134436964988708
-0.843500375747680664 0.0405730307102203369 0.524986207485198975
-0.786259055137634277 -0.379673659801483154 -0.473815888166427612
0.316210567951202393 0.300906449556350708 0.896997690200805664
-0.235675498843193054 0.596338152885437012 -0.759663581848144531
0.444593220949172974 0.0289027988910675049 -0.890214145183563232
0.60590440034866333 0.132078424096107483 -0.777085602283477783
-0.798255085945129395 -0.251770138740539551 -0.541925370693206787
-0.189208984375 0.0813939273357391357 0.973892152309417725
-0.651057541370391846 0.189093619585037231 0.727643907070159912
-0.665830790996551514 -0.330192148685455322 -0.658575236797332764
0.449694454669952393 0.822754502296447754 -0.333864778280258179
-0.434784978628158569 0.632680118083953857 0.634539484977722168
-0.418869882822036743 0.452703088521957397 -0.77998805046081543
0.0882482677698135376 0.448280602693557739 0.888387680053710938
-0.287812858819961548 -0.670548558235168457 0.67824101448059082
0.967105567455291748 0.178286001086235046 -0.12721608579158783
0.762038469314575195 -0.2869834303855896 0.568934619426727295
-0.768623948097229004 0.347873777151107788 0.526616811752319336
0.58688962459564209 -0.641844689846038818 -0.477861195802688599
0.556667447090148926 0.807823896408081055 -0.144755169749259949
0.636145472526550293 -0.031277775764465332 -0.764286577701568604
-0.990806281566619873 0.0761259347200393677 -0.0191766954958438873
-0.852453052997589111 -0.211908683180809021 0.472438335418701172
0.296338260173797607 0.0285568069666624069 -0.949504196643829346
0.831309199333190918 -0.300763815641403198 0.456147223711013794
-0.261805027723312378 -0.0608379282057285309 -0.959154963493347168
-0.838043808937072754 -0.180554807186126709 -0.501254796981811523
0.0121974973008036613 0.730117857456207275 0.677505314350128174
0.0722888633608818054 0.939007937908172607 0.324475497007369995
-0.393212080001831055 0.737265825271606445 -0.536540687084197998
-0.43291628360748291 0.577383995056152344 -0.689074516296386719
-0.863837301731109619 0.209319263696670532 -0.44255790114402771
-0.135037556290626526 0.740526854991912842 0.655395746231079102
0.881421446800231934 0.367037743330001831 -0.277888000011444092
0.501557707786560059 -0.436072349548339844 -0.740885615348815918
0.0675402805209159851 0.624123334884643555 -0.770427346229553223
-0.0271588098257780075 0.954236328601837158 -0.287203997373580933
-0.0943584442138671875 -0.00781838688999414444 -0.991339802742004395
-0.903030097484588623 0.109100505709648132 -0.39968341588973999
-0.822618007659912109 0.0892700701951980591 0.54818803071975708
0.315356552600860596 0.441459506750106812 0.83296966552734375
0.236964613199234009 -0.894678711891174316 -0.371422022581100464
-0.034611232578754425 0.150709062814712524 -0.987499415874481201
-0.563475608825683594 -0.111683331429958344 -0.816234171390533447
-0.201065525412559509 0.501307189464569092 -0.837969660758972168
-0.164383023977279663 -0.523755311965942383 0.829103171825408936
-0.193391472101211548 0.416306853294372559 -0.88272392749786377
-0.695922493934631348 0.124403953552246094 -0.702672660350799561
-0.748460948467254639 0.0751326829195022583 -0.648436546325683594
0.382304906845092773 -0.83690953254699707 0.378317564725875854
-0.316739082336425781 0.0781710892915725708 -0.943372249603271484
-0.485501736402511597 -0.828680515289306641 0.246360182762145996
-0.396139144897460938 0.19988657534122467 0.893403589725494385
-0.563773214817047119 -0.727938950061798096 -0.368984192609786987
0.0164928864687681198 -0.841826736927032471 -0.524998128414154053
0.478903144598007202 0.851888060569763184 -0.197278082370758057
-0.0244537144899368286 -0.945546984672546387 -0.297705769538879395
-0.847229540348052979 -0.16991838812828064 -0.488567084074020386
-0.387433469295501709 -0.913464069366455078 0.0713370293378829956
-0.851642966270446777 -0.133195459842681885 -0.496017426252365112
0.0135354083031415939 0.909743249416351318 -0.400090038776397705
0.53991854190826416 0.814064323902130127 -0.200523197650909424
0.24346335232257843 -0.505791187286376953 0.820592284202575684
-0.857354938983917236 -0.410930156707763672 0.290763050317764282
0.532278001308441162 -0.741517066955566406 -0.396066069602966309
-0.926247835159301758 -0.222962170839309692 0.291826099157333374
-0.595635950565338135 -0.762951850891113281 -0.244109898805618286
-0.391145288944244385 -0.784060478210449219 -0.469841688871383667
0.185674041509628296 -0.897303998470306396 -0.387815982103347778
0.543200314044952393 -0.732272565364837646 -0.393094539642333984
0.40179106593132019 -0.459562599658966064 -0.785814106464385986
0.453716963529586792 0.709796011447906494 -0.526193559169769287
0.211380332708358765 0.389437943696975708 0.893655478954315186
0.392718911170959473 0.15095105767250061 -0.901254534721374512
0.912456095218658447 0.366350829601287842 -0.170791178941726685
0.51305544376373291 -0.808467864990234375 -0.257390856742858887
-0.360350698232650757 -0.873317599296569824 -0.309477806091308594
-0.496351659297943115 -0.308578401803970337 -0.807391762733459473
-0.666991829872131348 0.303627669811248779 0.674608945846557617
-0.842897176742553711 0.374238580465316772 0.370459079742431641
-0.0295818429440259933 0.36276891827583313 -0.928719758987426758
-0.303593844175338745 0.314063727855682373 -0.893874883651733398
-0.220620796084403992 0.508302092552185059 -0.829103350639343262
0.147490039467811584 -0.672920644283294678 -0.718196988105773926
0.649741828441619873 -0.725469708442687988 -0.208952665328979492
-0.451192706823348999 0.600481212139129639 -0.652386903762817383
0.973624885082244873 0.00541304005309939384 0.18909887969493866
-0.591882407665252686 -0.366384744644165039 0.71020275354385376
-0.600520491600036621 0.785508811473846436 -0.110076218843460083
0.202619463205337524 0.914809703826904297 -0.325050055980682373
-0.123421482741832733 -0.970472872257232666 0.167135238647460938
0.447701722383499146 -0.778304934501647949 -0.434348762035369873
-0.233474031090736389 -0.382244408130645752 -0.890045583248138428
0.406969755887985229 -0.770980358123779297 0.481221169233322144
0.331830352544784546 -0.742748439311981201 0.568667709827423096
0.166800692677497864 -0.955044567584991455 0.220696970820426941
0.411174982786178589 -0.849005937576293945 0.322245150804519653
0.75325697660446167 -0.489669889211654663 -0.430668175220489502
-0.506604015827178955 0.806247889995574951 0.295419901609420776
0.311735332012176514 0.493215769529342651 -0.809696078300476074
-0.609194636344909668 -0.0812533274292945862 0.787460207939147949
-0.895945489406585693 0.316550940275192261 -0.291438639163970947
0.538217365741729736 0.669576883316040039 0.507818698883056641
-0.904744505882263184 0.40409126877784729 0.0700297951698303223
-0.117510907351970673 0.42014843225479126 -0.89557039737701416
0.731202185153961182 0.400234341621398926 -0.55005335807800293
0.0207755528390407562 -0.583213984966278076 -0.808420062065124512
0.606980562210083008 -0.770997762680053711 -0.188350588083267212
-0.56904834508895874 0.790038764476776123 -0.213426128029823303
-0.416144788265228271 0.68422245979309082 -0.593677341938018799
0.620825469493865967 -0.530770957469940186 -0.572039425373077393
0.690202772617340088 0.713794708251953125 -0.0509743094444274902
0.802708148956298828 -0.184182971715927124 0.553692102432250977
-0.78494107723236084 -0.564325451850891113 0.223235040903091431
-0.355190634727478027 -0.675573825836181641 -0.635328412055969238
-0.982730388641357422 0.0408179871737957001 -0.123359590768814087
-0.30159953236579895 -0.937613368034362793 -0.124224424362182617
0.338143467903137207 0.371093183755874634 -0.862030029296875
-0.930620729923248291 0.328435063362121582 -0.119374878704547882
-0.377036184072494507 -0.529181778430938721 -0.754967331886291504
0.954153239727020264 0.236738085746765137 -0.14875495433807373
0.228722885251045227 -0.481685429811477661 -0.840682804584503174
-0.380997538566589355 0.471455276012420654 -0.790879487991333008
-0.172257304191589355 -0.234283670783042908 0.955587148666381836
-0.815684676170349121 0.527395844459533691 -0.203321531414985657
-0.253436535596847534 -0.483451575040817261 0.830879390239715576
-0.622838616371154785 -0.720174252986907959 -0.283702641725540161
-0.531109094619750977 -0.760882437229156494 -0.360597908496856689
0.380704045295715332 0.815196990966796875 0.423036158084869385
-0.224212169647216797 0.957701325416564941 -0.126720502972602844
-0.547394096851348877 0.241385608911514282 -0.795557737350463867
0.504211664199829102 -0.284569829702377319 -0.814292669296264648
0.896262466907501221 -0.274464666843414307 -0.333862572908401489
-0.965789437294006348 0.213192597031593323 0.0712400153279304504
-0.343653112649917603 -0.602638661861419678 -0.714918196201324463
0.517170190811157227 0.78680729866027832 -0.316878050565719604
-0.892746865749359131 -0.0925770178437232971 -0.426404029130935669
-0.0764082819223403931 0.78552711009979248 -0.602686882019042969
-0.116301879286766052 0.630213141441345215 0.763051033020019531
0.612150013446807861 0.409322589635848999 -0.666100800037384033
-0.255540519952774048 0.625583648681640625 0.729654610157012939
-0.0279110390692949295 0.834514081478118896 -0.537117123603820801
0.45339357852935791 0.675549566745758057 -0.573477447032928467
0.552169263362884521 -0.00290511921048164368 -0.828164398670196533
-0.549811601638793945 0.810342550277709961 -0.169742986559867859
-0.264458507299423218 -0.871562421321868896 -0.397484540939331055
0.394432276487350464 -0.906693160533905029 -0.07219725102186203
0.488881230354309082 -0.614802718162536621 -0.615533292293548584
-0.299804121255874634 0.275738954544067383 -0.908207297325134277
0.260002881288528442 -0.866487681865692139 -0.413495093584060669
-0.726696133613586426 0.280134826898574829 -0.615434169769287109
-0.749654412269592285 -0.650277078151702881 -0.00800920743495225906
0.139706924557685852 0.813456475734710693 -0.553475499153137207
-0.411601215600967407 0.802479088306427002 -0.422142475843429565
-0.380919814109802246 0.480921953916549683 -0.784775376319885254
-0.455212056636810303 0.488988012075424194 0.737930595874786377
0.021738862618803978 -0.0416055582463741302 -0.99443972110748291
0.287149339914321899 -0.931933462619781494 -0.182403653860092163
0.412199079990386963 0.525663375854492188 0.736244618892669678
-0.594766438007354736 0.399259269237518311 -0.688961446285247803
0.303403168916702271 0.330626875162124634 -0.888659417629241943
-0.15396389365196228 -0.349651694297790527 -0.920032143592834473
-0.122742943465709686 0.98241347074508667 0.0949159488081932068
-0.0752933323383331299 0.196671277284622192 -0.97643435001373291
-0.838800191879272461 0.434455841779708862 -0.306767433881759644
0.638182580471038818 -0.00140497693791985512 0.765096008777618408
-0.235073834657669067 0.0356268361210823059 -0.966399848461151123
-0.367721647024154663 0.0733029618859291077 -0.924142599105834961
-0.91687321662902832 0.135403260588645935 -0.355172306299209595
-0.451926946640014648 -0.384261846542358398 -0.797488868236541748
0.596598267555236816 0.67653578519821167 -0.4152374267578125
0.271440953016281128 -0.951801300048828125 -0.108789220452308655
-0.585046052932739258 -0.789567053318023682 -0.155410915613174438
0.256837069988250732 0.763749361038208008 0.581990301609039307
-0.542099118232727051 -0.748841702938079834 -0.358642399311065674
-0.464456707239151001 -0.584903538227081299 -0.654709577560424805
-0.320818781852722168 0.619209945201873779 -0.711028575897216797
-0.816835343837738037 0.0349020138382911682 -0.567116618156433105
-0.672583937644958496 -0.150844871997833252 -0.719801962375640869
0.592522978782653809 0.229983508586883545 -0.763708233833312988
-0.9672202467918396 -0.168111786246299744 -0.142948076128959656
-0.0280903875827789307 0.51276475191116333 -0.852257966995239258
0.745920777320861816 0.537845075130462646 -0.374590367078781128
-0.46816590428352356 -0.818575620651245117 -0.311609983444213867
0.235584884881973267 -0.780247390270233154 -0.575039327144622803
0.786994993686676025 0.234314799308776855 -0.562009215354919434
0.124243088066577911 -0.981779634952545166 0.0526880621910095215
0.487032622098922729 0.0962109789252281189 -0.861613035202026367
-0.167791366577148438 0.317932426929473877 0.927696704864501953
0.519548416137695312 0.594818413257598877 -0.602838873863220215
0.0641143843531608582 0.984148383140563965 -0.115720145404338837
-0.393346697092056274 0.192221865057945251 0.89591825008392334
0.562613010406494141 -0.548935413360595703 0.608189940452575684
-0.0801157504320144653 -0.106184773147106171 -0.986388683319091797
-0.0302946604788303375 0.709000051021575928 -0.698397636413574219
-0.0356061048805713654 0.989847719669342041 0.0373952575027942657
-0.495178580284118652 0.217684909701347351 -0.837228119373321533
-0.0260376054793596268 0.755632579326629639 -0.644532084465026855
0.630811214447021484 0.191705688834190369 0.745788633823394775
-0.971279561519622803 -0.218505576252937317 -0.0215964075177907944
0.292126327753067017 -0.280448406934738159 -0.914221704006195068
0.268826663494110107 0.411510318517684937 0.866932690143585205
0.990528404712677002 -0.0875651687383651733 -0.0162308216094970703
-0.627168476581573486 0.687120437622070312 0.348961919546127319
-0.0905656516551971436 0.786155939102172852 0.603518486022949219
-0.808345317840576172 -0.40793144702911377 -0.413465350866317749
-0.274377673864364624 -0.110280193388462067 -0.951163351535797119
-0.465242445468902588 -0.837540209293365479 0.266390144824981689
-0.601948082447052002 -0.696658909320831299 -0.372723191976547241
-0.193473130464553833 -0.819656848907470703 -0.536581099033355713
-0.89494854211807251 -0.355757623910903931 -0.251554042100906372
0.241561070084571838 -0.959336698055267334 0.108606003224849701
-0.543901979923248291 -0.662048280239105225 -0.504881739616394043
0.0342771671712398529 -0.399608016014099121 -0.910919606685638428
-0.981171250343322754 -0.145383954048156738 -0.037298053503036499
0.671429455280303955 -0.506434738636016846 -0.533572018146514893
-0.952656030654907227 -0.0731351152062416077 -0.267363846302032471
-0.842917263507843018 -0.430406332015991211 0.316779136657714844
-0.134269982576370239 0.901077508926391602 0.393502563238143921
-0.117624819278717041 0.949049949645996094 0.271241664886474609
-0.85867077112197876 0.325152814388275146 -0.388628631830215454
0.0877709090709686279 -0.854492783546447754 0.503581404685974121
0.601530909538269043 0.78910517692565918 -0.0332992523908615112
-0.442027658224105835 -0.83609163761138916 -0.298159211874008179
0.981519043445587158 -0.158853247761726379 -0.0707534253597259521
-0.316312015056610107 -0.405554413795471191 0.851413249969482422
0.055801931768655777 -0.356023222208023071 -0.931163966655731201
-0.959486067295074463 0.146298184990882874 -0.221595898270606995
-0.235770076513290405 0.355478078126907349 0.900822699069976807
-0.409869283437728882 0.53417205810546875 -0.737969338893890381
-0.877766311168670654 0.386625170707702637 -0.257980376482009888
-0.2274952232837677 -0.852304995059967041 -0.461609929800033569
-0.125355109572410583 0.465124785900115967 0.872664451599121094
0.847452819347381592 0.119332030415534973 -0.509824752807617188
-0.398654460906982422 -0.501147031784057617 -0.764052867889404297
-0.613959729671478271 -0.675136327743530273 -0.40268513560295105
-0.403939306735992432 0.679385960102081299 -0.6069183349609375
-0.669524669647216797 -0.343880951404571533 -0.650614440441131592
0.455492228269577026 0.444578230381011963 -0.763204574584960938
-0.709419071674346924 -0.690162956714630127 -0.113451190292835236
0.0665576905012130737 0.780990362167358398 -0.609942197799682617
0.786519646644592285 -0.14833870530128479 -0.588880181312561035
-0.182093441486358643 -0.908914148807525635 -0.368144989013671875
-0.547887802124023438 0.681126117706298828 0.47649046778678894
-0.305243492126464844 -0.496906310319900513 -0.808626830577850342
0.162755250930786133 -0.435582458972930908 0.883802652359008789
0.63867497444152832 0.279798805713653564 0.708471417427062988
0.876796603202819824 0.0323528200387954712 0.471292406320571899
0.279259026050567627 -0.868164598941802979 0.389404654502868652
0.929424643516540527 0.309250086545944214 -0.197815343737602234
-0.511572182178497314 0.85303807258605957 0.0239751692861318588
0.0927022397518157959 0.922602832317352295 -0.361528098583221436
0.337841272354125977 0.662125051021575928 -0.6613808274269104
-0.948496222496032715 0.252590924501419067 -0.187551483511924744
-0.200674235820770264 0.15028950572013855 -0.963014364242553711
0.556143283843994141 -0.765565752983093262 -0.302296489477157593
0.713049948215484619 0.265773206949234009 0.643855512142181396
0.921052992343902588 0.361696720123291016 0.0832580104470252991
-0.340794503688812256 -0.027593657374382019 -0.934896469116210938
-0.385553985834121704 -0.880339384078979492 -0.246457204222679138
0.466004610061645508 -0.579177200794219971 0.66266477108001709
0.418854504823684692 0.163980931043624878 0.891080856323242188
-0.234233900904655457 0.913934946060180664 -0.312473416328430176
-0.549505352973937988 -0.00194654730148613453 -0.831782519817352295
-0.51390153169631958 -0.0558249391615390778 -0.849925398826599121
-0.150500267744064331 0.533220767974853516 -0.829221069812774658
-0.635356605052947998 -0.630870580673217773 -0.428111612796783447
-0.467553108930587769 -0.830669045448303223 0.286189019680023193
-0.587347269058227539 -0.790024936199188232 -0.119367308914661407
0.25949820876121521 0.917159318923950195 0.278503745794296265
0.398960739374160767 0.379570603370666504 -0.830713808536529541
0.828034102916717529 -0.126991927623748779 -0.542999684810638428
0.876877188682556152 0.473232269287109375 -0.00212255283258855343
0.632666170597076416 -0.318721145391464233 0.697261214256286621
-0.605420947074890137 -0.734519779682159424 0.283953964710235596
-0.849501848220825195 -0.507917582988739014 -0.0758152082562446594
0.00604232866317033768 0.837867021560668945 -0.542563557624816895
-0.495172262191772461 0.101105496287345886 -0.860339760780334473
-0.424018800258636475 0.738667666912078857 -0.512295722961425781
0.537063539028167725 0.652785599231719971 0.523724496364593506
-0.100346729159355164 0.855293691158294678 -0.497028946876525879
-0.59968721866607666 -0.528669476509094238 -0.592466890811920166
-0.114725038409233093 -0.619504451751708984 -0.770348250865936279
0.260411202907562256 0.953213334083557129 0.10012594610452652
0.626296877861022949 0.569692015647888184 0.52046436071395874
-0.265650391578674316 0.860829055309295654 0.414936631917953491
-0.34617990255355835 -0.328987807035446167 0.875451266765594482
0.708357870578765869 0.489493638277053833 0.501944839954376221
-0.959976732730865479 -0.0874275639653205872 -0.243282154202461243
-0.172889485955238342 -0.60804283618927002 -0.768506467342376709
0.58234173059463501 -0.565336167812347412 -0.581118524074554443
-0.99269944429397583 0.0674965232610702515 -0.00818153377622365952
-0.353658556938171387 0.0271286759525537491 -0.930518269538879395
-0.473076522350311279 -0.734016716480255127 0.480693191289901733
0.243551641702651978 0.937086403369903564 0.220816165208816528
-0.4146861732006073 -0.0113951731473207474 -0.908216357231140137
0.358917355537414551 0.0453473255038261414 -0.928208410739898682
0.729221105575561523 0.183131203055381775 -0.652759790420532227
-0.729387223720550537 0.0738589763641357422 -0.67099374532699585
-0.175011530518531799 0.490797549486160278 0.847229182720184326
-0.386401921510696411 0.616865575313568115 -0.682523369789123535
0.808420479297637939 0.368539720773696899 -0.443484991788864136
-0.635981440544128418 -0.626992940902709961 -0.440453857183456421
0.119479328393936157 -0.922261595726013184 -0.343350976705551147
-0.147345691919326782 -0.968286752700805664 -0.168707534670829773
-0.246334582567214966 -0.926353156566619873 -0.253722935914993286
-0.950801074504852295 -0.298181861639022827 -0.0634496584534645081
0.965591132640838623 -0.194330617785453796 0.155314579606056213
0.911812722682952881 0.259238243103027344 -0.301662743091583252
0.571041762828826904 -0.128023162484169006 -0.806710898876190186
-0.22842136025428772 -0.910711824893951416 0.328278779983520508
0.543051540851593018 0.41981092095375061 -0.720234930515289307
0.533819019794464111 -0.30924457311630249 -0.779921531677246094
-0.438986390829086304 0.0505718700587749481 -0.891033351421356201
0.43078652024269104 0.0630808025598526001 -0.896069586277008057
0.868588685989379883 0.445738881826400757 0.186735689640045166
-0.343482762575149536 0.835509061813354492 0.408895909786224365
-0.315598458051681519 -0.71728050708770752 -0.609827756881713867
-0.324399888515472412 -0.749471008777618408 0.568175435066223145
0.216858237981796265 0.17385488748550415 -0.956098020076751709
-0.822751104831695557 -0.375639140605926514 -0.415273725986480713
-0.188875064253807068 0.726956784725189209 -0.651269137859344482
0.122067786753177643 -0.27209511399269104 -0.949747264385223389
0.852661073207855225 0.339019656181335449 -0.387273818254470825
0.748348772525787354 -0.463614940643310547 -0.459260463714599609
-0.436006724834442139 -0.264765530824661255 -0.854344308376312256
0.406620770692825317 -0.810393333435058594 -0.407978594303131104
0.148623108863830566 -0.770516574382781982 0.609643518924713135
-0.574327349662780762 -0.0620966702699661255 -0.813840627670288086
-0.890062689781188965 0.392510026693344116 -0.205569833517074585
0.814069211483001709 -0.115885555744171143 -0.558792293071746826
-0.134219557046890259 0.0983185097575187683 -0.982149243354797363
-0.656325817108154297 -0.35724368691444397 -0.655234813690185547
0.360602468252182007 0.20887206494808197 0.90452808141708374
-0.94234931468963623 0.214953511953353882 -0.242770344018936157
-0.768707633018493652 -0.598096668720245361 0.186418980360031128
-0.235819876194000244 0.345010370016098022 0.904522478580474854
-0.336689352989196777 -0.197941914200782776 -0.918543398380279541
-0.768050730228424072 0.351847201585769653 0.524701774120330811
0.787746667861938477 0.23295256495475769 -0.558736562728881836
-0.234151110053062439 -0.93010556697845459 -0.270908087491989136
0.5102081298828125 0.505422055721282959 -0.686274170875549316
-0.714220881462097168 0.462721139192581177 -0.513921201229095459
-0.933906614780426025 0.331036835908889771 0.0561879239976406097
-0.173474252223968506 -0.390832573175430298 -0.901538491249084473
-0.452455848455429077 0.550579428672790527 -0.69781959056854248
0.156078100204467773 0.048036329448223114 -0.982496380805969238
-0.164838105440139771 -0.828383803367614746 -0.528419315814971924
-0.108839191496372223 -0.390157788991928101 0.909304618835449219
0.456020325422286987 -0.875746011734008789 -0.089020654559135437
-0.989570856094360352 0.0345061644911766052 0.104400694370269775
0.886414468288421631 -0.363453835248947144 0.257894337177276611
-0.0361835360527038574 -0.312028765678405762 -0.946524083614349365
0.592903494834899902 0.406079351902008057 -0.693532109260559082
-0.896647870540618896 -0.349515467882156372 -0.252051621675491333
-0.741343021392822266 0.651555061340332031 -0.104418128728866577
-0.201609596610069275 0.699389040470123291 -0.676013350486755371
-0.845733582973480225 0.185596823692321777 -0.487399309873580933
0.578780531883239746 0.355926036834716797 -0.727544665336608887
0.660586774349212646 -0.546695113182067871 0.509043216705322266
-0.111265622079372406 0.388762146234512329 -0.909319579601287842
0.150601819157600403 0.425741136074066162 -0.886520087718963623
0.633730173110961914 -0.762269377708435059 0.00188101886305958033
0.0756916999816894531 0.269718527793884277 0.959329903125762939
-0.275930076837539673 -0.87362825870513916 0.382338196039199829
-0.0513107329607009888 0.536602139472961426 -0.838770687580108643
0.582162857055664062 0.331212103366851807 -0.734756588935852051
-0.498871833086013794 0.485493659973144531 -0.712213337421417236
0.112386666238307953 0.246717497706413269 -0.95787125825881958
0.355888187885284424 0.0912735685706138611 -0.927095770835876465
0.664070487022399902 0.528179407119750977 0.520386576652526855
0.0853920057415962219 0.124137900769710541 -0.98410797119140625
-0.302100032567977905 0.939492166042327881 0.135853201150894165
0.13441932201385498 -0.564335882663726807 -0.811190009117126465
0.521072208881378174 -0.390154093503952026 -0.75418388843536377
0.760275363922119141 -0.603613674640655518 -0.215940788388252258
