ply
format ascii 1.0
element vertex 741
property float x
property float y
property float z
end_header
0.735561132431030273 0.0312053840607404709 -0.67409968376159668
-0.198450848460197449 -0.942392110824584961 -0.323125392198562622
0.820618689060211182 -0.984415829181671143 -0.161546185612678528
-0.956497728824615479 0.993544101715087891 0.0731777101755142212
-0.425272256135940552 0.944305837154388428 -0.316123157739639282
0.24305000901222229 0.684024691581726074 0.723206698894500732
-0.405273318290710449 0.97237318754196167 -0.222109302878379822
-0.972385704517364502 0.196799129247665405 0.212893113493919373
0.773178398609161377 0.0958983078598976135 0.631409049034118652
0.906300008296966553 0.347415059804916382 -0.414785474538803101
0.263871997594833374 -0.336394369602203369 0.937669336795806885
0.936408102512359619 -0.639584958553314209 -0.343287557363510132
0.398934096097946167 -0.871360480785369873 -0.481757998466491699
-0.205891117453575134 0.839605450630187988 -0.535109043121337891
-0.731920897960662842 -0.889045298099517822 -0.447859495878219604
0.343401998281478882 0.566675722599029541 0.81881338357925415
-0.542202234268188477 0.741037309169769287 0.667993068695068359
-0.497994601726531982 0.765961825847625732 -0.635978341102600098
-0.699457347393035889 0.0756570622324943542 -0.711765527725219727
-0.546714305877685547 -0.0815901458263397217 0.831806778907775879
-0.315783888101577759 -0.299516141414642334 0.946013569831848145
0.567800939083099365 -0.112880386412143707 0.818080902099609375
-0.409988373517990112 0.815671145915985107 -0.574591279029846191
0.400146961212158203 0.471728056669235229 0.880617439746856689
-0.569051206111907959 0.697362005710601807 0.710290253162384033
0.61721038818359375 0.171436190605163574 -0.781393110752105713
-0.0783515498042106628 -0.06915302574634552 -0.992988646030426025
0.322876483201980591 0.999732315540313721 -0.00277456897310912609
0.635290384292602539 -0.514730334281921387 -0.76639169454574585
-0.963464736938476562 -0.975185215473175049 0.200627520680427551
0.657924175262451172 -0.803242802619934082 0.58830946683883667
-0.823939740657806396 0.0273166205734014511 -0.563276350498199463
-0.579933524131774902 -0.542890548706054688 -0.809213519096374512
-0.655415773391723633 -0.927519917488098145 -0.361735939979553223
-0.0271470211446285248 -0.0635084807872772217 -0.9933510422706604
0.0449680909514427185 -0.140265792608261108 -0.988423049449920654
-0.220908388495445251 0.994627177715301514 -0.0556947141885757446
-0.399803727865219116 0.997298240661621094 -0.0438905283808708191
-0.134038224816322327 -0.999079227447509766 -0.00954478327184915543
-0.902052879333496094 0.737884044647216797 -0.422926366329193115
0.966740906238555908 -0.294573366641998291 0.237624377012252808
-0.541021168231964111 -0.977224647998809814 -0.192235469818115234
-0.0144744561985135078 -0.739058434963226318 0.669909536838531494
-0.3629913330078125 -0.75998687744140625 0.649641454219818115
-0.504940330982208252 0.798675000667572021 -0.594957411289215088
0.979279220104217529 0.0377014279365539551 -0.179527178406715393
0.708135426044464111 -0.998442649841308594 -0.016143331304192543
-0.641688346862792969 -0.994861841201782227 0.0320860147476196289
-0.851855635643005371 0.0902351811528205872 0.518619298934936523
0.959277451038360596 0.569640994071960449 0.270324051380157471
-0.888014435768127441 -0.683450937271118164 0.453001618385314941
0.261828452348709106 0.992604672908782959 -0.0766600221395492554
-0.495478332042694092 -0.853392481803894043 -0.516199290752410889
0.609175562858581543 -0.993803679943084717 -0.0642310976982116699
0.668744027614593506 -0.598319530487060547 0.738005220890045166
0.992435693740844727 -0.991268455982208252 0.107741810381412506
0.462420284748077393 -0.983549952507019043 -0.153111070394515991
0.49749794602394104 -0.623205423355102539 0.782016575336456299
-0.133959010243415833 0.889492511749267578 0.449662655591964722
-0.626641035079956055 -0.841203927993774414 -0.532472312450408936
-0.995181620121002197 -0.51328045129776001 -0.0499472841620445251
-0.524667680263519287 0.8240700364112854 -0.563113033771514893
0.717329025268554688 0.876421034336090088 0.479191243648529053
0.98852163553237915 -0.303995013236999512 0.142196878790855408
0.989495515823364258 -0.753273367881774902 0.137929931282997131
0.986578643321990967 0.958406984806060791 -0.139126360416412354
-0.065565064549446106 -0.179592564702033997 -0.980462908744812012
-0.825398564338684082 -0.254609733819961548 -0.561447083950042725
0.19519217312335968 -0.94495844841003418 -0.314478576183319092
-0.982508063316345215 -0.704880833625793457 -0.181322336196899414
0.91135716438293457 -0.853045821189880371 0.400269955396652222
0.548278748989105225 -0.927143335342407227 -0.362759321928024292
0.991831064224243164 0.982643783092498779 -0.101889349520206451
-0.843771934509277344 0.80124211311340332 -0.534640014171600342
0.982650876045227051 -0.822398483753204346 -0.158672034740447998
0.641061544418334961 0.350977957248687744 -0.761478602886199951
-0.24412614107131958 0.270278006792068481 0.961442947387695312
0.191098734736442566 -0.535162806510925293 -0.8409842848777771
-0.15715278685092926 -0.411246895790100098 -0.910772442817687988
-0.397491693496704102 -0.829401075839996338 0.550809621810913086
0.456221580505371094 -0.853653788566589355 -0.511934936046600342
0.934469342231750488 -0.185166865587234497 -0.349819809198379517
-0.457374453544616699 -0.611028015613555908 -0.786007165908813477
-0.283478289842605591 0.981296658515930176 0.173851579427719116
0.438904136419296265 0.996221423149108887 -0.0103110466152429581
0.993207693099975586 -0.47986835241317749 -0.0704090595245361328
-0.98359990119934082 0.529236376285552979 -0.170004278421401978
-0.398434251546859741 -0.824910879135131836 0.557246625423431396
0.0812959298491477966 0.995964944362640381 -0.00231213541701436043
0.628780603408813477 0.743818163871765137 -0.663745641708374023
0.0740016847848892212 -0.967951297760009766 0.232321277260780334
0.2245493084192276 0.678224325180053711 -0.733755648136138916
-0.194467514753341675 0.961669981479644775 -0.258171916007995605
0.642852425575256348 0.227460458874702454 -0.762255966663360596
0.327714323997497559 -0.843245565891265869 0.530962526798248291
0.918133318424224854 -0.966906130313873291 -0.254710853099822998
0.140607699751853943 -0.993612289428710938 0.0710513889789581299
0.119551278650760651 -0.815397202968597412 -0.573988378047943115
0.45669323205947876 -0.936068713665008545 0.344446122646331787
-0.221132218837738037 0.923385322093963623 -0.372971028089523315
-0.914678394794464111 0.275380909442901611 -0.39663049578666687
0.997793674468994141 -0.292559027671813965 -0.0650086626410484314
-0.689428031444549561 0.949111223220825195 -0.303065448999404907
-0.604574978351593018 0.941859304904937744 -0.322771221399307251
0.626951694488525391 0.484743773937225342 -0.773490488529205322
0.958535254001617432 0.0804383531212806702 0.273575901985168457
-0.40445256233215332 -0.96974712610244751 -0.238486379384994507
0.448295831680297852 0.897045552730560303 -0.440355658531188965
0.931807339191436768 -0.89809882640838623 -0.358789026737213135
0.344050586223602295 -0.932013034820556641 -0.349526762962341309
0.992946505546569824 0.26054680347442627 0.091813601553440094
0.4389820396900177 -0.312270402908325195 0.896136164665222168
-0.905813217163085938 -0.314287662506103516 0.412793904542922974
-0.571830153465270996 0.947441220283508301 -0.307603359222412109
0.997512340545654297 -0.645923495292663574 -0.02578694187104702
-0.225848183035850525 0.888104259967803955 -0.455105304718017578
-0.183061763644218445 0.907564401626586914 -0.415961623191833496
-0.153906553983688354 0.430414944887161255 -0.897510528564453125
0.65548628568649292 -0.321892321109771729 -0.749198675155639648
0.168584316968917847 -0.983376562595367432 -0.172319620847702026
0.120435044169425964 0.0306005533784627914 0.990624845027923584
0.78972858190536499 0.169242054224014282 0.607683122158050537
-0.0930447503924369812 0.383825451135635376 -0.919946849346160889
-0.321255862712860107 0.43314749002456665 -0.896194636821746826
0.181796684861183167 0.955911040306091309 -0.284588158130645752
-0.842310070991516113 -0.744829773902893066 -0.530647516250610352
-0.221208930015563965 0.197986721992492676 -0.971026003360748291
-0.793743610382080078 0.996434032917022705 -0.036964762955904007
-0.489341020584106445 -0.694768249988555908 0.71280217170715332
0.285180330276489258 -0.956271529197692871 -0.283608585596084595
-0.161567568778991699 0.523433208465576172 -0.851380884647369385
-0.876771032810211182 0.206879138946533203 0.478400647640228271
-0.973005354404449463 0.316468119621276855 -0.219979226589202881
0.0864257737994194031 0.909299969673156738 0.404917240142822266
0.744941115379333496 0.902397990226745605 0.420508861541748047
0.881063580513000488 0.146353080868721008 0.468703746795654297
0.882921993732452393 -0.995720088481903076 0.00532272085547447205
-0.487044423818588257 -0.970110416412353516 -0.236239433288574219
-0.419691979885101318 0.623663425445556641 0.781663358211517334
0.508232831954956055 -0.806994795799255371 0.582930684089660645
-0.149516627192497253 0.994538366794586182 0.0421731807291507721
0.850488007068634033 -0.120322555303573608 -0.521766602993011475
0.0953757092356681824 0.997344493865966797 -0.0453315600752830505
-0.582319200038909912 -0.991724371910095215 -0.0857857763767242432
-0.149410590529441833 -0.76668316125869751 0.6407204270362854
-0.0936678424477577209 -0.942408263683319092 0.330125033855438232
0.0123660974204540253 -0.239260613918304443 -0.969369947910308838
0.892654895782470703 -0.622464358806610107 0.442518681287765503
-0.577295541763305664 -0.264923572540283203 0.811900615692138672
0.696342587471008301 -0.253141969442367554 0.711277484893798828
-0.693702936172485352 -0.714409470558166504 -0.699036598205566406
0.407400786876678467 -0.99299323558807373 -0.0726324096322059631
-0.535106778144836426 -0.363423675298690796 0.839362442493438721
0.0885810106992721558 -0.991863548755645752 -0.101688407361507416
0.948633074760437012 0.688205897808074951 -0.302097499370574951
-0.118356741964817047 0.762513279914855957 -0.640302777290344238
0.241712644696235657 -0.11495613306760788 0.967006087303161621
0.156042590737342834 0.320315062999725342 -0.942458033561706543
0.221051394939422607 -0.996899783611297607 -0.0314642973244190216
0.257255911827087402 -0.56127244234085083 -0.826279640197753906
-0.475024610757827759 -0.655250430107116699 -0.753003060817718506
-0.0521620027720928192 0.50795435905456543 0.857036709785461426
-0.000601738516706973314 0.667770683765411377 0.738947868347167969
0.218736782670021057 -0.737648189067840576 -0.671482563018798828
-0.942916035652160645 -0.130651727318763733 -0.321360081434249878
-0.449115991592407227 0.312755435705184937 -0.889444947242736816
0.741144001483917236 0.61662757396697998 -0.664474129676818848
-0.70217365026473999 -0.693840920925140381 -0.707384765148162842
-0.883623301982879639 -0.315885990858078003 0.462921261787414551
0.875136017799377441 -0.109145663678646088 0.48209419846534729
0.728315949440002441 0.115041986107826233 -0.683184802532196045
-0.337229281663894653 0.748122453689575195 -0.658348262310028076
0.975836098194122314 -0.300502568483352661 -0.210441425442695618
0.243981599807739258 -0.639278531074523926 -0.762996554374694824
-0.639205574989318848 0.691819131374359131 -0.718268036842346191
-0.0822394713759422302 0.698773801326751709 0.708922982215881348
0.881396830081939697 -0.604314267635345459 -0.466169834136962891
-0.510997414588928223 0.997331976890563965 -0.0678645670413970947
0.0790465399622917175 -0.334893733263015747 -0.941214323043823242
0.741528987884521484 0.90345001220703125 0.41813233494758606
-0.367132604122161865 0.60698997974395752 -0.789020836353302002
-0.825815200805664062 0.00390527374111115932 -0.560924649238586426
-0.471504926681518555 0.930282175540924072 -0.363927751779556274
0.655199229717254639 -0.110579483211040497 -0.753041267395019531
-0.988289833068847656 -0.814874410629272461 -0.123793266713619232
0.543421506881713867 0.98638606071472168 -0.135568916797637939
0.0809202417731285095 -0.334571897983551025 -0.937724411487579346
0.1023096963763237 0.634236156940460205 0.771424174308776855
-0.836259067058563232 -0.159381121397018433 -0.547828495502471924
0.908771753311157227 0.461638391017913818 -0.412680685520172119
-0.44667699933052063 -0.883786201477050781 -0.462228327989578247
0.72369009256362915 -0.78427433967590332 -0.613015234470367432
-0.628413796424865723 0.547955572605133057 -0.77224576473236084
-0.716675102710723877 0.0788872763514518738 -0.697107911109924316
-0.1024608314037323 0.484317511320114136 -0.871552467346191406
-0.466268777847290039 -0.863055050373077393 -0.496426522731781006
0.838207244873046875 0.922544181346893311 0.374998301267623901
0.973683834075927734 0.991092383861541748 -0.106458529829978943
0.940031766891479492 -0.745890140533447266 -0.331078141927719116
-3.62068567483220249e-05 -0.850786089897155762 -0.516665518283843994
0.18830554187297821 -0.0380357950925827026 -0.979654252529144287
0.777755498886108398 -0.833654522895812988 -0.551094472408294678
0.481931716203689575 0.991579592227935791 0.128799170255661011
-0.771322369575500488 -0.316109031438827515 -0.629256486892700195
-0.158432707190513611 -0.258590757846832275 -0.962951898574829102
-0.899342119693756104 -0.866150140762329102 -0.436567217111587524
0.630987763404846191 0.971473097801208496 0.216891318559646606
-0.811970174312591553 0.934662759304046631 0.347622215747833252
-0.337264358997344971 -0.0212353169918060303 -0.936830461025238037
-0.387260317802429199 -0.848330140113830566 -0.525902867317199707
-0.654658794403076172 -0.897986650466918945 -0.43072056770324707
0.653822541236877441 -0.994653820991516113 0.0385725535452365875
0.689986824989318848 0.641067683696746826 -0.72080385684967041
0.309933781623840332 0.136465862393379211 -0.947759568691253662
0.230715394020080566 -0.995775699615478516 -0.0774903669953346252
0.634077370166778564 0.63580554723739624 0.769904375076293945
0.886995911598205566 -0.212205961346626282 -0.45693361759185791
-0.585690796375274658 -0.912119567394256592 0.398547649383544922
0.959695100784301758 0.892815351486206055 -0.274305552244186401
-0.0111659392714500427 0.0799426808953285217 -0.99331134557723999
-0.876471221446990967 -0.0865017920732498169 -0.474295198917388916
0.94739001989364624 -0.831525623798370361 -0.306285709142684937
0.292643904685974121 -0.985193014144897461 -0.142948299646377563
0.958831369876861572 0.811713814735412598 0.272278517484664917
0.409901231527328491 -0.124692030251026154 -0.911530256271362305
0.612545132637023926 -0.979696929454803467 -0.197433024644851685
-0.398427665233612061 0.977483868598937988 -0.190632164478302002
-0.691047608852386475 -0.902426302433013916 -0.429923385381698608
-0.192622929811477661 -0.867630183696746826 -0.488879412412643433
0.652526617050170898 0.131982728838920593 -0.751718223094940186
-0.674905836582183838 0.993575096130371094 -0.0911019891500473022
-0.613540768623352051 -0.992280542850494385 0.112580753862857819
-0.807053506374359131 -0.996776282787322998 -0.03341718390583992
-0.890724301338195801 0.335826605558395386 0.446880042552947998
0.635118842124938965 -0.407791286706924438 0.770569384098052979
0.0670579224824905396 -0.978315293788909912 -0.202088356018066406
0.133734777569770813 -0.54781341552734375 0.831091344356536865
-0.815932035446166992 -0.798540949821472168 -0.574160873889923096
0.775324046611785889 -0.920827269554138184 -0.379921972751617432
0.207518458366394043 0.767476320266723633 -0.634079277515411377
0.98856663703918457 0.968206644058227539 -0.118518754839897156
-0.813174426555633545 -0.290661811828613281 -0.578709900379180908
0.101227737963199615 -0.400081217288970947 0.911885380744934082
-0.0284777116030454636 -0.958790719509124756 0.272456586360931396
0.0505622141063213348 0.98481285572052002 -0.157430499792098999
-0.0572397857904434204 0.329590439796447754 -0.93937838077545166
0.993582546710968018 0.757114768028259277 0.0719786211848258972
0.283329963684082031 0.0656330958008766174 -0.954735934734344482
0.997191846370697021 0.110383063554763794 -0.0291093885898590088
0.741606473922729492 0.350155174732208252 0.667441904544830322
-0.717416107654571533 -0.412568777799606323 -0.696476995944976807
-0.371939241886138916 0.889479875564575195 0.449691146612167358
-0.274519294500350952 -0.992025792598724365 0.120524674654006958
-0.688357114791870117 -0.653056442737579346 -0.72259831428527832
0.566356003284454346 0.283330142498016357 -0.819346725940704346
0.0713021159172058105 0.846917569637298584 -0.523047029972076416
0.233507305383682251 -0.953957259654998779 -0.284158498048782349
0.805258572101593018 0.936080694198608398 -0.338473498821258545
0.180520147085189819 -0.488819599151611328 -0.867084264755249023
-0.892481625080108643 0.918280184268951416 0.384630709886550903
-0.635370373725891113 -0.446435898542404175 -0.766323566436767578
-0.859659552574157715 -0.945088446140289307 -0.314040571451187134
-0.0329052619636058807 -0.310282498598098755 -0.947668135166168213
-0.0650133118033409119 -0.387694567441940308 -0.920086503028869629
0.97187960147857666 0.301077067852020264 -0.225296512246131897
0.212586313486099243 0.974954664707183838 -0.206275969743728638
0.0190297160297632217 0.824735641479492188 0.557497918605804443
-0.707125067710876465 -0.983669698238372803 -0.152370557188987732
-0.921895682811737061 0.361642569303512573 0.376463323831558228
0.532646596431732178 -0.772544264793395996 0.632318198680877686
-0.72415614128112793 -0.884470224380493164 -0.461100012063980103
-0.931658625602722168 0.449403584003448486 -0.359289973974227905
0.0731465816497802734 0.734521746635437012 -0.671765923500061035
0.415394097566604614 -0.921786785125732422 0.376709222793579102
0.172660097479820251 0.990677118301391602 -0.09664154052734375
-0.143549367785453796 0.937301576137542725 -0.340277016162872314
-0.234685614705085754 -0.842667341232299805 -0.536757409572601318
-0.411462754011154175 0.988077700138092041 -0.123587340116500854
0.766926050186157227 -0.00683823134750127792 0.640372335910797119
-0.765671014785766602 -0.778441548347473145 -0.623405337333679199
0.950081944465637207 0.978395700454711914 0.186561435461044312
0.122293651103973389 0.526361405849456787 -0.845941126346588135
-0.11510816216468811 -0.853963553905487061 -0.511423945426940918
-0.914245128631591797 0.551997125148773193 -0.399556130170822144
-0.600024878978729248 -0.911001622676849365 -0.406621456146240234
0.947624146938323975 -0.466473489999771118 -0.307106286287307739
0.239799633622169495 0.379138976335525513 -0.922927141189575195
0.645679950714111328 -0.873973429203033447 -0.4767494797706604
0.684163153171539307 -0.972628295421600342 0.211830154061317444
-0.0452774167060852051 -0.151511892676353455 -0.98408353328704834
-0.555978298187255859 -0.32715800404548645 -0.827091813087463379
0.232557520270347595 0.816825747489929199 -0.572197079658508301
-0.945477545261383057 -0.00723892031237483025 -0.312729477882385254
0.016604691743850708 -0.10356689989566803 0.993909955024719238
0.726020634174346924 0.992499411106109619 0.105756081640720367
-0.854687869548797607 0.634015560150146484 -0.510229051113128662
0.449969708919525146 0.717245519161224365 -0.690788984298706055
0.607425451278686523 0.494887262582778931 -0.788695812225341797
0.289925217628479004 0.702415406703948975 -0.707118570804595947
-0.515517234802246094 -0.804754137992858887 -0.592600047588348389
0.146461248397827148 0.941532731056213379 0.332102805376052856
0.9099159836769104 -0.0455186180770397186 0.403525590896606445
0.479556560516357422 -0.993370473384857178 -0.0923678651452064514
-0.992858290672302246 0.532736420631408691 0.0945638641715049744
0.997869133949279785 0.426946908235549927 -0.0616913549602031708
0.0762541964650154114 0.894196152687072754 -0.445056021213531494
0.336666345596313477 0.993563294410705566 -0.0667228996753692627
0.327559292316436768 -0.982323825359344482 -0.183231756091117859
-0.773829460144042969 -0.431166678667068481 -0.626112699508666992
0.268628031015396118 -0.321113884449005127 0.943855702877044678
-0.917523205280303955 0.581017851829528809 0.386340826749801636
0.238052770495414734 0.427247285842895508 -0.899036049842834473
-0.746595919132232666 0.0723004713654518127 -0.660262465476989746
0.607635378837585449 0.676174283027648926 -0.731586694717407227
0.97452467679977417 -0.578813433647155762 -0.208935722708702087
0.851018726825714111 0.96529310941696167 0.243967592716217041
0.186482697725296021 -0.688846707344055176 -0.722059249877929688
0.940652370452880859 0.358463168144226074 -0.326050817966461182
0.0947339385747909546 0.380786985158920288 -0.921410143375396729
0.169161751866340637 0.62164461612701416 0.783032596111297607
-0.649404466152191162 0.970942914485931396 -0.231089964509010315
0.496879607439041138 0.282195210456848145 0.864245593547821045
-0.523938119411468506 -0.880978226661682129 -0.46332252025604248
0.963125705718994141 0.380458921194076538 -0.253267079591751099
-0.615881085395812988 0.944332599639892578 0.325777828693389893
0.857468008995056152 -0.475082665681838989 -0.508387207984924316
-0.518376588821411133 0.801463961601257324 -0.598027467727661133
-0.947279214859008789 0.146471470594406128 -0.306659042835235596
0.350947946310043335 -0.1609840989112854 -0.932287216186523438
-0.586452603340148926 -0.153665289282798767 -0.807967901229858398
0.865386784076690674 0.566539943218231201 -0.493208497762680054
0.170301333069801331 -0.927281200885772705 -0.374039053916931152
-0.417309105396270752 0.754900634288787842 -0.649848699569702148
0.914501070976257324 -0.0575702078640460968 -0.397112399339675903
-0.767039477825164795 0.193869695067405701 -0.635960280895233154
-0.945428848266601562 -0.606811761856079102 -0.313071638345718384
-0.806341826915740967 -0.437418550252914429 0.583866775035858154
0.193360164761543274 0.971606910228729248 -0.224691033363342285
0.531307816505432129 0.878938734531402588 0.473503738641738892
0.266680508852005005 -0.691368281841278076 0.716094851493835449
-0.60783308744430542 -0.942611813545227051 0.329665184020996094
-0.149114266037940979 0.980160653591156006 -0.195870727300643921
-0.488181114196777344 0.241290464997291565 -0.869691848754882812
-0.238724246621131897 -0.15435415506362915 -0.969548046588897705
-0.591917872428894043 0.136658519506454468 -0.803315222263336182
-0.664031684398651123 -0.881828427314758301 -0.461692899465560913
-0.988744258880615234 -0.288590401411056519 -0.120982423424720764
-0.637151598930358887 -0.914380192756652832 -0.397440880537033081
-0.113611266016960144 0.193509653210639954 0.976393580436706543
0.310942858457565308 0.0238121151924133301 -0.945569813251495361
-0.0461091697216033936 -0.793561398983001709 -0.601369619369506836
-0.746390283107757568 -0.337256848812103271 -0.660520315170288086
0.940584301948547363 0.597781777381896973 -0.326235830783843994
0.102588459849357605 -0.46906706690788269 0.882349550724029541
-0.707683861255645752 -0.8539389967918396 -0.511464476585388184
-0.559708178043365479 -0.202611088752746582 -0.827160537242889404
0.278724342584609985 0.160109400749206543 -0.956267118453979492
-0.217504173517227173 0.506170392036437988 0.858197927474975586
0.0990077927708625793 -0.807872653007507324 -0.587455689907073975
-0.0170733220875263214 0.587822973728179932 0.805048048496246338
-0.632551133632659912 -0.46264725923538208 -0.768723607063293457
0.909016549587249756 -0.791773974895477295 0.405557394027709961
-0.964891552925109863 -0.356979966163635254 0.245727062225341797
0.239651545882225037 0.921561777591705322 0.377217590808868408
0.904712200164794922 0.628567337989807129 -0.423711925745010376
-0.842215299606323242 0.0575828142464160919 0.532439470291137695
0.16864149272441864 -0.996669352054595947 -0.0242784228175878525
0.0611815378069877625 0.955926239490509033 0.285006493330001831
-0.476506918668746948 -0.518923103809356689 -0.850130319595336914
-0.994658172130584717 -0.39015430212020874 0.0384365320205688477
0.444936871528625488 0.760349154472351074 -0.643327116966247559
0.447190314531326294 -0.902444779872894287 -0.422175168991088867
0.330645352602005005 0.739930570125579834 0.669064939022064209
-0.993582248687744141 -0.747511863708496094 0.0719887465238571167
0.495780438184738159 -0.647092342376708984 -0.759091675281524658
0.707896709442138672 0.835491418838500977 0.542078614234924316
0.99081122875213623 -0.101645424962043762 -0.108197368681430817
-0.884739518165588379 -0.973742961883544922 -0.213770821690559387
-0.619577109813690186 -0.595384001731872559 0.784378349781036377
0.350626200437545776 0.468047827482223511 -0.879387497901916504
-0.342510521411895752 -0.594229936599731445 0.800877571105957031
0.677337706089019775 0.713497757911682129 -0.694915652275085449
-0.961606204509735107 -0.00193451973609626293 -0.258386820554733276
-0.616091430187225342 -0.673367440700531006 -0.733976185321807861
0.0155832655727863312 0.988475918769836426 -0.122642368078231812
0.840829253196716309 0.982882201671600342 -0.15724124014377594
0.342818886041641235 -0.996825933456420898 -0.0291622616350650787
-0.966117799282073975 0.997721731662750244 -0.0570963397622108459
-0.996893048286437988 0.229305386543273926 -0.0312545076012611389
0.913550972938537598 0.11620427668094635 -0.399694055318832397
-0.999262213706970215 -0.835672497749328613 -0.00764792691916227341
-0.655260443687438965 -0.83100968599319458 0.548503518104553223
-0.908908426761627197 0.345524758100509644 -0.412309437990188599
0.80130314826965332 -0.383438289165496826 0.591090083122253418
0.372876286506652832 -0.847751080989837646 0.524503469467163086
0.00406214967370033264 -0.960987567901611328 -0.260471194982528687
0.976250290870666504 0.572999238967895508 0.195961222052574158
0.643696427345275879 -0.974384069442749023 0.204137474298477173
-0.828909218311309814 -0.290293753147125244 -0.557044863700866699
-0.57532423734664917 -0.266607820987701416 -0.817441642284393311
-0.4182606041431427 -0.530747294425964355 -0.845922172069549561
0.994522392749786377 0.372714430093765259 -0.0567812249064445496
0.793489217758178711 0.0610205680131912231 0.602292001247406006
0.596340954303741455 -0.457514196634292603 -0.796968400478363037
0.769431412220001221 -0.939400017261505127 -0.333206653594970703
0.946807861328125 -0.190089121460914612 -0.308247238397598267
-0.431249052286148071 0.87542802095413208 0.481434464454650879
0.896463334560394287 -0.225416496396064758 0.433915376663208008
0.175567120313644409 0.965064048767089844 0.244971320033073425
0.589458286762237549 -0.659620165824890137 -0.74567943811416626
-0.12560705840587616 0.363189071416854858 -0.929884850978851318
0.526125311851501465 0.632214248180389404 0.773382365703582764
0.998745620250701904 -0.991058945655822754 -0.0130026554688811302
0.692634880542755127 -0.701111257076263428 -0.708554565906524658
-0.186820626258850098 0.397541224956512451 -0.913341701030731201
0.052000831812620163 0.961043000221252441 -0.260284304618835449
0.306322306394577026 -0.190227285027503967 -0.947103917598724365
-0.272711664438247681 0.816937923431396484 0.568676531314849854
0.73909229040145874 -0.851276159286499023 -0.515857040882110596
-0.323160618543624878 0.212813153862953186 0.943027079105377197
0.380053550004959106 -0.00639905966818332672 -0.921763300895690918
0.375945866107940674 0.978538215160369873 0.185936987400054932
-0.147931918501853943 -0.211256802082061768 0.972937345504760742
-0.258395940065383911 -0.949409544467926025 -0.302254706621170044
0.956732809543609619 -0.0855264812707901001 -0.274806797504425049
0.928317546844482422 -0.504403352737426758 -0.359568506479263306
-0.0470667853951454163 -0.229595273733139038 -0.968826830387115479
-0.918313264846801758 -0.460027962923049927 -0.391758263111114502
-0.0652452930808067322 -0.639475643634796143 -0.764776110649108887
0.307880103588104248 0.749558031558990479 0.659741222858428955
-0.982432007789611816 -0.202733621001243591 -0.182110786437988281
-0.681345164775848389 -0.889188945293426514 -0.453316003084182739
0.494625657796859741 -0.822999060153961182 -0.562503039836883545
0.814782440662384033 0.958931565284729004 0.271839529275894165
-0.978636682033538818 -0.345516592264175415 -0.183501273393630981
-0.992526888847351074 -0.145316824316978455 0.104899279773235321
0.0887955725193023682 -0.88711780309677124 0.455027163028717041
0.52603524923324585 0.852495014667510986 -0.517919600009918213
0.00157329963985830545 0.420919358730316162 -0.905324995517730713
0.796731114387512207 0.899638116359710693 -0.427555084228515625
-0.581958770751953125 -0.535299956798553467 0.808865189552307129
0.799528062343597412 0.29525226354598999 0.59363478422164917
-0.943690776824951172 -0.0404510833323001862 -0.317794591188430786
-0.737215995788574219 -0.53461456298828125 -0.668799281120300293
-0.997343659400939941 0.926474452018737793 -0.0453054830431938171
-0.208566144108772278 0.477375298738479614 -0.874895632266998291
-0.858935773372650146 -0.986537635326385498 -0.139551356434822083
-0.98340374231338501 -0.243717879056930542 -0.172037571668624878
0.442021459341049194 0.98929828405380249 -0.117555603384971619
-0.757317781448364258 0.572127282619476318 -0.646817624568939209
0.154403001070022583 -0.309315592050552368 -0.947921693325042725
-0.282139569520950317 0.97435915470123291 -0.209959551692008972
0.185798332095146179 -0.895897746086120605 0.435193121433258057
-0.25141453742980957 0.985061347484588623 -0.154854491353034973
-0.218588396906852722 0.257010847330093384 0.964026749134063721
0.904096662998199463 0.289480447769165039 -0.425384551286697388
-0.599715650081634521 0.403641849756240845 -0.796676874160766602
0.104949340224266052 0.411272495985031128 0.907354533672332764
0.984357118606567383 0.157746568322181702 -0.162154927849769592
-0.918316900730133057 -0.884779095649719238 -0.391751259565353394
0.63657069206237793 -0.767257273197174072 0.639897406101226807
0.976462006568908691 0.363911211490631104 0.195033594965934753
-0.991626441478729248 -0.587753891944885254 -0.0868009775876998901
0.733984053134918213 0.991798579692840576 0.127610489726066589
-0.0496174916625022888 0.799958407878875732 -0.593348026275634766
-0.663729667663574219 -0.408251672983169556 -0.746674895286560059
-0.536895692348480225 -0.154916301369667053 0.838198006153106689
-0.327293664216995239 0.592959463596343994 0.801704525947570801
-0.981740951538085938 -0.424023866653442383 -0.164300248026847839
-0.452943742275238037 0.989135563373565674 -0.118561968207359314
-0.198458358645439148 -0.421854704618453979 -0.901632964611053467
-0.292813658714294434 -0.714486062526702881 -0.693827450275421143
0.815539121627807617 -0.234693929553031921 -0.573810458183288574
0.667685449123382568 -0.658988893032073975 0.739030361175537109
-0.488244801759719849 0.279038101434707642 -0.867408037185668945
0.985382914543151855 -0.634606540203094482 -0.151521384716033936
-0.901675164699554443 -0.75028228759765625 -0.423650413751602173
0.613854408264160156 -0.979920923709869385 -0.175558075308799744
-0.401642858982086182 0.587097406387329102 -0.803866982460021973
-0.713442564010620117 0.531404376029968262 0.694717109203338623
-0.905981242656707764 -0.614862382411956787 -0.420263499021530151
0.801698923110961914 -0.524186074733734131 -0.597639918327331543
-0.937727987766265869 0.285522967576980591 -0.338840484619140625
0.296049892902374268 0.81868898868560791 -0.569612979888916016
0.349677503108978271 -0.955727458000183105 -0.278194248676300049
-0.239465519785881042 -0.461581826210021973 -0.882424294948577881
0.927042782306671143 -0.700556933879852295 -0.374842345714569092
0.868596971035003662 0.750578105449676514 -0.487055093050003052
0.810494005680084229 0.0149049581959843636 0.577914297580718994
-0.979899764060974121 0.145469650626182556 -0.175688952207565308
0.992008864879608154 -0.31747591495513916 0.121052756905555725
-0.478786587715148926 -0.293005168437957764 0.876022815704345703
0.696428298950195312 0.830369889736175537 -0.555213272571563721
0.894434094429016113 0.201023861765861511 0.438499420881271362
0.659000158309936523 -0.461793333292007446 0.747441589832305908
-0.334342151880264282 0.715763986110687256 -0.692420303821563721
0.927264273166656494 0.191703096032142639 -0.362430691719055176
0.543083310127258301 0.705402493476867676 0.702503502368927002
-0.0272447429597377777 -0.794371068477630615 -0.600354373455047607
-0.93274688720703125 -0.256524175405502319 -0.355623424053192139
0.957279860973358154 -0.956193983554840088 0.279076129198074341
0.820670545101165771 0.203435003757476807 -0.567375838756561279
0.43933635950088501 -0.828474164009094238 0.552138388156890869
-0.0201977398246526718 0.874154865741729736 0.484310686588287354
-0.0877469778060913086 0.718939006328582764 -0.694943130016326904
0.312118858098983765 0.685381889343261719 -0.725874364376068115
0.994920074939727783 -0.596590995788574219 0.0302694588899612427
-0.417051166296005249 -0.906016647815704346 0.412334233522415161
0.347231954336166382 0.826710283756256104 -0.556380987167358398
0.838871419429779053 0.188513025641441345 -0.544033408164978027
-0.91969001293182373 -0.840113282203674316 0.381445914506912231
-0.770612776279449463 -0.108166955411434174 0.635087072849273682
-0.13024863600730896 -0.611468195915222168 0.789656698703765869
0.70174109935760498 0.230775654315948486 -0.709821343421936035
-0.249306023120880127 0.996788263320922852 -0.0279862675815820694
0.210338950157165527 0.546145379543304443 -0.834430277347564697
-0.932682037353515625 0.501223742961883545 -0.355841934680938721
-0.0594203546643257141 0.720737993717193604 -0.686943411827087402
-0.963429093360900879 0.239492297172546387 0.252134561538696289
0.916963338851928711 0.773049533367156982 -0.390421628952026367
0.92975693941116333 0.597933590412139893 -0.35565716028213501
0.0476853176951408386 0.0712632089853286743 0.995379090309143066
0.418007344007492065 0.557417035102844238 0.824840068817138672
0.903523504734039307 0.940967857837677002 -0.327924221754074097
-0.990211009979248047 -0.987749338150024414 -0.10147317498922348
-0.211918413639068604 -0.217826917767524719 -0.971912860870361328
-0.447606980800628662 0.709085226058959961 -0.703569173812866211
-0.987367689609527588 0.481833964586257935 -0.129497021436691284
-0.903759241104125977 0.969006180763244629 -0.243069633841514587
0.0388777554035186768 0.24286024272441864 0.966782569885253906
-0.975509285926818848 -0.249116629362106323 -0.202845379710197449
-0.779181897640228271 -0.885612249374389648 0.45842820405960083
-0.524292409420013428 0.641735732555389404 0.764161288738250732
-0.796470582485198975 -0.900175750255584717 0.425529032945632935
0.0270226709544658661 -0.750100195407867432 -0.654612302780151367
0.964163601398468018 -0.818205475807189941 -0.249769940972328186
-0.584866821765899658 -0.320898562669754028 -0.809317886829376221
-0.508204996585845947 -0.930896461009979248 -0.361858159303665161
0.257966548204421997 0.678645551204681396 -0.729482889175415039
0.181513190269470215 -0.0931446030735969543 -0.980215251445770264
0.437514364719390869 -0.52773970365524292 0.844157934188842773
-0.860036849975585938 0.296231001615524292 -0.503463268280029297
0.526546359062194824 -0.994588315486907959 0.0406158231198787689
-0.50002056360244751 0.224780470132827759 0.862201035022735596
-0.51181262731552124 -0.801195740699768066 -0.598350465297698975
0.872888147830963135 0.995424807071685791 0.0145307546481490135
-0.950279474258422852 0.592549979686737061 -0.29655030369758606
0.68488466739654541 0.464986711740493774 0.722373902797698975
-0.953456640243530273 -0.806516647338867188 -0.285845309495925903
0.123599007725715637 -0.18863813579082489 -0.979567050933837891
-0.973004698753356934 -0.64102405309677124 -0.218337208032608032
0.269721508026123047 -0.144850179553031921 -0.958304524421691895
-0.379030972719192505 0.631521821022033691 -0.77071225643157959
-0.987045347690582275 -0.994750797748565674 0.0355489067733287811
0.540670514106750488 -0.974432945251464844 0.203923419117927551
-0.53007960319519043 0.490470141172409058 -0.846420466899871826
-0.765118002891540527 -0.286221861839294434 -0.638076066970825195
0.67286837100982666 0.012713639996945858 -0.734401047229766846
0.437211185693740845 -0.621254146099090576 -0.778375148773193359
0.452552169561386108 -0.100899778306484222 -0.887509703636169434
0.837850570678710938 0.912909507751464844 -0.401437163352966309
0.163948982954025269 0.986822724342346191 0.149640277028083801
0.956321299076080322 0.124687507748603821 -0.283473342657089233
-0.813471138477325439 0.467142641544342041 -0.578220367431640625
0.661928474903106689 0.97354423999786377 -0.218163520097732544
0.263426780700683594 -0.880370199680328369 -0.467863380908966064
-0.898644626140594482 -0.885626792907714844 -0.429459422826766968
0.977301895618438721 -0.804192841053009033 0.191353708505630493
-0.970649600028991699 0.547310411930084229 -0.232904359698295593
0.588248491287231445 0.737536907196044922 -0.668445885181427002
0.624429166316986084 -0.589642047882080078 0.780921757221221924
0.540100157260894775 0.846350371837615967 -0.529697656631469727
0.893728435039520264 -0.0236428529024124146 0.44009360671043396
-0.150124028325080872 0.804552316665649414 0.586432158946990967
-0.506211280822753906 -0.911869168281555176 -0.40426403284072876
-0.0990220233798027039 0.787810564041137695 0.610432744026184082
-0.0422088950872421265 0.983194828033447266 -0.155307695269584656
0.970000028610229492 0.656320691108703613 -0.2369222491979599
0.941069364547729492 -0.109411746263504028 -0.324917644262313843
0.122466057538986206 0.491303294897079468 -0.868188261985778809
0.899783492088317871 -0.440809458494186401 0.426415055990219116
0.915451645851135254 0.327248603105545044 -0.3972434401512146
0.950557947158813477 -0.950627267360687256 -0.298945844173431396
0.938594639301300049 0.900823831558227539 -0.331642359495162964
-0.653504610061645508 -0.605794072151184082 -0.754306018352508545
-0.130565866827964783 -0.916202902793884277 -0.392487943172454834
0.833099782466888428 0.659056544303894043 0.545507252216339111
-0.38025820255279541 0.779301345348358154 -0.62245863676071167
0.634967803955078125 -0.94235527515411377 0.330244660377502441
-0.927401423454284668 -0.47579619288444519 -0.362057894468307495
-0.362322002649307251 -0.562540173530578613 -0.822194576263427734
-0.00271238689310848713 0.724676370620727539 0.683837771415710449
-0.128806129097938538 0.721482396125793457 -0.686123669147491455
0.903938472270965576 -0.980856001377105713 -0.169774174690246582
0.411425977945327759 0.57348930835723877 0.814378201961517334
0.629094898700714111 -0.883039474487304688 0.464240133762359619
-0.156945019960403442 0.657417833805084229 0.748973965644836426
0.316258847713470459 -0.40701332688331604 -0.913156747817993164
0.722147881984710693 0.987470746040344238 -0.128859624266624451
0.0222920197993516922 0.995015859603881836 0.0272825099527835846
-0.726535439491271973 0.348640382289886475 -0.685417532920837402
-0.540038824081420898 0.968434631824493408 -0.23537956178188324
-0.0948250740766525269 -0.170919343829154968 -0.984213471412658691
-0.913568377494812012 0.355448782444000244 -0.3996468186378479
0.926955580711364746 -0.149126306176185608 -0.375136196613311768
-0.992244839668273926 -0.703403353691101074 0.113694325089454651
0.823841333389282227 0.863009512424468994 0.502629399299621582
0.626974165439605713 0.121270187199115753 0.778457045555114746
0.73052823543548584 0.884553194046020508 -0.460963129997253418
-0.89233243465423584 0.312106668949127197 0.443247139453887939
0.992676973342895508 -0.795713424682617188 -0.075910717248916626
0.967092514038085938 -0.737092673778533936 0.236083969473838806
0.0130593245849013329 -0.949418902397155762 -0.302229404449462891
-0.937118053436279297 0.246968090534210205 -0.340895414352416992
0.972957074642181396 0.968838870525360107 -0.218631953001022339
0.351298004388809204 -0.616984963417053223 0.786065638065338135
0.635421276092529297 -0.923842430114746094 0.372065484523773193
0.339598864316940308 -0.991336166858673096 -0.104950465261936188
-0.347066223621368408 0.995476245880126953 0.0129265692085027695
-0.138935521245002747 0.976618170738220215 -0.207806527614593506
-0.176583662629127502 -0.626744985580444336 -0.773666501045227051
-0.983854889869689941 0.51677626371383667 0.162643283605575562
-0.993560671806335449 -0.917989611625671387 0.0726615861058235168
0.415009975433349609 -0.928782105445861816 0.360906660556793213
0.402797877788543701 -0.68293076753616333 -0.728573322296142578
0.907350480556488037 0.471598625183105469 0.409321129322052002
-0.173328369855880737 -0.546646833419799805 -0.834516584873199463
-0.782697618007659912 0.877935290336608887 0.475770622491836548
0.994684338569641113 -0.173148259520530701 0.0376208536326885223
-0.9808310866355896 -0.465550512075424194 -0.169928312301635742
0.460810095071792603 -0.725391566753387451 -0.686851859092712402
0.223137468099594116 -0.718932151794433594 -0.694951713085174561
-0.193078547716140747 -0.0100320344790816307 -0.978402674198150635
0.368696123361587524 -0.448209494352340698 -0.889955461025238037
-0.985965311527252197 -0.997010767459869385 -0.0309867803007364273
-0.741777420043945312 0.598389565944671631 -0.663776576519012451
0.713179588317871094 0.696964144706726074 0.694971799850463867
0.588012337684631348 -0.1470346599817276 -0.806640088558197021
0.455975770950317383 -0.300962537527084351 -0.885581612586975098
-0.129730001091957092 -0.828205406665802002 -0.557927429676055908
0.851618289947509766 -0.936484158039093018 -0.337377250194549561
0.445743650197982788 0.442521154880523682 0.893398702144622803
-0.689386069774627686 0.158182635903358459 -0.720339357852935791
0.701759874820709229 -0.419455945491790771 0.706031143665313721
0.895870208740234375 -0.641732573509216309 -0.442294478416442871
-0.513254225254058838 0.902174830436706543 0.421012967824935913
-0.369402706623077393 0.959923446178436279 -0.273685097694396973
0.377828508615493774 -0.0321023538708686829 -0.922834813594818115
-0.16746838390827179 0.8466033935546875 -0.529212713241577148
0.164278984069824219 0.972473204135894775 -0.221624821424484253
0.936461865901947021 -0.916701316833496094 -0.337437868118286133
-0.92170262336730957 0.99695277214050293 -0.0331165827810764313
0.994309782981872559 -0.754999637603759766 0.0493006594479084015
-0.981632709503173828 0.0550985150039196014 -0.190395936369895935
0.546145200729370117 0.972709238529205322 0.211475536227226257
-0.604906976222991943 -0.990759193897247314 -0.108519487082958221
0.441888242959976196 -0.996567785739898682 -0.0355782471597194672
0.526883363723754883 -0.899232745170593262 -0.43674767017364502
0.0192055627703666687 0.922195136547088623 0.375786870718002319
-0.999955654144287109 0.12108641117811203 -0.000459743081592023373
-0.414974808692932129 -0.876320958137512207 0.479417294263839722
0.31245267391204834 0.885692596435546875 -0.454285949468612671
-0.297407537698745728 0.141645357012748718 0.953453361988067627
0.134125694632530212 0.259154289960861206 -0.96276479959487915
-0.288107097148895264 0.372478067874908447 -0.925138711929321289
-0.404988884925842285 -0.99648517370223999 -0.0185348726809024811
0.814243018627166748 -0.925951182842254639 0.367301762104034424
0.142744213342666626 -0.0694868266582489014 -0.985213994979858398
0.704282224178314209 -0.0762821957468986511 -0.705062985420227051
0.349540024995803833 -0.95087122917175293 -0.298282861709594727
0.827986538410186768 0.991916894912719727 0.123920448124408722
-0.215530306100845337 -0.996786892414093018 -0.0279434267431497574
0.943947851657867432 -0.795426070690155029 -0.317095965147018433
0.212831392884254456 -0.929093480110168457 -0.367932885885238647
-0.893629252910614014 -0.298021435737609863 -0.439072847366333008
-0.430686980485916138 0.834935545921325684 0.542875528335571289
-0.666118443012237549 0.270153969526290894 -0.740147411823272705
0.247956410050392151 -0.616081058979034424 0.786653995513916016
-0.0529404804110527039 0.999554276466369629 -0.00462011480703949928
-0.258064448833465576 0.722104310989379883 -0.690973997116088867
0.979906618595123291 0.189378455281257629 -0.196726620197296143
0.523832857608795166 0.648789763450622559 -0.757824838161468506
0.974134147167205811 0.640903890132904053 -0.216175928711891174
-0.176054999232292175 -0.47487187385559082 -0.876101195812225342
0.068077579140663147 -0.12301267683506012 -0.989530742168426514
0.933897912502288818 -0.0349961481988430023 0.349350064992904663
0.507464051246643066 0.293562322854995728 -0.856583952903747559
0.213886275887489319 0.846811354160308838 -0.528814077377319336
0.361066877841949463 0.563892543315887451 -0.824804008007049561
0.776455819606781006 -0.870909631252288818 -0.483469635248184204
-0.0654758289456367493 -0.613849222660064697 0.788106799125671387
-0.6461830735206604 -0.992665350437164307 -0.0760312825441360474
-0.445353716611862183 -0.972962081432342529 -0.218600958585739136
-0.805046558380126953 -0.654582321643829346 -0.592117667198181152
0.970509767532348633 -0.529601573944091797 -0.233769327402114868
0.653732180595397949 0.469460159540176392 0.752543389797210693
-0.446213334798812866 0.930435836315155029 -0.353812485933303833
-0.565330862998962402 0.371788084506988525 0.819688737392425537
-0.89808952808380127 0.691033363342285156 0.430241852998733521
-0.96560966968536377 -0.730148732662200928 0.24258086085319519
-0.797952473163604736 0.92011106014251709 -0.381868213415145874
0.499088585376739502 -0.63206028938293457 -0.769141495227813721
0.732801914215087891 -0.726522564888000488 -0.673659622669219971
-0.0179939419031143188 0.699038505554199219 -0.710836946964263916
-0.461959719657897949 -0.993912160396575928 0.0617002062499523163
-0.360245794057846069 0.370689451694488525 -0.926272869110107422
0.223919197916984558 -0.589011609554290771 -0.802438437938690186
0.446055769920349121 0.400007426738739014 0.893272340297698975
0.164563849568367004 0.412209540605545044 0.906975150108337402
0.620938122272491455 0.90252232551574707 0.420228093862533569
-0.996482729911804199 0.662636399269104004 -0.0364599674940109253
0.29215008020401001 -0.86421048641204834 0.500907659530639648
0.241905525326728821 0.73652338981628418 -0.672893047332763672
-0.985683679580688477 -0.692144334316253662 0.154630750417709351
-0.638026058673858643 0.81190645694732666 -0.578365623950958252
0.557385623455047607 0.14953632652759552 -0.826041460037231445
0.302384495735168457 0.680588245391845703 0.726534724235534668
-0.158781066536903381 -0.634456098079681396 0.77121126651763916
-0.276977241039276123 0.6134529709815979 0.788364708423614502
-0.809768855571746826 0.852906644344329834 -0.517130553722381592
0.00253821793012320995 -0.131177961826324463 -0.986705303192138672
-0.839872598648071289 0.67335057258605957 -0.542114317417144775
0.14096282422542572 -0.0837824344635009766 -0.988378345966339111
-0.00174401456024497747 -0.23464222252368927 -0.970903396606445312
-0.943885326385498047 0.992429792881011963 0.107927389442920685
-0.594772517681121826 0.660420060157775879 0.746066510677337646
-0.682581603527069092 0.529372990131378174 -0.728957772254943848
-0.392994046211242676 -0.865774452686309814 -0.491940587759017944
0.141886144876480103 0.832813739776611328 0.545917332172393799
0.764776408672332764 -0.432029306888580322 -0.63845217227935791
0.829617619514465332 -0.147584587335586548 0.550499200820922852
-0.411649137735366821 0.623884439468383789 -0.77610170841217041
0.653440296649932861 0.679014742374420166 0.728058576583862305
0.459665298461914062 -0.172167330980300903 0.88776242733001709
0.184162497520446777 -0.296375542879104614 0.95387113094329834
-0.803236067295074463 -0.948411226272583008 -0.304967522621154785
0.114904165267944336 0.415636360645294189 -0.908300340175628662
0.0693668127059936523 0.746633827686309814 0.662573099136352539
0.527099192142486572 -0.88772892951965332 0.45364651083946228
-0.881283760070800781 -0.736765563488006592 0.46820637583732605
0.470887035131454468 -0.956228792667388916 0.28368106484413147
