ply
format ascii 1.0
element vertex 741
property float x
property float y
property float z
end_header
0.906709015369415283 0.301048249006271362 -0.403965264558792114
-0.229722976684570312 -0.575255870819091797 0.810816049575805664
0.493320733308792114 0.42632216215133667 0.828924655914306641
0.872414231300354004 -0.364128261804580688 -0.464950293302536011
-0.631578326225280762 0.874017953872680664 -0.351647943258285522
0.247863873839378357 -0.968424439430236816 0.20942099392414093
0.724264323711395264 0.762581944465637207 -0.450564265251159668
-0.270865172147750854 0.298957675695419312 -0.935525596141815186
0.603862881660461426 0.817755997180938721 0.485084205865859985
-0.776521682739257812 0.813279509544372559 0.315151065587997437
0.446364760398864746 0.882336914539337158 0.429606795310974121
0.985391795635223389 -0.252913504838943481 0.132432505488395691
0.546284079551696777 -0.0778136998414993286 -0.83309638500213623
0.0491249300539493561 -0.562903821468353271 -0.821402788162231445
-0.279480218887329102 -0.800775468349456787 0.583374083042144775
-0.368227660655975342 0.519971132278442383 -0.831825733184814453
-0.667025506496429443 0.292281240224838257 -0.732407748699188232
-0.909110009670257568 0.567776143550872803 -0.315622687339782715
0.98545151948928833 0.429138541221618652 -0.0851108059287071228
0.0788553729653358459 -0.969830870628356934 0.214235082268714905
-0.678144156932830811 -0.108370199799537659 -0.729042172431945801
0.579172432422637939 -0.912967324256896973 -0.301577538251876831
-0.934624433517456055 -0.46210181713104248 0.304354101419448853
-0.455125480890274048 0.965810477733612061 -0.194241121411323547
-0.625455021858215332 -0.639206171035766602 -0.650074541568756104
0.458745330572128296 0.921971619129180908 0.339850783348083496
0.644073665142059326 -0.950648486614227295 -0.00149739987682551146
-0.543616652488708496 0.671651780605316162 -0.670246005058288574
-0.374630838632583618 -0.025810878723859787 0.921967685222625732
0.532176792621612549 0.973094165325164795 -0.0395224727690219879
-0.714944720268249512 -0.844402730464935303 -0.331891953945159912
-0.580260992050170898 0.628630995750427246 0.6865195631980896
0.771561920642852783 -0.831484735012054443 0.279107809066772461
-0.827222704887390137 0.765213251113891602 -0.295166850090026855
0.0652296766638755798 0.135054782032966614 -0.985915124416351318
0.771214544773101807 0.0519805401563644409 -0.630150377750396729
-0.805648744106292725 0.150167360901832581 -0.589306056499481201
-0.222053945064544678 -0.177078500390052795 -0.965434908866882324
0.298234790563583374 -0.872687280178070068 -0.471106737852096558
0.868139266967773438 0.436959713697433472 0.460670024156570435
-0.565143704414367676 -0.841878652572631836 0.461494803428649902
-0.97648388147354126 -0.0741160064935684204 -0.2019166499376297
-0.709236264228820801 0.164805635809898376 0.698010921478271484
-0.571588754653930664 0.606700778007507324 -0.707478225231170654
-0.255971074104309082 -0.835376381874084473 0.535543441772460938
0.33081352710723877 0.982977867126464844 -0.117653079330921173
0.471028268337249756 -0.591567754745483398 -0.760986268520355225
0.0449010394513607025 -0.992628395557403564 -0.0525579117238521576
-0.057658907026052475 -0.726304233074188232 0.680136501789093018
-0.366214454174041748 -0.802682936191558838 -0.575697839260101318
-0.595469176769256592 -0.816811263561248779 -0.485471576452255249
-0.176763713359832764 -0.902397513389587402 -0.427643924951553345
0.723664760589599609 0.620046317577362061 0.583709061145782471
0.471500873565673828 0.743520200252532959 -0.625129818916320801
0.798633396625518799 0.4603862464427948 -0.56528770923614502
-0.931040406227111816 -0.686136782169342041 -0.0602124817669391632
-0.617100656032562256 0.508822977542877197 -0.730779469013214111
0.0225143488496541977 0.848317801952362061 -0.521933495998382568
0.671123802661895752 0.618165671825408936 -0.631704628467559814
0.617098867893218994 0.846733748912811279 -0.425745218992233276
-0.437481731176376343 -0.582465291023254395 -0.774839878082275391
-0.757108330726623535 0.0839191898703575134 0.650322318077087402
0.99189680814743042 -0.144188165664672852 -0.0523306094110012054
-0.882734179496765137 0.619004786014556885 -0.34163743257522583
0.514421701431274414 -0.619107306003570557 -0.726671934127807617
-0.375846028327941895 0.851587772369384766 0.505059361457824707
-0.566692471504211426 -0.936178267002105713 -0.256556719541549683
0.831388354301452637 -0.468171387910842896 -0.510714113712310791
-0.775424659252166748 0.803154468536376953 -0.325739085674285889
0.845323503017425537 0.230307221412658691 -0.52811962366104126
0.718746185302734375 -0.37621694803237915 -0.674052834510803223
-0.292465895414352417 -0.128698751330375671 -0.951625168323516846
-0.0611679106950759888 0.170493662357330322 0.980617344379425049
-0.360696136951446533 0.21762789785861969 -0.925271749496459961
0.989057719707489014 0.184269368648529053 -0.0729577541351318359
0.210326537489891052 -0.970753371715545654 -0.218341216444969177
0.158304035663604736 0.564627528190612793 -0.823652803897857666
-0.554964423179626465 -0.925941348075866699 -0.280092835426330566
0.851101100444793701 -0.672661900520324707 -0.362277954816818237
-0.940701425075531006 0.438567608594894409 0.289220571517944336
0.667641401290893555 -0.412139028310775757 -0.718166589736938477
0.381159096956253052 0.959687530994415283 -0.257587224245071411
0.390650361776351929 0.373095571994781494 -0.885953783988952637
0.331234097480773926 -0.436862677335739136 0.881824612617492676
-0.682800829410552979 0.625464439392089844 -0.618753254413604736
0.71813589334487915 0.684825658798217773 -0.540139079093933105
0.220212280750274658 0.0462069697678089142 -0.971092462539672852
0.286327064037322998 0.238931506872177124 0.945450305938720703
0.201838582754135132 -0.949350118637084961 -0.294363528490066528
-0.628508090972900391 -0.244469612836837769 0.772584021091461182
-0.876851677894592285 -0.778281092643737793 0.0968087762594223022
0.263487815856933594 -0.616549253463745117 -0.776154279708862305
0.762885630130767822 -0.857956111431121826 -0.227002695202827454
-0.277080684900283813 -0.603251278400421143 0.789354383945465088
0.470772147178649902 -0.515630543231964111 0.803802728652954102
0.945940852165222168 0.609376788139343262 -0.12844790518283844
-0.18110986053943634 0.685864388942718506 -0.721107304096221924
-0.0251571983098983765 -0.981974542140960693 -0.163252711296081543
-0.931192636489868164 0.637904882431030273 -0.163188114762306213
0.740827739238739014 0.901420652866363525 0.0725763067603111267
-0.118837818503379822 -0.485343307256698608 -0.870353937149047852
0.358277887105941772 0.02611565962433815 0.92852783203125
0.914201617240905762 0.493124663829803467 -0.349459141492843628
0.684943020343780518 0.532096922397613525 0.667429327964782715
-0.333412706851959229 -0.792989194393157959 -0.59832763671875
-0.892269432544708252 0.399162352085113525 -0.419068396091461182
-0.958313286304473877 -0.16974814236164093 -0.264912664890289307
-0.948141038417816162 0.329608350992202759 0.288519412279129028
0.369505584239959717 -0.710980534553527832 -0.687721312046051025
-0.565842092037200928 -0.879276096820831299 0.389476567506790161
0.585887730121612549 -0.684061765670776367 -0.639000415802001953
-0.250194907188415527 0.723548412322998047 -0.684467434883117676
-0.968028903007507324 0.364986330270767212 -0.217241466045379639
0.571914017200469971 -0.963719964027404785 -0.0821193456649780273
0.511604785919189453 0.376901358366012573 -0.833670437335968018
0.914301276206970215 -0.0195012036710977554 0.392685860395431519
0.392844438552856445 0.799864232540130615 -0.578289985656738281
0.930474936962127686 -0.259583771228790283 -0.338761508464813232
0.310370534658432007 -0.839084923267364502 -0.526095926761627197
0.314219921827316284 -0.899431884288787842 -0.423621922731399536
-0.109323330223560333 0.823940575122833252 0.555899143218994141
-0.571731448173522949 -0.949851930141448975 0.16834297776222229
0.891509473323822021 0.56824570894241333 -0.367734909057617188
-0.0859316214919090271 -0.343339085578918457 0.93440711498260498
-0.735657095909118652 -0.739604055881500244 -0.464761137962341309
0.557647049427032471 -0.799947261810302734 0.526397883892059326
0.157840043306350708 0.837131202220916748 0.534701943397521973
-0.860040187835693359 -0.773692488670349121 -0.189375758171081543
-0.691358745098114014 0.226259127259254456 0.71240609884262085
-0.208220988512039185 0.449601113796234131 -0.88520348072052002
0.595859408378601074 -0.575243115425109863 0.71012413501739502
-0.835759818553924561 -0.833531200885772705 0.0757368355989456177
0.602431595325469971 0.502218365669250488 -0.739292800426483154
0.884999394416809082 -0.680257678031921387 0.284286677837371826
-0.235164821147918701 0.0124764293432235718 -0.97057032585144043
-0.473864197731018066 0.945176899433135986 -0.25327533483505249
0.281177878379821777 0.983627021312713623 -0.123837515711784363
-0.928172469139099121 0.690619885921478271 -0.0788876339793205261
-0.559422135353088379 -0.970235705375671387 -0.061450127512216568
-0.937569320201873779 -0.111283600330352783 -0.330172508955001831
-0.906888246536254883 0.737661957740783691 -0.0382909327745437622
-0.489652127027511597 0.158106431365013123 0.867692053318023682
0.601848721504211426 0.746444940567016602 -0.570651829242706299
0.53263556957244873 0.971369028091430664 0.0100905708968639374
-0.221760675311088562 0.750061988830566406 -0.650899946689605713
0.949705004692077637 -0.5497322678565979 -0.184705302119255066
0.123307786881923676 0.864602148532867432 0.497472584247589111
0.519317448139190674 0.399307042360305786 -0.826390683650970459
-0.325281292200088501 0.207475155591964722 -0.936579525470733643
0.889085829257965088 -0.26639285683631897 -0.44123464822769165
0.859523534774780273 0.527499377727508545 -0.446321457624435425
0.427673578262329102 -0.932966530323028564 -0.310639709234237671
0.241364747285842896 -0.982973635196685791 -0.145486354827880859
-0.153249889612197876 -0.917528688907623291 -0.379017442464828491
0.197838038206100464 0.00113775790669023991 0.975462675094604492
0.333641648292541504 -0.387618601322174072 -0.898412942886352539
-0.900760948657989502 0.689736664295196533 -0.231043398380279541
0.132836371660232544 0.0268681850284337997 -0.986434340476989746
-0.510451197624206543 -0.26084977388381958 -0.85010063648223877
-0.810606241226196289 -0.253984153270721436 -0.576033115386962891
-0.596086323261260986 -0.823104918003082275 -0.472708046436309814
-0.0386248677968978882 0.968125998973846436 -0.234630078077316284
0.176902070641517639 -0.539023995399475098 -0.837127208709716797
0.44064745306968689 -0.772722423076629639 -0.606155335903167725
-0.969784915447235107 -0.521577715873718262 0.092296987771987915
0.955401420593261719 -0.256844699382781982 -0.271185874938964844
0.339765369892120361 -0.150564223527908325 -0.939079165458679199
-0.139450907707214355 -0.994948863983154297 -0.0425613522529602051
-0.335517346858978271 -0.465202152729034424 0.865187108516693115
0.274608761072158813 0.58391648530960083 -0.803931117057800293
0.539325296878814697 0.971192419528961182 -0.0109488684684038162
-0.64550483226776123 0.791597366333007812 0.493251413106918335
-0.794338762760162354 -0.687640786170959473 -0.450872838497161865
0.189782053232192993 0.821921050548553467 0.558800935745239258
0.147668063640594482 0.329214811325073242 -0.938240289688110352
-0.20177459716796875 -0.212717697024345398 0.965888321399688721
0.0608195401728153229 0.934929430484771729 -0.334317147731781006
0.323384284973144531 0.772880673408508301 -0.616572916507720947
-0.110643289983272552 0.722835004329681396 -0.681602954864501953
-0.182769745588302612 0.13380710780620575 -0.978455841541290283
0.0748152434825897217 -0.645687639713287354 -0.755665481090545654
-0.17056611180305481 -0.905541121959686279 -0.41986963152885437
0.595335423946380615 0.460607230663299561 -0.759162187576293945
0.835273563861846924 0.308555305004119873 -0.531113147735595703
-0.297108441591262817 -0.693994522094726562 -0.709410130977630615
-0.98869556188583374 -0.391264379024505615 -0.03125038743019104
-0.251909762620925903 0.983504116535186768 0.149153858423233032
-0.340250968933105469 0.473130702972412109 -0.858794987201690674
0.694479107856750488 0.0652934163808822632 -0.714453399181365967
-0.469912052154541016 -0.793201863765716553 -0.571513235569000244
0.578112661838531494 -0.0589126497507095337 0.810692906379699707
-0.926285684108734131 0.553772330284118652 -0.277363896369934082
-0.552265346050262451 0.148809775710105896 -0.829035818576812744
0.874467909336090088 -0.657617628574371338 0.335257858037948608
0.71132129430770874 -0.744488000869750977 -0.486200541257858276
0.381928861141204834 0.95914536714553833 -0.2480449378490448
0.421424895524978638 0.0775791257619857788 -0.904712796211242676
0.53639453649520874 0.199792906641960144 -0.839501798152923584
0.914259791374206543 0.470972120761871338 -0.355687558650970459
-0.270399242639541626 0.617524504661560059 -0.7760964035987854
0.974599242210388184 0.126478776335716248 0.19145435094833374
-0.824637472629547119 -0.570567488670349121 -0.487553030252456665
-0.159051403403282166 0.681293964385986328 -0.728472769260406494
-0.161859706044197083 0.985727190971374512 -0.107819229364395142
0.386979788541793823 0.31975710391998291 -0.899427652359008789
-0.658937573432922363 0.935709595680236816 -0.0929066389799118042
-0.687508940696716309 0.247639402747154236 -0.720317959785461426
-0.364135235548019409 0.916655182838439941 -0.378503859043121338
0.261842250823974609 -0.779012799263000488 -0.612931311130523682
-0.531239509582519531 0.596918165683746338 0.730658233165740967
-0.69817054271697998 0.818804323673248291 -0.402029305696487427
0.465143650770187378 -0.177803322672843933 -0.87897193431854248
-0.639024734497070312 -0.835587978363037109 -0.422253280878067017
-0.931959807872772217 -0.685198366641998291 -0.0747476667165756226
-0.07947588711977005 0.334444940090179443 -0.937465488910675049
-0.412655234336853027 0.79726487398147583 -0.579806149005889893
0.983596444129943848 0.419012695550918579 0.0297716949135065079
-0.240944981575012207 0.906266570091247559 0.401503056287765503
-0.94466102123260498 0.640784263610839844 0.0685505867004394531
-0.660410404205322266 -0.247480854392051697 -0.740542948246002197
-0.731855869293212891 0.726476788520812988 -0.485077053308486938
0.835514485836029053 0.201453745365142822 -0.540353834629058838
0.963676333427429199 -0.00538055459037423134 0.250551879405975342
-0.40338173508644104 0.216491013765335083 0.906679332256317139
0.845143496990203857 0.265758424997329712 -0.519360125064849854
-0.211559012532234192 0.205349400639533997 -0.963787853717803955
-0.854925274848937988 -0.107735410332679749 -0.50842660665512085
0.319268912076950073 -0.595264196395874023 -0.788771569728851318
0.823870539665222168 0.129157260060310364 -0.561794817447662354
0.814318597316741943 -0.354213058948516846 -0.563010871410369873
-0.731698870658874512 0.533163845539093018 -0.621944129467010498
0.843832552433013916 0.721496105194091797 -0.331853032112121582
0.449774175882339478 0.129166275262832642 0.891205191612243652
-0.713382601737976074 0.915894925594329834 -0.0907278582453727722
-0.972194433212280273 0.214410498738288879 -0.202729910612106323
-0.923195242881774902 -0.485641509294509888 -0.326881289482116699
-0.137176483869552612 0.75765538215637207 0.648885190486907959
0.613489270210266113 -0.953861892223358154 0.00522235874086618423
-0.0480501689016819 -0.181281700730323792 -0.980128109455108643
0.39487805962562561 -0.788616716861724854 0.587900638580322266
-0.745331406593322754 -0.188964158296585083 0.659957170486450195
0.570897459983825684 0.822835206985473633 -0.487368613481521606
0.818154811859130859 -0.830660462379455566 -0.182282775640487671
0.674076318740844727 0.706005513668060303 -0.561108529567718506
0.731857895851135254 -0.565863192081451416 -0.603714406490325928
-0.569671690464019775 0.956499755382537842 -0.123968571424484253
-0.112961612641811371 -0.927081406116485596 -0.367470234632492065
-0.913339018821716309 0.0351349487900733948 0.390620678663253784
0.972024381160736084 -0.398036152124404907 -0.168356239795684814
-0.007037340197712183 -0.0131522081792354584 -0.998292148113250732
0.509474515914916992 -0.345615267753601074 -0.840997099876403809
-0.610086202621459961 0.7576485276222229 0.551854789257049561
-0.978030681610107422 -0.396511316299438477 -0.125080913305282593
-0.879149019718170166 0.270708262920379639 -0.460304856300354004
-0.789831399917602539 0.576658725738525391 -0.536542415618896484
-0.620033383369445801 -0.272385716438293457 0.777770161628723145
0.449924379587173462 0.716323494911193848 -0.661520540714263916
0.547072827816009521 0.929081261157989502 -0.275937914848327637
0.178562864661216736 -0.978970825672149658 -0.176156505942344666
-0.211994364857673645 -0.8733367919921875 -0.469988793134689331
-0.645329594612121582 0.759656369686126709 0.529164016246795654
0.631583094596862793 0.167930319905281067 -0.769822955131530762
0.258394211530685425 0.96684640645980835 -0.226349726319313049
0.700635731220245361 -0.462787419557571411 -0.675572633743286133
-0.690256953239440918 0.89626765251159668 -0.231464311480522156
-0.415524870157241821 -0.898761153221130371 -0.40500110387802124
0.824032962322235107 -0.846554458141326904 -0.0355448760092258453
0.0238273981958627701 0.228054389357566833 -0.972915112972259521
-0.357442557811737061 -0.98739326000213623 0.0209657251834869385
-0.113193139433860779 -0.276051878929138184 0.959784209728240967
-0.116199992597103119 0.991867184638977051 0.0537589564919471741
0.00553522305563092232 -0.856779217720031738 0.508713304996490479
-0.90542525053024292 -0.678694188594818115 -0.220123186707496643
-0.914008617401123047 -0.58536839485168457 0.296439230442047119
-0.244350135326385498 0.941020786762237549 -0.312056064605712891
-0.292977899312973022 0.616069614887237549 0.779644548892974854
0.558012902736663818 0.226382270455360413 0.821208417415618896
0.464707791805267334 -0.672263085842132568 -0.699670195579528809
0.177561536431312561 -0.78208470344543457 -0.6173972487449646
0.481062740087509155 -0.793275952339172363 -0.56521451473236084
-0.752284228801727295 0.315942287445068359 -0.642599701881408691
-0.888594329357147217 0.766422033309936523 -0.0814483463764190674
0.986875653266906738 -0.0072642667219042778 -0.134451910853385925
0.936050891876220703 0.639204084873199463 0.161758482456207275
0.248617812991142273 -0.699683487415313721 -0.705526173114776611
0.330514043569564819 0.963125705718994141 0.223354101181030273
-0.424782127141952515 0.33164602518081665 0.887416183948516846
-0.691781818866729736 -0.245318293571472168 -0.713875055313110352
-0.694573462009429932 -0.92004549503326416 -0.121219679713249207
-0.659853279590606689 0.698295235633850098 -0.585599124431610107
-0.0413595959544181824 0.88921058177947998 -0.44359096884727478
0.741804599761962891 0.0258672852069139481 -0.662002444267272949
0.167946621775627136 -0.783215999603271484 -0.609957396984100342
0.619341492652893066 -0.826767444610595703 -0.449045449495315552
-0.107171319425106049 -0.991294145584106445 0.0404664278030395508
-0.581835269927978516 0.610894501209259033 -0.702908515930175781
-0.439476311206817627 -0.920196950435638428 -0.348327696323394775
-0.714999914169311523 -0.886706352233886719 -0.225786834955215454
0.170871883630752563 0.954147875308990479 0.275713682174682617
0.159410297870635986 -0.113190971314907074 -0.981813192367553711
0.916416347026824951 0.542969346046447754 0.322411030530929565
0.86966240406036377 -0.0356344915926456451 -0.480812907218933105
0.683601438999176025 -0.603835821151733398 0.632318556308746338
0.364571630954742432 0.597348153591156006 0.784712016582489014
-0.0255370642989873886 -0.259987473487854004 0.963329672813415527
0.270409375429153442 -0.334515899419784546 -0.928394794464111328
-0.823636412620544434 -0.415530979633331299 0.536809861660003662
0.586882710456848145 -0.709979236125946045 -0.613892793655395508
0.102484323084354401 -0.95564579963684082 0.281943172216415405
-0.00747983623296022415 0.861079156398773193 -0.498033970594406128
0.484328269958496094 -0.942264735698699951 0.267122536897659302
-0.237848728895187378 -0.330940812826156616 0.931265115737915039
0.07145681232213974 0.980994522571563721 -0.154849126935005188
0.286527872085571289 -0.201342329382896423 0.951269924640655518
-0.961963355541229248 -0.550551712512969971 -0.134149014949798584
0.919759213924407959 -0.330454140901565552 0.372663289308547974
-0.660993516445159912 -0.287621557712554932 0.737775564193725586
-0.111865498125553131 -0.800444960594177246 -0.589057981967926025
0.444348126649856567 0.887294471263885498 0.416711211204528809
-0.642038524150848389 0.598473668098449707 0.669493436813354492
0.103593975305557251 0.963988006114959717 -0.239575162529945374
-0.951724410057067871 -0.407200336456298828 0.256662666797637939
-0.363969892263412476 -0.898668169975280762 0.409186244010925293
-0.308768421411514282 0.409269452095031738 -0.89471745491027832
-0.745111823081970215 0.86562579870223999 -0.251056432723999023
0.0435710251331329346 0.945569813251495361 0.318030625581741333
-0.884958446025848389 -0.34766542911529541 0.44469335675239563
-0.650266528129577637 0.143574833869934082 0.752953767776489258
0.454020947217941284 -0.819281995296478271 -0.540421009063720703
-0.811684846878051758 -0.560368180274963379 -0.509252786636352539
-0.985382437705993652 0.277080535888671875 -0.113364912569522858
0.221389010548591614 0.87906724214553833 -0.461412668228149414
-0.203963980078697205 0.750810861587524414 -0.651913046836853027
0.982544779777526855 0.430748432874679565 0.0393654704093933105
0.104117602109909058 -0.966233551502227783 0.230032294988632202
0.985143482685089111 -0.321839511394500732 0.122503705322742462
-0.00399844581261277199 0.960969686508178711 -0.264788031578063965
-0.929022371768951416 0.578110396862030029 -0.248175904154777527
-0.819857120513916016 -0.836115598678588867 -0.136201366782188416
-0.978187978267669678 -0.140208438038825989 0.174456611275672913
0.24793417751789093 0.817957818508148193 -0.568399488925933838
-0.6426430344581604 0.274035602807998657 -0.75518953800201416
-0.309048235416412354 0.964715838432312012 -0.251045882701873779
0.543943941593170166 0.250398427248001099 -0.831115484237670898
-0.157200932502746582 -0.00121776736341416836 0.983459711074829102
0.0223587509244680405 0.178296312689781189 -0.980549275875091553
0.380515009164810181 -0.984017133712768555 -0.0985099971294403076
0.376663178205490112 0.0957145765423774719 -0.923614919185638428
-0.576153695583343506 0.565023362636566162 -0.729341208934783936
0.819075942039489746 -0.286020845174789429 -0.563461363315582275
-0.166411280632019043 0.842715859413146973 0.528920948505401611
0.175574779510498047 -0.815101802349090576 -0.573137402534484863
0.375975728034973145 0.140289053320884705 -0.922221958637237549
0.226833567023277283 0.988906383514404297 -0.105798102915287018
0.144401878118515015 -0.0870634987950325012 0.985010802745819092
0.00404532579705119133 -0.471884071826934814 -0.877013206481933594
0.956605613231658936 0.320527017116546631 -0.255904555320739746
-0.832790195941925049 0.40558236837387085 -0.522579669952392578
-0.154005616903305054 0.458098679780960083 -0.882669210433959961
-0.693439602851867676 -0.292012631893157959 -0.710258424282073975
0.937836825847625732 0.000255575403571128845 0.335556626319885254
0.897014737129211426 0.141416803002357483 -0.429980933666229248
0.198951467871665955 -0.10452675074338913 -0.97742164134979248
-0.869729936122894287 0.21743379533290863 0.491691023111343384
0.419723361730575562 -0.386453092098236084 -0.872647523880004883
-0.0729306265711784363 0.980206429958343506 -0.181622982025146484
-0.719916462898254395 0.5149574875831604 -0.638194561004638672
-0.693550825119018555 -0.697315037250518799 -0.557980179786682129
0.718558430671691895 0.811551213264465332 -0.393417447805404663
-0.211032763123512268 -0.728322446346282959 -0.678704917430877686
-0.652741491794586182 0.211952656507492065 0.750109672546386719
0.430367559194564819 0.174580857157707214 -0.895400464534759521
0.672592639923095703 0.197471693158149719 0.731803596019744873
0.203924939036369324 0.978349626064300537 -0.171246901154518127
0.676318168640136719 0.272958636283874512 -0.729364931583404541
-0.253705143928527832 0.971419453620910645 0.195996791124343872
0.969792723655700684 0.180640190839767456 0.210422024130821228
-0.112207099795341492 0.92750096321105957 0.358943045139312744
0.154069826006889343 -0.746361851692199707 0.661822021007537842
-0.5203971266746521 -0.0909274592995643616 0.847683370113372803
0.459546715021133423 0.34008479118347168 0.868019521236419678
0.0736827850341796875 0.852023005485534668 -0.516787588596343994
0.735019981861114502 0.90880882740020752 0.0124094374477863312
0.966826736927032471 0.52599722146987915 -0.0953035131096839905
0.0920026376843452454 0.592172622680664062 -0.799054622650146484
-0.720447242259979248 0.568335771560668945 0.615081131458282471
0.968896031379699707 -0.319775044918060303 0.1984986811876297
-0.556096494197845459 0.605004012584686279 -0.7156829833984375
0.655356764793395996 -0.914803862571716309 -0.220910400152206421
-0.657438755035400391 -0.680604457855224609 -0.601744532585144043
0.491339445114135742 -0.517057061195373535 -0.794665098190307617
0.366193711757659912 0.339225947856903076 0.903626918792724609
-0.945950508117675781 -0.574304521083831787 -0.196479767560958862
0.462235599756240845 0.0538492836058139801 -0.881413578987121582
0.882129549980163574 -0.416461557149887085 -0.444103747606277466
-0.435224950313568115 0.746863842010498047 -0.632533729076385498
0.188227862119674683 -0.108871929347515106 -0.978195369243621826
-0.691400051116943359 0.525781095027923584 0.665418386459350586
-0.0650717765092849731 0.994908690452575684 -0.0413047447800636292
-0.956249535083770752 -0.0149778909981250763 -0.269241422414779663
0.078157864511013031 0.76262509822845459 -0.6391335129737854
-0.697588622570037842 0.775454819202423096 -0.465258538722991943
0.85648113489151001 0.510787129402160645 -0.45663866400718689
0.777616202831268311 -0.390356630086898804 -0.608177363872528076
0.66654592752456665 -0.598744094371795654 -0.645719707012176514
0.278251111507415771 0.975543618202209473 -0.174232915043830872
0.0158710572868585587 0.96454232931137085 -0.255057394504547119
-0.865201115608215332 -0.142124265432357788 -0.488399237394332886
0.42124330997467041 -0.909845471382141113 -0.382371962070465088
0.272928893566131592 -0.962510168552398682 -0.252267748117446899
-0.220152199268341064 0.579833388328552246 -0.806591510772705078
-0.465492218732833862 0.910540997982025146 -0.368370771408081055
-0.615754544734954834 0.949231743812561035 -0.0906085893511772156
0.825532436370849609 0.844125330448150635 0.0409280620515346527
-0.218045532703399658 -0.99338763952255249 0.00623727217316627502
0.539232611656188965 -0.79175645112991333 -0.544135630130767822
-0.646606504917144775 0.444015383720397949 -0.729482650756835938
0.588853061199188232 0.860389411449432373 0.409521192312240601
-0.0896033048629760742 0.62663644552230835 -0.772522091865539551
0.0429638028144836426 -0.165750473737716675 0.981724858283996582
0.140701830387115479 -0.995556831359863281 -0.0100942766293883324
0.485247164964675903 -0.0902152210474014282 0.870789766311645508
0.548916220664978027 -0.332123219966888428 0.817669153213500977
-0.980670571327209473 0.24907703697681427 -0.138279661536216736
-0.215139269828796387 0.060366608202457428 0.971932172775268555
-0.831608831882476807 0.238887310028076172 -0.544062018394470215
-0.0860876888036727905 -0.237413391470909119 -0.96935659646987915
-0.277485638856887817 -0.536210417747497559 -0.834425926208496094
-0.0799004435539245605 -0.206295222043991089 -0.97445070743560791
-0.0725221559405326843 0.675761997699737549 -0.733996987342834473
-0.0212882664054632187 -0.975039362907409668 -0.191245511174201965
-0.363449543714523315 0.808726668357849121 0.566027283668518066
-0.221640035510063171 0.372952133417129517 0.918232500553131104
0.971388578414916992 0.048661399632692337 0.20850159227848053
-0.440427899360656738 -0.411996215581893921 -0.856189429759979248
0.700462698936462402 -0.904160261154174805 -0.178910002112388611
0.744741559028625488 -0.885839164257049561 -0.155654862523078918
-0.778763771057128906 0.34654390811920166 0.60924142599105835
0.0726972520351409912 0.921961069107055664 -0.369287699460983276
0.48744627833366394 -0.524358093738555908 -0.791435003280639648
0.762053191661834717 0.515100419521331787 -0.597500920295715332
-0.05575595423579216 0.96046745777130127 0.2553538978099823
0.661655783653259277 0.171516135334968567 0.743982851505279541
-0.839362859725952148 -0.278779089450836182 -0.531769752502441406
0.976887166500091553 -0.269236266613006592 0.168178468942642212
-0.320960164070129395 -0.651253402233123779 0.744151294231414795
0.674884676933288574 0.793263494968414307 -0.46251341700553894
-0.0946907475590705872 0.916436731815338135 -0.391282558441162109
-0.649333178997039795 0.204125434160232544 -0.750755071640014648
-0.985570013523101807 0.153297975659370422 -0.117913536727428436
-0.525232791900634766 -0.842136681079864502 0.481645166873931885
0.662122011184692383 0.010809263214468956 -0.743354618549346924
0.827968418598175049 -0.836319267749786377 -0.0718554779887199402
-0.690292775630950928 0.704740405082702637 0.547929227352142334
0.914022147655487061 -0.68871694803237915 -0.175324633717536926
-0.106760986149311066 0.946477591991424561 -0.301966458559036255
-0.910520493984222412 -0.252484023571014404 0.390075653791427612
-0.0622824430465698242 0.470990478992462158 0.880865216255187988
-0.853854119777679443 0.74793928861618042 0.269392877817153931
0.20589640736579895 0.104131385684013367 -0.974003016948699951
-0.474960446357727051 0.0210000090301036835 -0.875478506088256836
0.462052792310714722 0.89094012975692749 -0.412811726331710815
-0.592905402183532715 -0.529510021209716797 -0.739612996578216553
-0.796315252780914307 0.324197262525558472 -0.5875510573387146
-0.733167171478271484 0.738487958908081055 -0.468847095966339111
-0.249040603637695312 -0.253153204917907715 0.95272374153137207
0.159383594989776611 -0.955260276794433594 0.278220921754837036
0.761496126651763916 -0.714660584926605225 0.471035569906234741
0.321294814348220825 -0.774837374687194824 -0.615004122257232666
-0.367145806550979614 0.169512420892715454 0.923034787178039551
-0.652416825294494629 -0.445265829563140869 0.721462845802307129
-0.655745565891265869 0.279009968042373657 -0.742559552192687988
-0.516031026840209961 -0.0632857978343963623 -0.855859816074371338
-0.203380227088928223 0.312627106904983521 -0.940359592437744141
-0.25689321756362915 0.945656299591064453 -0.306495785713195801
0.376965582370758057 -0.522378385066986084 -0.826782643795013428
-0.964372515678405762 -0.499137073755264282 -0.164874300360679626
-0.0820935070514678955 -0.587130725383758545 0.804097175598144531
-0.848092198371887207 -0.821634590625762939 -0.0209406148642301559
0.153167903423309326 -0.662972629070281982 0.740613877773284912
-0.452128469944000244 0.105121307075023651 -0.886806845664978027
0.173889905214309692 0.887525081634521484 -0.452666282653808594
-0.745317161083221436 -0.892132699489593506 0.143360555171966553
-0.616061091423034668 0.215896099805831909 -0.778837025165557861
0.319359451532363892 0.831731021404266357 -0.544527888298034668
0.701821088790893555 -0.0525071844458580017 0.704142928123474121
0.133371531963348389 -0.101815842092037201 0.986061930656433105
0.914945244789123535 0.333573848009109497 -0.38997572660446167
-0.199132919311523438 -0.614194989204406738 -0.781034886837005615
-0.89058297872543335 0.210856243968009949 -0.436348915100097656
0.196435511112213135 0.991337418556213379 0.00934996828436851501
-0.672740519046783447 -0.526650130748748779 -0.680877208709716797
-0.779225945472717285 0.532468497753143311 0.565346240997314453
-0.72964102029800415 0.50804448127746582 -0.633434712886810303
-0.303043574094772339 0.683258712291717529 0.716443300247192383
0.311434507369995117 -0.509810507297515869 -0.847666025161743164
0.970440268516540527 -0.562961876392364502 -0.0382733382284641266
-0.858751952648162842 -0.807608425617218018 0.0370136275887489319
-0.0737382248044013977 -0.990908503532409668 -0.0704279467463493347
-0.72280275821685791 0.333941012620925903 0.676927626132965088
0.446179836988449097 -0.956067204475402832 -0.236667037010192871
-0.196155160665512085 0.185958370566368103 -0.973165154457092285
-0.861328423023223877 0.778745591640472412 0.169708356261253357
-0.181949496269226074 -0.993089199066162109 -0.0405654683709144592
0.755337119102478027 0.882889032363891602 -0.16293470561504364
0.232223466038703918 -0.706595242023468018 -0.699571788311004639
0.230165004730224609 0.572661280632019043 0.811339318752288818
0.542855978012084961 -0.405079692602157593 0.809510350227355957
0.277943670749664307 -0.605928897857666016 -0.78365778923034668
0.382433950901031494 -0.172223538160324097 -0.9201812744140625
-0.99148482084274292 0.153253048658370972 -0.0564607903361320496
0.771013796329498291 -0.870747983455657959 -0.145571023225784302
0.624834239482879639 0.270849943161010742 -0.77040785551071167
0.840542495250701904 -0.599788248538970947 -0.44123724102973938
-0.849357426166534424 0.363958030939102173 -0.509152889251708984
-0.376528620719909668 -0.971400618553161621 -0.176762551069259644
-0.82932889461517334 -0.753027677536010742 0.318990409374237061
-0.621398687362670898 -0.845349967479705811 -0.419882029294967651
-0.873387753963470459 0.0962669849395751953 0.480380535125732422
-0.983083724975585938 -0.270128488540649414 -0.133474782109260559
-0.104796379804611206 0.49054408073425293 -0.867501139640808105
0.70171654224395752 0.878729104995727539 -0.269251555204391479
-0.978801608085632324 0.476866751909255981 0.0674043074250221252
-0.927886366844177246 0.358331024646759033 -0.343529731035232544
0.987550854682922363 0.222137913107872009 -0.0802614614367485046
0.0852106064558029175 -0.289635837078094482 -0.952132821083068848
-0.674232065677642822 0.326057285070419312 -0.724222362041473389
-0.385932236909866333 0.856896102428436279 0.497107148170471191
0.118481375277042389 -0.223297595977783203 0.969606339931488037
0.35138249397277832 0.696528315544128418 0.699309587478637695
0.85686182975769043 -0.44461098313331604 0.482692450284957886
-0.777653932571411133 0.218968197703361511 -0.621071875095367432
0.814329802989959717 0.711916506290435791 -0.391324847936630249
-0.656716465950012207 -0.79968571662902832 0.469803541898727417
0.553355693817138672 0.0761137604713439941 0.826400041580200195
0.779450535774230957 -0.845433950424194336 0.221642270684242249
0.871856510639190674 0.684146225452423096 0.317276865243911743
0.687680661678314209 -0.376194924116134644 0.704025149345397949
-0.629547238349914551 0.56679612398147583 0.691520750522613525
0.0746777206659317017 -0.971701979637145996 -0.216780021786689758
-0.207931056618690491 -0.68553239107131958 -0.720430731773376465
0.141097471117973328 0.0914496108889579773 -0.987962186336517334
-0.688353478908538818 -0.835395991802215576 -0.390019685029983521
-0.462445825338363647 0.171589389443397522 0.885045111179351807
-0.543669700622558594 -0.495038747787475586 -0.778030455112457275
0.343151301145553589 0.919746100902557373 -0.364385634660720825
-0.89383167028427124 -0.387940526008605957 -0.430943280458450317
0.923531472682952881 0.196575656533241272 0.365695685148239136
-0.975518345832824707 -0.536317169666290283 -0.0134454797953367233
-0.0100689111277461052 0.772772729396820068 -0.625198185443878174
0.403617948293685913 0.0556700378656387329 -0.90984731912612915
0.253112435340881348 0.314642518758773804 -0.934561371803283691
0.0727718770503997803 -0.976117134094238281 -0.185087606310844421
0.595500946044921875 -0.545617163181304932 0.72452998161315918
0.988083481788635254 0.382675707340240479 0.0266776122152805328
-0.00281064887531101704 -0.975633144378662109 -0.204087197780609131
-0.58637690544128418 0.737857043743133545 0.585509955883026123
0.355449467897415161 0.95999222993850708 -0.237071216106414795
-0.131131872534751892 -0.266955196857452393 -0.957841217517852783
-0.596414268016815186 0.494582980871200562 0.747924625873565674
0.604208290576934814 0.284162074327468872 -0.785536050796508789
0.584857046604156494 -0.442709594964981079 -0.771163761615753174
-0.320395290851593018 0.333610981702804565 0.915811479091644287
0.0976077839732170105 -0.703859627246856689 -0.707604944705963135
-0.2657051682472229 0.633347570896148682 0.766966700553894043
0.967367410659790039 -0.254729628562927246 -0.231392830610275269
0.15788307785987854 0.733147501945495605 0.673987746238708496
-0.062620013952255249 0.0759663954377174377 -0.992061316967010498
-0.189507409930229187 -0.976423263549804688 -0.191840693354606628
-0.948892712593078613 -0.258253604173660278 0.300480514764785767
0.500948309898376465 0.563546299934387207 0.767666518688201904
0.0667303726077079773 0.989115297794342041 -0.100986205041408539
-0.711547374725341797 -0.8979988694190979 0.183446034789085388
-0.516871094703674316 0.621159911155700684 -0.72388303279876709
0.350471079349517822 -0.942576229572296143 -0.305076837539672852
-0.680628538131713867 0.520677864551544189 -0.675405979156494141
-0.236310854554176331 -0.178458794951438904 -0.962350547313690186
0.560125589370727539 -0.0756957456469535828 -0.825980246067047119
-0.461332380771636963 0.152159214019775391 0.885678946971893311
0.4988231360912323 0.652547478675842285 -0.708737313747406006
0.5838736891746521 -0.366042822599411011 0.793455004692077637
-0.921026527881622314 -0.706298768520355225 0.0436161234974861145
-0.365985453128814697 -0.506991207599639893 -0.838987767696380615
0.780320227146148682 0.873401284217834473 -0.0929604247212409973
-0.492010205984115601 0.778056442737579346 -0.582166433334350586
-0.642257034778594971 0.833765268325805664 -0.436060875654220581
-0.70245659351348877 0.809218823909759521 0.406373411417007446
-0.518368363380432129 -0.213242769241333008 0.846668124198913574
0.818114101886749268 -0.0408579818904399872 -0.569495975971221924
0.558288037776947021 0.634789347648620605 -0.697552084922790527
0.981206119060516357 -0.446790814399719238 0.107208631932735443
0.480873584747314453 -0.701143443584442139 -0.670069217681884766
0.179022669792175293 -0.5863189697265625 -0.805311679840087891
0.833795130252838135 -0.376949936151504517 -0.525839745998382568
0.746732890605926514 -0.885329127311706543 0.161955475807189941
-0.0148399351164698601 0.637523353099822998 0.766809284687042236
-0.159417510032653809 0.856167256832122803 -0.504514217376708984
-0.570911169052124023 0.0413589999079704285 -0.819896519184112549
0.816786229610443115 0.843510866165161133 -0.121583059430122375
0.0425304807722568512 -0.0195075422525405884 -0.994658589363098145
-0.495912045240402222 0.329697310924530029 -0.854288935661315918
0.815389513969421387 -0.85330808162689209 -0.0753318518400192261
-0.690458714962005615 -0.885653495788574219 0.262417823076248169
-0.681206822395324707 -0.260437101125717163 0.720591902732849121
0.986698508262634277 -0.31188124418258667 -0.097863905131816864
0.680054843425750732 -0.807629585266113281 0.432427704334259033
0.62729877233505249 0.613522052764892578 0.668688118457794189
0.697498142719268799 -0.914318501949310303 -0.136494383215904236
0.105269432067871094 0.623074471950531006 -0.77556145191192627
-0.804485023021697998 -0.151274964213371277 -0.591239333152770996
-0.974916815757751465 -0.0962872430682182312 0.189791500568389893
-0.548733234405517578 -0.488590061664581299 0.783346474170684814
-0.506935060024261475 0.610709905624389648 0.731786370277404785
0.905249238014221191 -0.385943949222564697 0.391457796096801758
0.235546112060546875 0.285177350044250488 -0.944288432598114014
0.871868371963500977 -0.487252861261367798 -0.43950265645980835
-0.964459836483001709 0.533442318439483643 -0.127369984984397888
-0.782506585121154785 -0.319392263889312744 -0.606746435165405273
0.708442807197570801 -0.125561267137527466 -0.697978019714355469
0.0988770723342895508 0.863291084766387939 -0.491200119256973267
-0.0588328652083873749 -0.967193901538848877 -0.245177149772644043
0.514849066734313965 0.949722528457641602 -0.230870693922042847
-0.918768703937530518 -0.652792751789093018 0.207437604665756226
-0.262235283851623535 -0.71424412727355957 -0.69464188814163208
-0.410656511783599854 0.724633097648620605 -0.659981846809387207
-0.492177814245223999 -0.924508452415466309 0.328120380640029907
-0.373013854026794434 0.130077868700027466 -0.923926889896392822
0.382507801055908203 -0.395465463399887085 -0.881333351135253906
-0.416474908590316772 0.474318951368331909 -0.84188389778137207
-0.614769697189331055 -0.956034481525421143 -0.0290086511522531509
-0.831744134426116943 -0.46929633617401123 0.514257133007049561
-0.0718422234058380127 0.931062221527099609 -0.346244543790817261
-0.789774000644683838 -0.620076954364776611 -0.503176867961883545
-0.760788381099700928 -0.0475494638085365295 -0.639958083629608154
0.399107575416564941 0.109418950974941254 -0.915806770324707031
0.98849409818649292 0.334838509559631348 -0.0457317456603050232
-0.707556068897247314 0.649904012680053711 -0.581064105033874512
0.671011626720428467 0.942107856273651123 -0.0168309174478054047
-0.839127600193023682 0.550240755081176758 -0.472500860691070557
-0.65002518892288208 -0.652632772922515869 -0.62556767463684082
-0.404307335615158081 -0.444130003452301025 -0.86043161153793335
-0.954047977924346924 0.284977346658706665 0.277248591184616089
0.576893448829650879 0.657892882823944092 0.669230818748474121
-0.588350236415863037 -0.916839122772216797 0.281303673982620239
0.929724991321563721 0.352155715227127075 -0.340185046195983887
-0.875638663768768311 0.709276258945465088 -0.27095302939414978
0.949199020862579346 0.459220796823501587 0.243895694613456726
-0.939197421073913574 0.414134979248046875 -0.298261910676956177
-0.631949365139007568 -0.224012374877929688 0.769042432308197021
0.847682356834411621 0.826079905033111572 -0.0077971690334379673
0.115615330636501312 0.978438079357147217 -0.163938865065574646
-0.834312558174133301 0.126716524362564087 0.539919912815093994
0.80312877893447876 0.799498677253723145 0.294843852519989014
0.755053520202636719 0.524098455905914307 -0.59580695629119873
-0.946808934211730957 0.13416193425655365 0.312498390674591064
0.949396252632141113 0.203348830342292786 0.29948762059211731
-0.0273759514093399048 0.341402232646942139 -0.935193777084350586
-0.714773595333099365 0.458737641572952271 0.663674771785736084
0.859482288360595703 0.52774125337600708 -0.449338167905807495
0.000171255145687609911 -0.428041458129882812 0.9001883864402771
-0.906735420227050781 0.725664794445037842 0.131387427449226379
-0.412283122539520264 -0.156826287508010864 -0.904642283916473389
0.181063920259475708 -0.15855860710144043 0.97445976734161377
0.65639185905456543 -0.0807987004518508911 -0.7508736252784729
-0.360731750726699829 -0.90336906909942627 0.398885875940322876
0.803253173828125 0.271242320537567139 -0.586918354034423828
-0.27305486798286438 0.731032788753509521 -0.669629693031311035
-0.0414704792201519012 -0.996764898300170898 -0.0156914312392473221
-0.00500138243660330772 -0.0105655435472726822 0.995379090309143066
0.549819231033325195 -0.800779402256011963 -0.535587430000305176
0.99378049373626709 -0.165852904319763184 -0.0320339500904083252
-0.792008578777313232 -0.231079399585723877 -0.597177565097808838
0.0220039617270231247 0.406631529331207275 0.908851742744445801
0.204578310251235962 -0.896181464195251465 0.429858386516571045
-0.110244669020175934 -0.988187253475189209 -0.0879837349057197571
0.352305680513381958 -0.98775869607925415 0.0692151933908462524
-0.170099139213562012 -0.834241509437561035 -0.542172014713287354
0.941012918949127197 0.205459043383598328 -0.313105463981628418
0.988031148910522461 0.367477178573608398 0.0023034664336591959
-0.86666715145111084 0.335845738649368286 0.487406075000762939
-0.597332775592803955 0.93017047643661499 -0.227472215890884399
0.907419919967651367 0.724379241466522217 -0.0938980653882026672
-0.390570789575576782 -0.947374522686004639 -0.287820339202880859
0.913094103336334229 -0.62379157543182373 -0.273542165756225586
-0.408099979162216187 0.98136591911315918 0.120512023568153381
0.912629604339599609 -0.726183056831359863 0.0680420175194740295
0.919599354267120361 0.100268125534057617 -0.377486139535903931
0.879877746105194092 0.664601325988769531 0.325458645820617676
0.710967123508453369 -0.108679093420505524 -0.695286214351654053
0.776622414588928223 -0.879059493541717529 0.0790172666311264038
-0.969556868076324463 -0.475944846868515015 -0.13765232264995575
-0.934974908828735352 -0.501547098159790039 -0.286383837461471558
0.517800211906433105 -0.603381514549255371 0.733006536960601807
0.443802416324615479 0.983862817287445068 -0.0130056394264101982
-0.647392451763153076 0.76579582691192627 0.518639922142028809
-0.98717576265335083 0.0125148659572005272 0.146931782364845276
-0.921562671661376953 0.707877516746520996 0.0485878400504589081
0.617421567440032959 0.344619244337081909 -0.769886374473571777
0.377543598413467407 0.406937867403030396 -0.879188716411590576
-0.354085326194763184 0.1374330073595047 -0.933054447174072266
-0.414680063724517822 0.986755132675170898 -0.047680046409368515
0.507035672664642334 -0.924404680728912354 0.318730920553207397
0.90604168176651001 0.740397155284881592 -0.0586598888039588928
0.468124091625213623 -0.824542343616485596 -0.523788094520568848
-0.62411731481552124 0.906169295310974121 -0.280890613794326782
-0.610600054264068604 -0.00169964937958866358 -0.786201715469360352
0.985944271087646484 0.208102598786354065 -0.132996603846549988
-0.970220327377319336 0.533511579036712646 0.0811016187071800232
-0.940703749656677246 0.478930413722991943 -0.275939196348190308
0.710291922092437744 0.366264611482620239 0.685739874839782715
0.526815533638000488 0.0467225946485996246 0.844115078449249268
-0.28501853346824646 0.949240982532501221 0.292101562023162842
-0.90362548828125 0.175584405660629272 -0.42340397834777832
-0.326814711093902588 -0.823865354061126709 -0.55235755443572998
-0.479254722595214844 0.633036553859710693 -0.727314591407775879
-0.945423483848571777 -0.0401931777596473694 0.318835467100143433
0.918029248714447021 -0.643059790134429932 -0.232107892632484436
-0.992721855640411377 0.320456057786941528 -0.0233596675097942352
-0.832024693489074707 -0.554532468318939209 -0.481487870216369629
-0.115957759320735931 -0.10964280366897583 -0.98624265193939209
0.525938510894775391 -0.155538842082023621 0.844026088714599609
0.354878485202789307 -0.990459918975830078 -0.0218561794608831406
-0.767479658126831055 -0.206191748380661011 -0.633820712566375732
0.401286482810974121 0.515527546405792236 -0.828429102897644043
0.201259836554527283 -0.955096006393432617 -0.275225788354873657
-0.136290699243545532 0.733758032321929932 0.673395156860351562
-0.850003361701965332 -0.123315371572971344 0.519352555274963379
0.672039985656738281 -0.0456609576940536499 0.733084559440612793
0.77063751220703125 -0.0546701066195964813 -0.628662824630737305
-0.957748532295227051 -0.0441515855491161346 0.266341358423233032
-0.886017024517059326 -0.519281387329101562 -0.400803446769714355
0.601468801498413086 -0.133724451065063477 -0.794577062129974365
0.0269354451447725296 -0.0625353977084159851 0.995379090309143066
-0.966442286968231201 0.00386375677771866322 -0.245228126645088196
-0.651608645915985107 -0.151531890034675598 0.752397716045379639
0.155272141098976135 -0.929914712905883789 -0.36395534873008728
-0.145794317126274109 0.246982932090759277 -0.964329242706298828
-0.0551513060927391052 0.900849759578704834 -0.42035183310508728
0.246736794710159302 -0.910341501235961914 0.394108414649963379
-0.965520024299621582 -0.187519475817680359 -0.244951322674751282
0.991589963436126709 -0.307151317596435547 0.0141186825931072235
