ply
format ascii 1.0
element vertex 739
property float x
property float y
property float z
end_header
-0.756022214889526367 -0.130210027098655701 0.575056791305541992
0.606412589550018311 0.494272142648696899 -0.36063152551651001
0.468792855739593506 -0.543325066566467285 -0.51415640115737915
0.941129207611083984 0.133190363645553589 0.000121916666103061289
0.234580338001251221 -0.287619024515151978 0.895168662071228027
0.0112767685204744339 0.316704124212265015 0.944135606288909912
-0.507692933082580566 -0.375005513429641724 -0.659913361072540283
0.0416877306997776031 -0.641058504581451416 0.750838577747344971
0.674967050552368164 0.436797529458999634 0.330751776695251465
-0.0510373450815677643 -0.740363657474517822 -0.648083090782165527
0.583347082138061523 0.490054666996002197 -0.42048567533493042
-0.15243232250213623 0.803212165832519531 0.493168890476226807
-0.31390845775604248 -0.586652815341949463 -0.630165517330169678
0.694859623908996582 -0.078525155782699585 -0.687793910503387451
-0.0355437025427818298 -0.71727752685546875 -0.677398860454559326
-0.312340348958969116 0.424137532711029053 -0.776231288909912109
0.573244750499725342 -0.593887627124786377 -0.174400314688682556
0.825307130813598633 -0.31265568733215332 0.0848888605833053589
-0.314607858657836914 0.329210072755813599 -0.837152719497680664
-0.542058646678924561 -0.154477491974830627 -0.78104853630065918
-0.123558834195137024 0.317229866981506348 0.918461263179779053
-0.556541979312896729 0.248924270272254944 0.711843669414520264
-0.299148589372634888 0.68487250804901123 -0.5224800705909729
0.555521726608276367 0.60153728723526001 -0.196362629532814026
-0.539831042289733887 -0.4142952561378479 -0.588978767395019531
0.370091497898101807 0.251854091882705688 0.844034790992736816
-0.592687547206878662 0.580826699733734131 -0.112900234758853912
-0.592206656932830811 0.0518494360148906708 0.789815306663513184
0.409882336854934692 -0.681623518466949463 0.362697988748550415
0.11400846391916275 0.439112752676010132 -0.867117643356323242
0.784309983253479004 0.355991899967193604 0.161791771650314331
-0.571820855140686035 -0.190130189061164856 -0.73675847053527832
0.150801166892051697 -0.538113057613372803 -0.787018716335296631
-0.0617921426892280579 -0.71595996618270874 -0.671419203281402588
-0.9492340087890625 0.0119946496561169624 0.299219280481338501
-0.127903223037719727 -0.470707744359970093 -0.843959689140319824
-0.440542638301849365 0.683815240859985352 0.2839336097240448
-0.115859456360340118 -0.195653229951858521 -0.959382295608520508
-0.406137168407440186 0.695726096630096436 0.335217416286468506
0.390781611204147339 -0.76348036527633667 -0.118817739188671112
-0.190161213278770447 -0.875172317028045654 0.267209380865097046
0.334117919206619263 -0.12666735053062439 -0.911414623260498047
-0.903027236461639404 -0.197809278964996338 0.0988764911890029907
-0.201630398631095886 -0.671339809894561768 -0.629739284515380859
-0.19920504093170166 -0.863271474838256836 0.294148743152618408
0.620312273502349854 -0.515818119049072266 0.267296582460403442
-0.151643216609954834 -0.384341567754745483 0.884706974029541016
-0.301826149225234985 0.0562488585710525513 -0.943373203277587891
0.462254315614700317 -0.108480222523212433 -0.857842683792114258
-0.327011704444885254 -0.183236688375473022 -0.897209465503692627
-0.3283519446849823 -0.487489551305770874 -0.719446241855621338
-0.697554290294647217 0.466484606266021729 -0.118807792663574219
0.794008791446685791 -0.351781636476516724 -0.093899555504322052
-0.0133202839642763138 0.984838604927062988 0.142635837197303772
-0.222350597381591797 0.0828324481844902039 -0.959237575531005859
0.320114433765411377 -0.610450446605682373 0.595763802528381348
-0.870126008987426758 0.246227160096168518 -0.0816806033253669739
-0.381858110427856445 -0.029502158984541893 0.915057182312011719
-0.00619931379333138466 -0.94480520486831665 -0.311579853296279907
-0.790246188640594482 0.328644812107086182 -0.248070776462554932
0.738919854164123535 -0.430810034275054932 -0.0336654931306838989
-0.67168658971786499 0.147022172808647156 -0.66899406909942627
0.187459841370582581 -0.341743439435958862 -0.887876391410827637
0.183639198541641235 0.77083885669708252 -0.505483031272888184
0.719118893146514893 -0.031218426302075386 -0.677401900291442871
0.341981589794158936 0.79358440637588501 -0.186810821294784546
-0.0344702973961830139 0.154434993863105774 -0.984489619731903076
-0.783749222755432129 0.200377985835075378 0.471230745315551758
0.0717696547508239746 0.919727444648742676 -0.318425446748733521
0.299549669027328491 -0.585349440574645996 -0.645610928535461426
-0.67464137077331543 -0.449861824512481689 -0.280519008636474609
0.684393882751464844 -0.00490158703178167343 -0.721995890140533447
-0.598109960556030273 -0.44253164529800415 -0.462642312049865723
-0.781804203987121582 0.357173681259155273 -0.191195935010910034
-0.80863487720489502 -0.336435496807098389 -0.0951727554202079773
-0.41441836953163147 0.623772203922271729 -0.464795440435409546
0.435161978006362915 -0.53496253490447998 0.565437257289886475
0.522629141807556152 0.381447941064834595 -0.63709646463394165
0.0366592146456241608 -0.0402521044015884399 0.995379090309143066
0.132839441299438477 -0.505174458026885986 -0.822083413600921631
-0.863118886947631836 -0.249140411615371704 -0.132046535611152649
-0.345908492803573608 -0.415625691413879395 -0.761844277381896973
0.194635465741157532 -0.816877007484436035 -0.414135783910751343
0.653820991516113281 -0.477233856916427612 -0.269662141799926758
-0.131567075848579407 -0.0789889544248580933 0.979156851768493652
-0.292151570320129395 -0.840347468852996826 -0.0979928076267242432
-0.367982745170593262 -0.746729373931884766 -0.268166422843933105
0.228483900427818298 -0.887628912925720215 -0.0161989741027355194
-0.776459455490112305 0.290982067584991455 0.356146812438964844
0.0626054704189300537 -0.000968195672612637281 -0.995505630970001221
0.908296287059783936 0.0144542548805475235 0.400736093521118164
0.12011292576789856 0.934984743595123291 -0.160669133067131042
0.559543430805206299 -0.545217752456665039 0.353580445051193237
-0.359051913022994995 -0.73006826639175415 -0.343790024518966675
0.434463083744049072 0.41146552562713623 -0.694742798805236816
0.382914960384368896 0.616318345069885254 0.52127605676651001
-0.487158596515655518 -0.612366378307342529 -0.369770854711532593
0.248994618654251099 0.594083666801452637 -0.680478811264038086
0.0156389456242322922 -0.0101493466645479202 -0.996021389961242676
0.579650461673736572 0.53300398588180542 -0.342443555593490601
0.204203695058822632 0.62844771146774292 -0.673756420612335205
-0.00585849350318312645 -0.914867758750915527 -0.378784596920013428
-0.610714256763458252 0.322712093591690063 -0.602359592914581299
0.450322359800338745 0.261357575654983521 -0.790784180164337158
0.29545101523399353 -0.465804189443588257 -0.758617997169494629
-0.176911458373069763 0.537544727325439453 0.776561975479125977
0.388495475053787231 0.265974432229995728 0.826122641563415527
0.149035841226577759 0.639479756355285645 0.698643207550048828
0.853665947914123535 -0.168047130107879639 -0.369188517332077026
0.366681605577468872 -0.780098974704742432 -0.12038450688123703
0.625689148902893066 -0.544818997383117676 0.142406582832336426
-0.0367605835199356079 -0.940938174724578857 0.296888202428817749
-0.66041111946105957 -0.267249166965484619 0.584519565105438232
-0.148836433887481689 0.666037797927856445 0.676067352294921875
0.420535087585449219 0.578874468803405762 -0.523925244808197021
0.364624887704849243 0.777590155601501465 -0.160079538822174072
0.0679018124938011169 0.797979533672332764 -0.562429904937744141
-0.558342576026916504 -0.31719622015953064 0.662488162517547607
0.453446805477142334 0.226260289549827576 0.807666122913360596
-0.0289123039692640305 -0.732790231704711914 -0.664652109146118164
-0.482899487018585205 -0.684257447719573975 -0.117570668458938599
0.547667920589447021 -0.563235104084014893 -0.339586138725280762
0.671449124813079834 -0.427093327045440674 -0.350405126810073853
-0.317474722862243652 0.40231931209564209 0.792041778564453125
0.11682911217212677 0.614211201667785645 -0.744810819625854492
-0.199737519025802612 -0.293374329805374146 -0.903222322463989258
-0.114489190280437469 -0.830639302730560303 -0.474828124046325684
0.452782809734344482 0.238546222448348999 0.803148090839385986
0.434746861457824707 -0.704930007457733154 -0.232985690236091614
0.136562943458557129 -0.303682982921600342 -0.922490894794464111
-0.334686905145645142 -0.662369072437286377 -0.510178864002227783
0.0507956631481647491 -0.564379096031188965 -0.81126868724822998
-0.372137457132339478 -0.781226277351379395 0.0755552425980567932
0.873378574848175049 -0.147335514426231384 -0.339200258255004883
-0.317830115556716919 0.80125051736831665 -0.212705463171005249
0.927360296249389648 -0.0191229898482561111 -0.349916815757751465
-0.826156556606292725 0.174971878528594971 -0.419497102499008179
-0.607750833034515381 0.484533071517944336 -0.380095005035400391
-0.933601915836334229 -0.0893395841121673584 0.245573073625564575
-0.914491653442382812 0.108089074492454529 0.283654272556304932
-0.132177472114562988 -0.70451277494430542 -0.641182243824005127
-0.238858431577682495 0.881190776824951172 -0.00580269517377018929
-0.330995768308639526 0.790152013301849365 0.217038720846176147
-0.168079286813735962 -0.397714197635650635 -0.868488967418670654
-0.865370869636535645 -0.139075592160224915 0.373182445764541626
0.330768555402755737 0.666516721248626709 -0.512318849563598633
-0.521706700325012207 -0.588682770729064941 -0.340207904577255249
0.00740518700331449509 -0.976724326610565186 0.17545764148235321
0.628836691379547119 0.270305365324020386 -0.62543022632598877
0.295467793941497803 -0.255801737308502197 0.88509058952331543
0.845534622669219971 0.288389474153518677 0.0928909331560134888
0.736374080181121826 0.269676536321640015 -0.468800991773605347
0.482818573713302612 0.274550825357437134 -0.756290674209594727
-0.477188557386398315 0.522265970706939697 0.530489981174468994
0.418593853712081909 -0.720493912696838379 -0.22311091423034668
0.951197922229766846 0.0918261930346488953 0.156638786196708679
0.213226184248924255 0.888929426670074463 -0.129051908850669861
-0.741614341735839844 0.422595947980880737 0.0368772298097610474
0.237065792083740234 -0.882233560085296631 -0.0406050942838191986
-0.199266180396080017 0.903571248054504395 -0.0969448760151863098
0.781377136707305908 0.337053894996643066 0.230613574385643005
0.142736911773681641 -0.789826929569244385 -0.513871550559997559
0.266484111547470093 0.267950743436813354 -0.888986051082611084
-0.574214816093444824 0.258962452411651611 0.689954042434692383
-0.638091802597045898 0.537841320037841797 0.11076798290014267
0.0603156797587871552 0.971982300281524658 0.103073038160800934
0.476012200117111206 -0.65711522102355957 0.268362820148468018
-0.201786234974861145 0.897189438343048096 0.132380232214927673
-0.356579422950744629 0.681764185428619385 0.450128525495529175
0.946962654590606689 0.116133905947208405 0.107324592769145966
-0.976855754852294922 0.0207862183451652527 -0.152161881327629089
0.380043774843215942 -0.620932042598724365 -0.514480471611022949
-0.0214864183217287064 -0.00187160295899957418 0.995379090309143066
-0.20601356029510498 -0.737022161483764648 -0.540009558200836182
-0.636017382144927979 -0.527643978595733643 -0.154917895793914795
-0.670427381992340088 -0.504088163375854492 0.0503891520202159882
-0.749232888221740723 0.157459259033203125 -0.568980813026428223
-0.175499901175498962 -0.215092718601226807 -0.939301431179046631
0.83386760950088501 0.186017826199531555 -0.385064691305160522
0.0622536949813365936 -0.527685284614562988 -0.832158088684082031
-0.97397148609161377 -0.0130621260032057762 -0.19117070734500885
0.658572912216186523 -0.484716355800628662 -0.252958297729492188
-0.559034943580627441 0.553920745849609375 -0.336510896682739258
-0.0410763099789619446 -0.599692046642303467 0.787997841835021973
0.719603776931762695 0.307180732488632202 -0.452522724866867065
-0.021601526066660881 0.743475973606109619 -0.653717696666717529
-0.831221222877502441 -0.172591745853424072 0.408498615026473999
0.284588128328323364 0.624038040637969971 0.615061163902282715
0.145060241222381592 0.628194868564605713 -0.714840829372406006
0.791148126125335693 -0.290408998727798462 -0.311965793371200562
-0.49125400185585022 -0.471807718276977539 -0.579930603504180908
0.253606975078582764 -0.814687192440032959 -0.326755046844482422
-0.426867783069610596 -0.714072823524475098 -0.222218364477157593
-0.0465706400573253632 -0.0240333676338195801 0.995379090309143066
0.247810706496238708 -0.850491762161254883 -0.213172122836112976
-0.411856144666671753 -0.472720175981521606 -0.660062670707702637
-0.213951751589775085 -0.738280892372131348 -0.533082306385040283
0.293981224298477173 0.802754878997802734 0.27353060245513916
-0.330945789813995361 -0.596892297267913818 -0.607352614402770996
0.535121142864227295 -0.531227409839630127 0.427957147359848022
0.83309638500213623 -0.0768693014979362488 -0.500230014324188232
-0.805441558361053467 -0.25409853458404541 0.351577132940292358
0.191066250205039978 0.91131967306137085 -0.0599120967090129852
-0.732836782932281494 -0.0349333435297012329 0.666640281677246094
0.547930002212524414 -0.200989603996276855 -0.750356674194335938
0.756247341632843018 0.403519988059997559 0.0739631727337837219
-0.365846335887908936 0.75863724946975708 -0.250580847263336182
0.44431641697883606 -0.723626911640167236 -0.0879097729921340942
0.698728799819946289 -0.27294430136680603 0.528746128082275391
-0.547213554382324219 0.632016837596893311 -0.0463853776454925537
0.234108611941337585 -0.871021568775177002 -0.141639158129692078
0.829026222229003906 0.265017718076705933 0.24651828408241272
-0.197687104344367981 0.0160707738250494003 -0.975661396980285645
-0.0393828488886356354 -0.64281010627746582 0.750142455101013184
0.384942859411239624 -0.604216158390045166 -0.541120409965515137
-0.496072262525558472 0.675322115421295166 -0.0865521356463432312
0.174023360013961792 0.189729958772659302 -0.948697507381439209
-0.887145459651947021 0.202683225274085999 -0.171344920992851257
-0.554495513439178467 -0.628623843193054199 -0.0131145911291241646
-0.514977097511291504 0.528585612773895264 -0.464088886976242065
0.0997681021690368652 -0.878663718700408936 0.392016202211380005
-0.936665534973144531 0.139712825417518616 -0.0595034137368202209
0.480957955121994019 -0.627761483192443848 0.343581974506378174
-0.952591478824615479 0.115752518177032471 -0.0586737394332885742
-0.493196964263916016 -0.48529285192489624 -0.561816811561584473
-0.838903546333312988 0.00590674811974167824 -0.530082404613494873
-0.332249999046325684 -0.763779878616333008 -0.306450039148330688
-0.361928164958953857 0.741319894790649414 -0.30936846137046814
0.90486609935760498 -0.0495646409690380096 -0.382760226726531982
0.927321195602416992 -0.00395309925079345703 -0.369516521692276001
0.613467037677764893 -0.550917625427246094 0.175781682133674622
-0.974526345729827881 -0.0679076090455055237 -0.0507485084235668182
-0.00303952489048242569 0.912755846977233887 0.394200563430786133
0.717370927333831787 -0.307898879051208496 -0.455336540937423706
-0.202202349901199341 0.524489939212799072 0.773923575878143311
0.589941501617431641 0.481233119964599609 0.419033974409103394
0.353426545858383179 0.202178820967674255 -0.87649768590927124
0.175444707274436951 0.917054295539855957 0.0643316134810447693
0.27077600359916687 -0.425443977117538452 -0.800552129745483398
-0.698474228382110596 0.358764201402664185 -0.413361340761184692
-0.00709597347304224968 -0.979580044746398926 -0.152119278907775879
0.783650994300842285 -0.210191965103149414 0.462475121021270752
0.315193504095077515 -0.0823337435722351074 -0.930942356586456299
0.717113673686981201 0.427000284194946289 -0.216674715280532837
-0.0307931341230869293 -0.944269120693206787 -0.282860100269317627
0.301762789487838745 -0.615103662014007568 0.609146296977996826
-0.61417233943939209 -0.0117641445249319077 -0.781070470809936523
-0.588999629020690918 0.449136167764663696 -0.470973074436187744
0.614587843418121338 0.475027799606323242 -0.385722517967224121
-0.245254680514335632 0.481702715158462524 -0.776821255683898926
0.138314515352249146 -0.668358266353607178 -0.679466784000396729
-0.208658352494239807 -0.359264463186264038 -0.872079968452453613
-0.571903228759765625 -0.495299547910690308 -0.424384266138076782
-0.779512882232666016 0.112335547804832458 -0.558266878128051758
0.160420924425125122 -0.61579585075378418 -0.716904878616333008
-0.462301731109619141 -0.209159895777702332 -0.813823461532592773
-0.50825732946395874 0.279445886611938477 -0.738422632217407227
0.183711796998977661 0.580986320972442627 -0.73403555154800415
-0.0943732187151908875 -0.0847911760210990906 -0.984159469604492188
-0.747042596340179443 -0.202971994876861572 -0.52466428279876709
-0.606888234615325928 -0.563444733619689941 0.157854944467544556
-0.053205590695142746 -0.884954154491424561 0.418328553438186646
-0.825748622417449951 0.170639395713806152 0.418458700180053711
0.322515308856964111 -0.820863723754882812 0.0255878902971744537
-0.6230621337890625 -0.393184304237365723 -0.497696518898010254
-0.856598079204559326 -0.22960546612739563 0.240922510623931885
-0.577879428863525391 0.420089244842529297 0.529071271419525146
0.236984521150588989 0.752438843250274658 -0.479282140731811523
0.4044608473777771 0.760657966136932373 -0.0299266446381807327
0.759028494358062744 0.370041519403457642 -0.227999120950698853
-0.580794572830200195 -0.0855402871966362 0.786715507507324219
-0.479216039180755615 0.324845165014266968 -0.729519188404083252
0.889785110950469971 0.0866430327296257019 0.37641027569770813
0.196018129587173462 -0.584354817867279053 0.722155630588531494
-0.524898231029510498 0.361185610294342041 -0.65433037281036377
0.0637275353074073792 -0.833703696727752686 -0.511091172695159912
0.165825426578521729 0.818347394466400146 -0.446374565362930298
0.747050106525421143 -0.414673417806625366 0.0949291735887527466
-0.293416082859039307 -0.632204771041870117 0.5984458327293396
0.641719460487365723 -0.110204190015792847 -0.721366345882415771
0.206570565700531006 -0.332852214574813843 -0.883798956871032715
0.453544735908508301 0.641841351985931396 -0.358895629644393921
0.882602572441101074 -0.222072139382362366 -0.121611528098583221
-0.303898274898529053 0.289454162120819092 -0.863740801811218262
-0.16280047595500946 0.600126981735229492 -0.729656577110290527
0.358534008264541626 -0.546652257442474365 -0.634970188140869141
-0.542035579681396484 -0.503845572471618652 -0.461008608341217041
-0.185393035411834717 -0.23401758074760437 0.930259644985198975
0.149108827114105225 -0.831927299499511719 0.436557084321975708
0.0160191785544157028 -0.987229585647583008 0.0669246762990951538
0.213047236204147339 -0.463964372873306274 -0.807085931301116943
0.803081989288330078 0.24103035032749176 -0.373358160257339478
0.880946099758148193 -0.230677336454391479 0.107679501175880432
0.759150087833404541 0.216042309999465942 0.499159842729568481
-0.0572592765092849731 -0.933068752288818359 -0.296143680810928345
0.198800206184387207 -0.710017502307891846 0.584113657474517822
0.238284796476364136 -0.695522964000701904 -0.568247616291046143
0.68171316385269165 0.0247338637709617615 -0.72147756814956665
-0.500688433647155762 -0.350415676832199097 0.687791824340820312
-0.908234894275665283 0.195101499557495117 -0.0300513654947280884
0.715455174446105957 -0.00279685109853744507 -0.693833708763122559
-0.260662466287612915 0.786129772663116455 0.381256103515625
0.306616693735122681 0.494513034820556641 -0.726473867893218994
0.901675760746002197 0.132100999355316162 0.284781605005264282
0.236529573798179626 -0.371386200189590454 -0.851614177227020264
-0.833383023738861084 0.0419440381228923798 0.525292336940765381
-0.0269671492278575897 0.301322817802429199 -0.947490453720092773
0.134837761521339417 0.47424885630607605 -0.837658524513244629
0.595193207263946533 0.0103842820972204208 -0.795271873474121094
0.491708487272262573 0.637489259243011475 -0.285796254873275757
0.500411927700042725 0.586934328079223633 0.384729951620101929
0.672962665557861328 -0.0346260778605937958 -0.725784122943878174
0.00303498981520533562 -0.991419315338134766 -0.0173004120588302612
-0.795685172080993652 0.297015607357025146 -0.287712663412094116
-0.561463773250579834 0.435934573411941528 -0.539659380912780762
-0.725088596343994141 0.439604133367538452 -0.0766290798783302307
-0.853896141052246094 -0.207957208156585693 -0.288327723741531372
0.506875276565551758 -0.200840339064598083 0.787586390972137451
0.424400091171264648 -0.601769745349884033 -0.485053688287734985
0.724832653999328613 0.0782124027609825134 -0.650417923927307129
-0.324713140726089478 -0.416128307580947876 -0.77506643533706665
-0.422876536846160889 0.45085182785987854 0.672446250915527344
-0.140789508819580078 0.0611863285303115845 -0.981135010719299316
-0.286459088325500488 0.665446579456329346 0.557585775852203369
0.229173928499221802 -0.192714259028434753 -0.930595338344573975
0.123521603643894196 0.642817378044128418 0.710730075836181641
0.689988315105438232 -0.0520315691828727722 -0.705234348773956299
0.830254197120666504 0.311669826507568359 0.0100917406380176544
0.776329457759857178 0.305239439010620117 -0.331584841012954712
-0.305869817733764648 0.750186324119567871 -0.39353257417678833
-0.139266893267631531 0.0727880373597145081 -0.980245888233184814
-0.84069514274597168 0.302294909954071045 -0.0158022809773683548
-0.846238851547241211 -0.220952242612838745 0.297996401786804199
0.765463113784790039 0.313842803239822388 -0.339770853519439697
-0.760689020156860352 0.323457598686218262 -0.336622655391693115
-0.662422358989715576 0.310757845640182495 -0.535764753818511963
0.264093190431594849 -0.850488543510437012 0.159321963787078857
0.591017842292785645 -0.0245626438409090042 -0.797345340251922607
-0.527864277362823486 -0.327272742986679077 -0.678818941116333008
-0.743964970111846924 -0.396987169981002808 0.191809982061386108
0.679463207721710205 -0.181071355938911438 0.639808714389801025
0.726846694946289062 0.0877588540315628052 -0.643440663814544678
-0.592596828937530518 -0.137345686554908752 -0.74852675199508667
0.681895852088928223 -0.277790367603302002 -0.553490936756134033
-0.795387506484985352 0.0146481208503246307 -0.590826749801635742
0.122517988085746765 -0.78018951416015625 -0.556209146976470947
-0.028909195214509964 0.291270554065704346 -0.94852900505065918
-0.564185917377471924 0.217054799199104309 -0.72833627462387085
-0.427858710289001465 0.124631643295288086 -0.866817712783813477
-0.71633458137512207 -0.143534764647483826 0.623165369033813477
-0.0548758618533611298 0.751365005970001221 -0.63202822208404541
-0.479095101356506348 0.31408083438873291 0.732965469360351562
0.200390070676803589 -0.321367084980010986 -0.892463743686676025
0.780047118663787842 -0.136892274022102356 -0.534995973110198975
0.855500221252441406 -0.184103250503540039 -0.336692988872528076
0.0480472370982170105 0.641752541065216064 -0.746557831764221191
0.612007439136505127 -0.572275698184967041 -0.00772393820807337761
0.0608613081276416779 -0.665182232856750488 -0.723032057285308838
-0.222938954830169678 -0.886363744735717773 -0.103716187179088593
0.179888471961021423 0.756508231163024902 -0.532124698162078857
-0.3172493577003479 0.451884925365447998 -0.755319118499755859
-0.483318090438842773 0.426844656467437744 -0.634597718715667725
-0.643973350524902344 0.106449514627456665 0.718846797943115234
0.312672257423400879 -0.643698990345001221 0.563032865524291992
-0.435212969779968262 -0.718075335025787354 -0.184083238244056702
-0.745322644710540771 -0.420509994029998779 -0.0187994334846735001
-0.0645538643002510071 -0.880906403064727783 -0.423366427421569824
-0.842317521572113037 0.2767142653465271 -0.185380041599273682
-0.531433522701263428 0.61523282527923584 0.231760367751121521
-0.076066240668296814 0.833051562309265137 -0.503627657890319824
-0.0751559585332870483 0.25681149959564209 0.95472186803817749
-0.178913787007331848 0.644070148468017578 -0.680460929870605469
-0.535804629325866699 -0.37026175856590271 -0.634040534496307373
0.142724484205245972 -0.913996756076812744 0.216792494058609009
-0.426239728927612305 0.62197953462600708 0.454548776149749756
-0.139405295252799988 0.0549610331654548645 0.981192231178283691
0.195516973733901978 0.710241377353668213 -0.586167275905609131
-0.746762514114379883 -0.211318537592887878 0.519184589385986328
0.0272967908531427383 -0.755102574825286865 0.644362688064575195
-0.30554768443107605 -0.0654314085841178894 -0.941202878952026367
-0.0606867484748363495 -0.401195943355560303 0.901567995548248291
0.796939849853515625 -0.338637799024581909 0.161314383149147034
-0.40828096866607666 -0.36826971173286438 -0.74918055534362793
0.61641991138458252 0.500794351100921631 -0.322798281908035278
-0.135564342141151428 -0.550844788551330566 -0.783756852149963379
0.0124876098707318306 -0.884929060935974121 -0.454717308282852173
0.154777988791465759 0.35877525806427002 0.893757402896881104
-0.711619675159454346 -0.340949654579162598 -0.416395813226699829
0.473810851573944092 0.65908968448638916 0.268080353736877441
0.702117979526519775 -0.461636900901794434 -0.116664990782737732
-0.621349155902862549 -0.0843358859419822693 0.750766456127166748
0.770415842533111572 0.0579185709357261658 -0.606467247009277344
0.652419447898864746 -0.178819224238395691 -0.668306708335876465
-0.973097383975982666 0.0516036041080951691 -0.102651424705982208
-0.139930605888366699 -0.932454228401184082 -0.11819140613079071
0.632129848003387451 0.330932766199111938 -0.564225673675537109
0.528198182582855225 0.102588765323162079 0.81409221887588501
0.822996973991394043 -0.00862034410238265991 -0.560897588729858398
0.335517704486846924 0.431363910436630249 -0.758490681648254395
0.494163483381271362 0.433109164237976074 -0.614607274532318115
-0.136609122157096863 0.546064257621765137 0.790371716022491455
0.496356070041656494 0.261581957340240479 -0.757214009761810303
0.753678560256958008 0.357175827026367188 -0.27753150463104248
-0.18320155143737793 0.198226079344749451 -0.942140400409698486
0.541368007659912109 0.641718924045562744 -0.011565718799829483
-0.0657716915011405945 0.974618732929229736 -0.0540413782000541687
-0.623192787170410156 0.482071369886398315 -0.348295629024505615
-0.935598969459533691 0.109250761568546295 -0.189980164170265198
0.732033133506774902 -0.0563720911741256714 -0.654057562351226807
0.190760388970375061 0.180585816502571106 -0.946881532669067383
0.729106783866882324 0.318076848983764648 -0.425699383020401001
0.298601776361465454 0.807027876377105713 -0.264441728591918945
0.742834746837615967 0.418726742267608643 0.093914814293384552
0.678570389747619629 -0.373411774635314941 -0.42670673131942749
-0.0719090104103088379 0.822614312171936035 -0.51911848783493042
-0.949263989925384521 -0.0662790834903717041 -0.219007879495620728
0.415101557970046997 0.75371241569519043 -0.0647685080766677856
-0.270225018262863159 -0.656235337257385254 0.587646722793579102
-0.438557595014572144 0.725371301174163818 -0.104414723813533783
0.167378455400466919 0.920935571193695068 -0.0567635595798492432
-0.810603976249694824 -0.0817192569375038147 -0.541808545589447021
-0.322643011808395386 -0.8207855224609375 0.00924463570117950439
0.178512483835220337 0.76621633768081665 0.524534344673156738
-0.285740017890930176 0.802170634269714355 0.301330238580703735
0.515157461166381836 0.56931537389755249 0.39609217643737793
0.966590762138366699 0.0823454558849334717 -0.0253457408398389816
-0.256842821836471558 0.0655139163136482239 -0.953427553176879883
-0.362599581480026245 0.777715504169464111 -0.172355994582176208
-0.904561996459960938 0.191812440752983093 0.108539298176765442
0.320429086685180664 0.530487239360809326 -0.687075257301330566
-0.824989080429077148 -0.29035833477973938 -0.204294517636299133
-0.660556137561798096 0.362277477979660034 -0.478368639945983887
0.548282146453857422 -0.629534244537353516 -0.0589972957968711853
-0.604663670063018799 0.0552777275443077087 -0.77512282133102417
-0.456212043762207031 0.319297462701797485 -0.748258650302886963
0.545942842960357666 -0.401845842599868774 0.590117335319519043
0.658314108848571777 -0.520450472831726074 -0.0217380225658416748
-0.596212685108184814 0.524360537528991699 -0.314410984516143799
0.845176458358764648 -0.261265814304351807 0.189154133200645447
-0.428856879472732544 0.192214086651802063 -0.841698944568634033
0.121064089238643646 0.923239648342132568 -0.228068485856056213
0.00673428783193230629 -0.0788320302963256836 -0.992207527160644531
-0.671553492546081543 0.486638069152832031 -0.197490453720092773
0.122166387736797333 0.917946815490722656 0.240628764033317566
0.409454435110092163 0.752857983112335205 0.0250970311462879181
-0.320110470056533813 0.580073714256286621 0.636678099632263184
0.709608256816864014 -0.343508899211883545 -0.417355597019195557
0.534902036190032959 -0.0804176107048988342 -0.822864770889282227
0.0133811542764306068 0.987392306327819824 -0.0704070255160331726
-0.00264370464719831944 -0.595553398132324219 -0.796012818813323975
0.348135411739349365 -0.265073299407958984 0.850063204765319824
-0.472154438495635986 -0.672266185283660889 -0.229718953371047974
-0.0657575428485870361 0.833740711212158203 -0.505378365516662598
-0.435331404209136963 0.535039544105529785 0.565140128135681152
-0.342925280332565308 0.364027917385101318 0.799321174621582031
0.367925941944122314 0.584327876567840576 -0.581375718116760254
-0.885590612888336182 0.0606836453080177307 -0.416162073612213135
-0.64778512716293335 -0.508224725723266602 -0.204949423670768738
-0.26238587498664856 -0.692219376564025879 -0.552190303802490234
0.621188223361968994 -0.257153123617172241 0.647147774696350098
-0.161147326231002808 0.649198770523071289 -0.682455539703369141
0.384675860404968262 -0.529787719249725342 -0.625042378902435303
-0.368075907230377197 0.108158178627490997 0.902914524078369141
0.469114989042282104 -0.671836435794830322 0.235252067446708679
-0.515783905982971191 0.609883785247802734 0.307682693004608154
-0.506031036376953125 -0.270123898983001709 -0.741197586059570312
-0.371507942676544189 0.548110067844390869 -0.618268728256225586
0.35695350170135498 -0.508673369884490967 -0.674668848514556885
-0.691773593425750732 0.426388353109359741 0.30088081955909729
-0.273968547582626343 -0.854097545146942139 0.0407097302377223969
-0.169731289148330688 0.0657706484198570251 -0.975273191928863525
0.764969408512115479 -0.170323893427848816 -0.529783964157104492
-0.745615482330322266 0.396424174308776855 0.198584586381912231
-0.0397679246962070465 -0.0106825400143861771 0.995379090309143066
0.340858638286590576 0.800223588943481445 0.139422938227653503
0.417125821113586426 0.492179632186889648 -0.633779168128967285
0.772125542163848877 -0.377844035625457764 -0.11973264068365097
-0.0276252739131450653 -0.772524356842041016 -0.619859457015991211
-0.388943254947662354 -0.464535802602767944 -0.692358016967773438
-0.296772599220275879 0.836600720882415771 0.11498289555311203
-0.807875394821166992 -0.255730241537094116 0.340505540370941162
0.441848218441009521 -0.026196308434009552 -0.888900458812713623
0.149708002805709839 -0.856918096542358398 0.37752455472946167
0.923908352851867676 -0.13924737274646759 -0.184213176369667053
0.344885826110839844 -0.348964989185333252 -0.805095553398132324
-0.429914027452468872 0.663290679454803467 -0.366611242294311523
-0.259160786867141724 0.58311837911605835 0.680871129035949707
-0.26608121395111084 -0.858276784420013428 0.0967174693942070007
0.26903805136680603 0.00855038966983556747 -0.95856553316116333
-0.674190998077392578 0.366253495216369629 -0.454656988382339478
0.34034237265586853 -0.8055458664894104 0.114279940724372864
0.562530219554901123 0.152060225605964661 -0.766740679740905762
0.1697501540184021 0.804057955741882324 -0.462033241987228394
0.118258535861968994 0.927915811538696289 -0.218013584613800049
0.973399579524993896 -0.067117840051651001 -0.043573278933763504
-0.0149879474192857742 -0.495004832744598389 -0.864710450172424316
0.0592490807175636292 0.968031823635101318 0.142049446702003479
0.228041559457778931 -0.788527369499206543 -0.431089609861373901
-0.633791565895080566 0.515054881572723389 -0.235100537538528442
0.0398664884269237518 -0.97555232048034668 -0.131348982453346252
0.44883650541305542 -0.621921181678771973 -0.424019843339920044
0.834083795547485352 -0.285962820053100586 -0.15513262152671814
-0.0214574579149484634 0.662660956382751465 -0.737120330333709717
0.43936195969581604 0.664331555366516113 -0.344803661108016968
-0.698120415210723877 -0.180917054414749146 -0.614575207233428955
0.855456292629241943 -0.215978547930717468 0.272828161716461182
-0.918187141418457031 0.0228073615580797195 -0.366679489612579346
0.29508674144744873 0.303712278604507446 -0.857811868190765381
0.406366944313049316 0.340912938117980957 -0.770844459533691406
-0.17844998836517334 0.143034160137176514 0.961300909519195557
0.0890697464346885681 -0.180537298321723938 0.968951523303985596
-0.793933093547821045 -0.313779115676879883 -0.249308407306671143
0.807960331439971924 0.244520977139472961 -0.360172301530838013
0.380211114883422852 0.627526283264160156 -0.504285097122192383
0.561960577964782715 0.577102601528167725 -0.259871304035186768
-0.261120080947875977 0.365207582712173462 -0.844368338584899902
0.232145458459854126 0.0540104806423187256 -0.963472425937652588
-0.761549234390258789 -0.263255715370178223 -0.432944327592849731
0.70028609037399292 -0.178914248943328857 0.61262887716293335
-0.0113088116049766541 -0.815840959548950195 -0.569583535194396973
0.509989440441131592 0.262564420700073242 0.745404481887817383
0.820271730422973633 0.328754782676696777 -0.0303723420947790146
0.514219820499420166 0.606246590614318848 0.327213525772094727
0.397330164909362793 0.73262476921081543 -0.244988322257995605
-0.625691473484039307 -0.434365987777709961 -0.43008345365524292
0.0677964314818382263 0.468612074851989746 -0.862624526023864746
-0.54061436653137207 -0.150053873658180237 -0.783387899398803711
0.582583844661712646 -0.57704240083694458 0.186648368835449219
-0.601926028728485107 -0.472280830144882202 -0.41404271125793457
-0.00394043093547224998 -0.975204229354858398 0.186160102486610413
0.341313213109970093 0.592005729675292969 -0.605730056762695312
-0.302505373954772949 0.816511988639831543 -0.189398512244224548
-0.230018407106399536 -0.629022061824798584 -0.654510676860809326
-0.32789987325668335 -0.173550233244895935 -0.898461401462554932
-0.0934342071413993835 0.916657567024230957 0.303231924772262573
-0.28498154878616333 -0.484711021184921265 -0.752010047435760498
0.670739352703094482 0.361120343208312988 0.462900668382644653
0.0480751320719718933 -0.746318578720092773 0.646115541458129883
-0.655137360095977783 0.239667296409606934 0.619196474552154541
-0.314672887325286865 -0.107506848871707916 -0.925763607025146484
0.836733341217041016 0.284666299819946289 0.170528441667556763
-0.41602209210395813 0.509408950805664062 0.620926976203918457
0.380330532789230347 -0.740074038505554199 -0.263938993215560913
-0.393020361661911011 -0.686263978481292725 0.37682226300239563
0.557033836841583252 -0.589676797389984131 -0.256864339113235474
-0.609422564506530762 0.118764109909534454 -0.749060094356536865
-0.576284348964691162 0.036867484450340271 -0.802960515022277832
-0.623509764671325684 0.0749018415808677673 -0.754967153072357178
-0.921845018863677979 0.0865722745656967163 -0.283192813396453857
-0.463938295841217041 -0.267958134412765503 -0.775156080722808838
-0.308042436838150024 0.0752361267805099487 -0.934653639793395996
0.0731886103749275208 -0.142326265573501587 -0.980581820011138916
0.788354575634002686 0.364501804113388062 0.0881471484899520874
-0.57655632495880127 0.317156553268432617 -0.639882326126098633
-0.740255177021026611 -0.401214689016342163 -0.194784730672836304
0.90783238410949707 0.188954174518585205 -0.0709526166319847107
0.684986233711242676 -0.486029326915740967 0.0939282029867172241
0.466005325317382812 0.653583705425262451 0.322243481874465942
-0.343334227800369263 -0.20553116500377655 -0.87966156005859375
0.0151555081829428673 0.943022072315216064 -0.302806377410888672
-0.490151345729827881 -0.665669500827789307 -0.185062140226364136
0.806146502494812012 0.332062005996704102 -0.120997801423072815
0.00572975678369402885 -0.924210965633392334 0.369271516799926758
-0.159113496541976929 -0.547664523124694824 -0.773514807224273682
-0.41829255223274231 -0.750935852527618408 -0.00845981854945421219
-0.321523338556289673 0.635621011257171631 -0.566641390323638916
0.40333259105682373 0.508841753005981445 -0.632557272911071777
-0.324966341257095337 0.671101212501525879 0.510750055313110352
-0.35378873348236084 0.151982784271240234 -0.895698010921478271
-0.122002542018890381 0.939727306365966797 -0.113604225218296051
0.310118675231933594 0.717227458953857422 0.448948711156845093
-0.867181837558746338 0.179010793566703796 -0.310664981603622437
0.914841055870056152 0.00437225960195064545 -0.384238123893737793
0.83405768871307373 0.309378266334533691 -0.0482788011431694031
-0.198877796530723572 -0.818459808826446533 0.396689832210540771
-0.839350044727325439 -0.269197463989257812 -0.1952085942029953
-0.282453805208206177 0.273917973041534424 -0.878037631511688232
-0.3931388258934021 -0.685121595859527588 -0.387480497360229492
-0.420248538255691528 0.229270666837692261 -0.827354013919830322
0.144030392169952393 0.13760685920715332 -0.966734588146209717
-0.416249245405197144 -0.682392537593841553 0.344523519277572632
-0.226333215832710266 -0.242119461297988892 0.914094030857086182
0.635828495025634766 -0.442091226577758789 -0.401185035705566406
0.239511162042617798 0.827590584754943848 -0.310050785541534424
0.148253932595252991 0.573641061782836914 -0.758688151836395264
-0.590404033660888672 -0.537909328937530518 -0.297201305627822876
-0.402668744325637817 0.703503668308258057 -0.322201818227767944
-0.886323511600494385 0.202585309743881226 0.174907907843589783
-0.185936316847801208 -0.900075435638427734 -0.159367218613624573
-0.309927105903625488 -0.805069804191589355 0.214882105588912964
-0.605598211288452148 -0.566525459289550781 -0.114129304885864258
-0.498528420925140381 -0.205355614423751831 -0.785882830619812012
-0.897638022899627686 -0.109941244125366211 -0.326425403356552124
-0.839434027671813965 -0.254330873489379883 0.237948685884475708
0.67899322509765625 -0.493303596973419189 0.0799464210867881775
0.872904777526855469 -0.233337074518203735 -0.150695264339447021
-0.105049319565296173 -0.826321303844451904 0.494686007499694824
0.848309993743896484 -0.255444169044494629 -0.210524186491966248
0.03828473761677742 0.729912698268890381 0.666059434413909912
-0.862883269786834717 -0.0583855025470256805 0.465661495923995972
0.0876407027244567871 0.242907673120498657 0.957029342651367188
-0.425434321165084839 0.739297270774841309 -0.10329890251159668
-0.305773109197616577 -0.82117760181427002 -0.164892852306365967
-0.0740462988615036011 0.515716254711151123 -0.834665358066558838
0.34476122260093689 0.0595884658396244049 -0.926483750343322754
0.221291631460189819 -0.88560563325881958 -0.0871256515383720398
0.89464038610458374 0.00303304404951632023 0.427898406982421875
-0.524683177471160889 -0.616048038005828857 0.264428555965423584
0.0445630438625812531 -0.978064000606536865 0.117260962724685669
-0.284530162811279297 -0.839098691940307617 -0.148950099945068359
0.564328014850616455 0.394667714834213257 -0.577720165252685547
0.492380201816558838 -0.451125949621200562 -0.604305267333984375
0.745130002498626709 0.41354525089263916 -0.116206556558609009
-0.376559436321258545 -0.754548370838165283 -0.230000093579292297
-0.623627662658691406 0.157822981476783752 -0.710729360580444336
0.326925992965698242 -0.0668900609016418457 0.929314374923706055
0.369370371103286743 -0.634724974632263184 -0.50663989782333374
0.471439987421035767 -0.702066242694854736 0.0464050248265266418
-0.0879384651780128479 -0.947929680347442627 -0.169321879744529724
-0.0470838509500026703 -0.863813042640686035 -0.469738692045211792
-0.681105256080627441 0.340997815132141113 -0.468258589506149292
0.908538460731506348 -0.189074382185935974 -0.084418855607509613
0.333269000053405762 -0.778515517711639404 -0.256537526845932007
0.515330731868743896 0.297854870557785034 -0.717227280139923096
-0.237357467412948608 0.863674163818359375 -0.186750620603561401
0.587282657623291016 -0.188433215022087097 -0.7253761887550354
0.173817694187164307 0.534647107124328613 0.781884670257568359
0.0943313911557197571 0.931222498416900635 -0.260656386613845825
0.694301009178161621 -0.240637674927711487 -0.567938566207885742
-0.227515444159507751 0.849908888339996338 -0.260585367679595947
0.717965126037597656 -0.27693784236907959 -0.491487085819244385
0.278058558702468872 -0.649697661399841309 0.587200164794921875
0.220756560564041138 -0.85549086332321167 -0.261326044797897339
-0.607428669929504395 -0.427330970764160156 -0.475016266107559204
-0.0288563873618841171 0.616198956966400146 -0.775065183639526367
0.563713371753692627 0.306068092584609985 -0.662797152996063232
0.297433316707611084 -0.793205440044403076 0.302069008350372314
0.872781932353973389 0.192944914102554321 -0.271096020936965942
-0.599708497524261475 0.566407978534698486 -0.169332653284072876
0.649311423301696777 0.515339076519012451 -0.189189910888671875
0.918905794620513916 0.158463239669799805 -0.138561427593231201
-0.609136581420898438 0.423914134502410889 -0.477221965789794922
-0.365203231573104858 -0.692645788192749023 0.413237839937210083
-0.840133428573608398 -0.255236685276031494 -0.237024694681167603
0.182390138506889343 -0.609750330448150635 0.706466376781463623
-0.0529233366250991821 0.978870987892150879 0.0228766892105340958
0.263085931539535522 -0.367744266986846924 -0.844273090362548828
0.15340016782283783 -0.203603670001029968 0.951612710952758789
-0.00644511915743350983 0.753727257251739502 0.654385507106781006
-0.0156266465783119202 -0.313060462474822998 -0.94566422700881958
-0.596149682998657227 0.494982451200485229 0.376309454441070557
0.0587839856743812561 -0.75110018253326416 -0.628727912902832031
0.209535852074623108 0.761756360530853271 -0.494440406560897827
0.743946433067321777 -0.373845100402832031 -0.264439493417739868
-0.00293320347554981709 -0.968214094638824463 -0.239039838314056396
0.53134453296661377 -0.380537867546081543 0.631707489490509033
-0.598470747470855713 0.568031370639801025 0.161966383457183838
0.527915775775909424 -0.519209921360015869 -0.458614885807037354
0.869626820087432861 -0.2456522136926651 -0.111356891691684723
-0.134763762354850769 0.931722760200500488 -0.134025156497955322
-0.567381918430328369 -0.504276931285858154 -0.423538446426391602
0.606023669242858887 -0.231969907879829407 -0.679925918579101562
0.592878162860870361 -0.308576524257659912 -0.629406988620758057
-0.781063318252563477 -0.168998017907142639 -0.507507085800170898
0.42493826150894165 0.597755014896392822 -0.494676768779754639
-0.756365597248077393 0.339785158634185791 -0.313558846712112427
0.0600654333829879761 -0.534857809543609619 0.824390113353729248
0.821709334850311279 0.243795499205589294 -0.320678830146789551
0.439663171768188477 -0.140977784991264343 -0.854248762130737305
0.728909194469451904 -0.366492956876754761 -0.326289623975753784
-0.362895727157592773 0.771758198738098145 0.188651144504547119
0.0325079113245010376 -0.755636930465698242 -0.636448979377746582
-0.0768204629421234131 -0.952933132648468018 -0.199406728148460388
0.310212969779968262 0.823631167411804199 -0.139818668365478516
0.751706600189208984 0.339878886938095093 0.333149433135986328
-0.922032356262207031 -0.0656096562743186951 -0.318899363279342651
0.670266091823577881 -0.347121924161911011 -0.479046612977981567
-0.558394670486450195 -0.333767026662826538 0.649724960327148438
0.23796592652797699 0.882325232028961182 -0.0544114150106906891
0.222465083003044128 -0.426337838172912598 -0.827358543872833252
-0.058371271938085556 -0.0664290338754653931 -0.99066460132598877
0.55441969633102417 0.536840200424194336 -0.380507439374923706
-0.229322806000709534 -0.182131022214889526 -0.937301516532897949
0.668204545974731445 0.426357746124267578 0.356575548648834229
0.369402110576629639 0.424420028924942017 0.736704051494598389
0.20831143856048584 0.314843654632568359 -0.890977084636688232
-0.894816160202026367 0.173540875315666199 -0.223700463771820068
0.259286761283874512 -0.560587704181671143 0.700820684432983398
-0.930263280868530273 -0.0332219600677490234 -0.326457113027572632
0.446797221899032593 0.688524961471557617 -0.246087148785591125
-0.314411580562591553 -0.629688858985900879 -0.584537744522094727
0.672509729862213135 -0.203690320253372192 -0.627859055995941162
0.289610177278518677 -0.462529122829437256 0.76683121919631958
0.76087188720703125 0.401072859764099121 0.0941857695579528809
-0.134119704365730286 0.322228014469146729 -0.914282619953155518
0.915195763111114502 0.12939336895942688 -0.246965005993843079
0.0331248603761196136 -0.988733172416687012 -0.0401270687580108643
-0.147518977522850037 0.398837894201278687 -0.874276518821716309
-0.222197428345680237 -0.0369440987706184387 0.967792868614196777
0.976615965366363525 -0.0385914817452430725 -0.126699730753898621
-0.0518812276422977448 0.00752558140084147453 0.995379090309143066
0.578657686710357666 -0.569407761096954346 -0.256856381893157959
-0.272961139678955078 -0.372867792844772339 0.832545280456542969
0.12446168065071106 0.344703435897827148 -0.907551050186157227
0.624024629592895508 -0.551096916198730469 0.115012876689434052
0.151633948087692261 0.287594139575958252 -0.923435091972351074
0.188797950744628906 -0.211521059274673462 -0.940650701522827148
0.919544637203216553 0.0851009339094161987 -0.30139121413230896
0.576554656028747559 0.561796426773071289 -0.271368801593780518
-0.311085522174835205 0.540370762348175049 -0.687499165534973145
0.869340240955352783 0.235688939690589905 -0.164587467908859253
0.52615809440612793 0.65341418981552124 -0.00653223646804690361
-0.216525360941886902 -0.26400265097618103 0.909810543060302734
0.54173743724822998 0.0252741500735282898 0.829593896865844727
0.620588541030883789 0.512775003910064697 -0.271538108587265015
0.446646124124526978 0.649659395217895508 -0.372007131576538086
-0.884559690952301025 0.0821602195501327515 -0.401455700397491455
-0.0392703153192996979 0.929288506507873535 -0.325562328100204468
-0.113090008497238159 0.915752530097961426 -0.276786476373672485
0.545896649360656738 0.614190936088562012 -0.195665106177330017
-0.853546679019927979 0.124085947871208191 -0.422992467880249023
-0.669309675693511963 0.31471213698387146 0.525263726711273193
-0.0308298561722040176 -0.222492337226867676 -0.967368721961975098
0.423744529485702515 -0.66786426305770874 -0.361459940671920776
-0.491965442895889282 0.596971333026885986 0.38192439079284668
-0.255167633295059204 0.871650516986846924 -0.0118593135848641396
0.566561877727508545 0.523369669914245605 -0.382771790027618408
0.244649067521095276 -0.861507833003997803 -0.184135660529136658
-0.718718945980072021 0.382889270782470703 -0.324934065341949463
-0.750208854675292969 0.400939673185348511 -0.154625073075294495
0.798162996768951416 -0.203577205538749695 -0.434583216905593872
0.17807576060295105 -0.915388822555541992 -0.0671548172831535339
0.808339416980743408 0.116753354668617249 0.512359201908111572
0.402127772569656372 0.135023310780525208 0.880386590957641602
-0.603684782981872559 -0.511006593704223633 0.331827878952026367
-0.46115034818649292 -0.556250452995300293 0.507450580596923828
-0.503304541110992432 -0.0366988293826580048 -0.852117657661437988
-0.440766841173171997 -0.588980913162231445 -0.484691917896270752
0.794410943984985352 -0.314140558242797852 0.245256543159484863
