ply
format ascii 1.0
element vertex 739
property float x
property float y
property float z
end_header
-0.588422417640686035 0.424673229455947876 0.444732576608657837
-0.853354096412658691 -0.503880083560943604 -0.0263901874423027039
0.592005014419555664 -0.0830290615558624268 0.585313916206359863
-0.377557277679443359 0.42266884446144104 -0.616824209690093994
-0.572681128978729248 -0.238669231534004211 -0.56374436616897583
0.268260657787322998 0.931135237216949463 -0.0742053613066673279
0.372090995311737061 0.174688398838043213 -0.756762683391571045
-0.0552164502441883087 -0.16829603910446167 -0.922191262245178223
-0.9662972092628479 0.0727930143475532532 -0.0820709541440010071
-0.917198121547698975 0.143904358148574829 0.159950017929077148
-0.45894622802734375 -0.450924187898635864 -0.541083335876464844
-0.391096174716949463 0.151312157511711121 0.749754965305328369
-0.451924949884414673 -0.300433576107025146 0.639399290084838867
0.598014354705810547 0.374900698661804199 -0.472221851348876953
0.201168537139892578 -0.784366905689239502 -0.340901970863342285
-0.564531981945037842 -0.0247742682695388794 -0.621384561061859131
0.467482596635818481 -0.405960112810134888 -0.568091213703155518
-0.986713409423828125 0.0329914353787899017 -0.0247482992708683014
0.580668985843658447 -0.10494714230298996 0.592498600482940674
0.359765768051147461 0.536329448223114014 -0.535422980785369873
-0.289298832416534424 0.902991712093353271 0.11875549703836441
0.7147330641746521 0.675570309162139893 -0.0468636304140090942
-0.237807229161262512 -0.276902645826339722 -0.793037533760070801
0.0108121102675795555 0.611331045627593994 0.573310792446136475
-0.248160049319267273 0.931456685066223145 0.0904435142874717712
0.517160654067993164 0.62649768590927124 -0.339193075895309448
0.385891884565353394 -0.345115900039672852 -0.662157893180847168
0.307721912860870361 0.183560624718666077 -0.800638556480407715
0.708712160587310791 -0.121788084506988525 -0.458686918020248413
-0.21268799901008606 0.8216591477394104 -0.284813672304153442
-0.0531352050602436066 0.758302748203277588 -0.405611366033554077
-0.465671628713607788 -0.0342349112033843994 -0.708280563354492188
0.0921423658728599548 -0.9110298752784729 0.189618378877639771
0.171758368611335754 0.632866561412811279 0.52845686674118042
0.557099401950836182 -0.302759677171707153 -0.549527347087860107
0.355764776468276978 -0.916183531284332275 -0.0397724173963069916
0.746954381465911865 -0.0794302299618721008 0.414006292819976807
-0.109905369579792023 0.765331089496612549 -0.387660831212997437
0.22082887589931488 -0.588657855987548828 -0.557592272758483887
-0.701140701770782471 0.630105435848236084 0.1335955411195755
-0.0386055856943130493 -0.854937314987182617 0.275380581617355347
-0.788778841495513916 0.257809817790985107 -0.315880686044692993
-0.487230896949768066 0.381541669368743896 0.563979744911193848
0.65257340669631958 0.473765969276428223 -0.344745427370071411
0.514494419097900391 0.232141926884651184 0.618650615215301514
0.421616941690444946 -0.184586420655250549 0.716335415840148926
0.641598224639892578 0.350164830684661865 -0.441864609718322754
0.23167736828327179 0.694608628749847412 -0.439950048923492432
0.59975278377532959 -0.49708932638168335 -0.379141330718994141
-0.0178858861327171326 0.610289037227630615 -0.572125434875488281
-0.966176271438598633 0.0752034410834312439 -0.081418648362159729
0.883820891380310059 -0.28008580207824707 -0.160723313689231873
0.85628056526184082 -0.291696310043334961 -0.206407696008682251
0.0277349837124347687 -0.268408864736557007 0.863238334655761719
0.4178333580493927 0.387095719575881958 -0.615796566009521484
0.433866173028945923 -0.46230587363243103 -0.549620211124420166
-0.370081245899200439 -0.134490653872489929 -0.771222352981567383
0.298159927129745483 0.463181883096694946 -0.636051714420318604
-0.130603745579719543 -0.0992189720273017883 -0.928827822208404541
-0.130977153778076172 0.465780973434448242 -0.694020569324493408
-0.895883738994598389 -0.112771309912204742 -0.210133716464042664
-0.300261706113815308 -0.758673489093780518 -0.333314567804336548
-0.770261406898498535 0.568363606929779053 -0.112090766429901123
0.265394508838653564 -0.793100714683532715 -0.307406634092330933
-0.452511072158813477 0.292901903390884399 -0.642584323883056641
0.431390702724456787 0.121651776134967804 -0.726611495018005371
-0.642405331134796143 -0.00631511351093649864 -0.540649175643920898
-0.0623521432280540466 0.967290282249450684 -0.0847724452614784241
-0.563526451587677002 0.251431167125701904 -0.569128036499023438
-0.664543449878692627 -0.613619744777679443 -0.202667862176895142
0.657501876354217529 0.341833442449569702 -0.430192351341247559
0.95090174674987793 0.258152693510055542 -0.033161703497171402
0.247376129031181335 0.505807876586914062 -0.621375739574432373
-0.0183611344546079636 0.869238615036010742 -0.260448962450027466
-0.526838302612304688 0.000399527314584702253 -0.653913915157318115
-0.273841530084609985 0.00374150299467146397 0.860150039196014404
-0.810799658298492432 -0.0860807374119758606 0.335088938474655151
0.544091463088989258 0.799119770526885986 0.0818159803748130798
-0.665915369987487793 -0.670515596866607666 0.125474169850349426
0.1795797199010849 -0.616155266761779785 -0.539055705070495605
-0.86874091625213623 0.302990376949310303 0.178768083453178406
0.461210548877716064 0.841663718223571777 -0.0964474603533744812
0.66847681999206543 -0.216601565480232239 -0.477541208267211914
-0.847216606140136719 -0.452604830265045166 0.0958681628108024597
-0.874264299869537354 0.440726995468139648 0.0604521706700325012
-0.693288981914520264 0.529395878314971924 -0.252357989549636841
-0.447215825319290161 -0.235353261232376099 -0.674658358097076416
-0.363052040338516235 -0.156482085585594177 -0.770113229751586914
-0.364439606666564941 0.0706093758344650269 -0.791133880615234375
0.938940644264221191 -0.308047324419021606 -0.023173794150352478
-0.318448036909103394 -0.150930970907211304 0.803158938884735107
0.649056851863861084 0.346434801816940308 0.434915304183959961
-0.41472858190536499 0.470977514982223511 -0.556145727634429932
-0.176565557718276978 0.301122486591339111 -0.807266831398010254
0.357374280691146851 0.304369717836380005 -0.705981016159057617
0.245614111423492432 -0.673868238925933838 -0.455527573823928833
-0.669963598251342773 -0.60233771800994873 -0.206694155931472778
-0.587064504623413086 0.604376494884490967 0.296759098768234253
0.860484898090362549 -0.245833247900009155 0.218860939145088196
0.231128960847854614 -0.342809230089187622 -0.754420340061187744
-0.760201334953308105 -0.451909631490707397 0.234533116221427917
0.385913342237472534 0.436537712812423706 0.601702868938446045
0.43641933798789978 -0.48437654972076416 -0.528334975242614746
0.22891610860824585 -0.531596481800079346 0.605675578117370605
0.173309564590454102 -0.710307717323303223 -0.440452307462692261
-0.934772253036499023 0.25251886248588562 -0.0760325789451599121
-0.639752507209777832 -0.215716093778610229 0.505659639835357666
-0.116926521062850952 0.700927376747131348 0.466260522603988647
-0.117838352918624878 -0.504644215106964111 0.663632035255432129
0.178025275468826294 -0.750985383987426758 0.389420926570892334
-0.1624126136302948 0.870127260684967041 0.229880958795547485
0.365602552890777588 0.511172592639923096 -0.553494513034820557
-0.63790518045425415 -0.726962685585021973 -0.0872134193778038025
-0.232633069157600403 0.897103548049926758 -0.163010731339454651
-0.48991277813911438 0.862872838973999023 -0.000497396627906709909
0.923418700695037842 0.267591923475265503 -0.0956649556756019592
-0.708398878574371338 0.683720529079437256 0.0401556827127933502
-0.550071477890014648 0.70082622766494751 0.221550896763801575
-0.66929018497467041 0.511980414390563965 -0.30072253942489624
-0.744406759738922119 0.380737751722335815 0.307016700506210327
0.631430506706237793 -0.0251635238528251648 0.551034688949584961
0.0613656342029571533 -0.0330617800354957581 0.975204586982727051
-0.426445364952087402 0.528098642826080322 -0.498690485954284668
-0.664084911346435547 0.66834259033203125 -0.140241995453834534
0.742128193378448486 0.0329844839870929718 0.42514270544052124
-0.246871918439865112 -0.0204405747354030609 -0.879851996898651123
-0.60106956958770752 -0.721723973751068115 -0.141168117523193359
-0.558121383190155029 -0.153609409928321838 -0.60571974515914917
0.503675937652587891 -0.472240418195724487 -0.48781093955039978
-0.581900656223297119 -0.271640866994857788 -0.53973764181137085
0.664230048656463623 0.344636112451553345 -0.421846330165863037
0.0225805621594190598 -0.945816457271575928 0.123624689877033234
0.515871942043304443 0.0724498853087425232 0.662614107131958008
0.142087534070014954 -0.254873424768447876 -0.846809983253479004
-0.2708626389503479 0.239794701337814331 -0.795647382736206055
0.536621928215026855 -0.839192688465118408 -0.00257708458229899406
0.768466174602508545 -0.413214385509490967 0.248988986015319824
-0.506610751152038574 -0.796086609363555908 0.128323748707771301
-0.705606639385223389 0.676623344421386719 -0.0532780662178993225
0.565959692001342773 -0.808805167675018311 -0.0264863818883895874
-0.622453927993774414 -0.476473867893218994 -0.372831016778945923
0.89325326681137085 -0.0844722017645835876 -0.216625645756721497
-0.0629794597625732422 0.988888680934906006 -0.0247969795018434525
-0.356263101100921631 -0.228147700428962708 0.746992290019989014
0.466019958257675171 0.587057709693908691 -0.419232547283172607
0.271998584270477295 0.179537147283554077 0.824529170989990234
0.0236723069101572037 -0.664500176906585693 0.518147647380828857
-0.743427932262420654 -0.224465146660804749 -0.384425431489944458
-0.310645490884780884 0.692906975746154785 0.404459238052368164
-0.865677714347839355 -0.130302101373672485 -0.245942592620849609
0.348298788070678711 0.262383043766021729 0.736570060253143311
-0.633704483509063721 0.621932387351989746 0.226122334599494934
0.681891262531280518 -0.105348587036132812 -0.488029897212982178
-0.577592730522155762 0.043780449777841568 0.605153203010559082
0.393791049718856812 -0.520100176334381104 0.532442986965179443
-0.224358201026916504 -0.337858676910400391 0.759840309619903564
0.80342400074005127 -0.400239169597625732 -0.214325949549674988
0.529101431369781494 -0.643347859382629395 -0.310541778802871704
0.223676353693008423 0.577571988105773926 -0.567435324192047119
0.758565843105316162 -0.447273612022399902 0.238475516438484192
0.115780897438526154 0.624636530876159668 0.548660397529602051
-0.616240084171295166 0.581870198249816895 -0.290578126907348633
-0.631140649318695068 -0.31211814284324646 -0.473801374435424805
-0.478637427091598511 0.475612491369247437 -0.503720939159393311
-0.166833013296127319 0.167167380452156067 -0.885490357875823975
0.0771652534604072571 -0.899581730365753174 0.203432425856590271
-0.65909653902053833 0.660797774791717529 0.155779793858528137
-0.787986576557159424 -0.584476470947265625 0.0512759871780872345
-0.453660577535629272 0.325801730155944824 0.623642086982727051
-0.457143932580947876 -0.187111392617225647 -0.686115741729736328
0.425907015800476074 -0.217328131198883057 0.700965702533721924
-0.299212545156478882 0.527652204036712646 -0.577112317085266113
0.000696773757226765156 0.0302833877503871918 -0.989662587642669678
-0.653038084506988525 0.254510372877120972 -0.473722308874130249
-0.6009865403175354 -0.742480754852294922 -0.108116157352924347
-0.13178214430809021 -0.299302548170089722 0.823652982711791992
0.0957228466868400574 -0.78148651123046875 -0.36821514368057251
0.977775871753692627 0.1728028804063797 -0.0121643422171473503
0.334546178579330444 0.501455485820770264 -0.579936563968658447
-0.663852334022521973 -0.627641677856445312 -0.185058459639549255
-0.0230473335832357407 -0.883703112602233887 -0.237630710005760193
0.68769371509552002 -0.647532224655151367 -0.126816213130950928
-0.464378386735916138 0.74690556526184082 -0.242347940802574158
-0.462903797626495361 -0.835296869277954102 -0.107459224760532379
0.419194579124450684 0.376188218593597412 0.620295822620391846
0.602166295051574707 0.764562070369720459 -0.0685753300786018372
0.356320470571517944 -0.911948621273040771 -0.0499017275869846344
-0.324680119752883911 -0.795640349388122559 0.268754303455352783
0.383511662483215332 -0.208012327551841736 -0.737681031227111816
-0.139735132455825806 0.450187653303146362 0.707785129547119141
0.640144228935241699 0.421839594841003418 -0.398914456367492676
0.586864829063415527 -0.458991050720214844 -0.423957914113998413
0.522916972637176514 -0.738990962505340576 -0.199906095862388611
0.546767294406890869 0.544998228549957275 0.389924198389053345
-0.255948245525360107 0.616682291030883789 0.514346659183502197
-0.637107133865356445 -0.649009048938751221 0.193241417407989502
0.636647999286651611 -0.365487754344940186 -0.437081664800643921
0.594526469707489014 0.769355177879333496 0.0749923288822174072
0.0340659916400909424 0.965372383594512939 -0.0912314653396606445
-0.0753782987594604492 -0.129887774586677551 -0.936342477798461914
0.565474450588226318 0.627127528190612793 -0.291548669338226318
-0.431208431720733643 0.0214952677488327026 0.738648593425750732
0.0217651911079883575 0.978009819984436035 0.0635498985648155212
-0.637711405754089355 0.140328720211982727 0.531239688396453857
0.794879734516143799 -0.403664201498031616 0.220353171229362488
-0.388712108135223389 0.68534928560256958 -0.369311362504959106
0.93290412425994873 0.192910477519035339 -0.114249639213085175
0.593159854412078857 -0.168149381875991821 -0.570459544658660889
-0.795860469341278076 0.374220013618469238 -0.246758028864860535
0.643612325191497803 -0.735951840877532959 -0.0552920661866664886
0.706531286239624023 0.512142598628997803 0.253168165683746338
0.274215400218963623 -0.298722118139266968 -0.761521756649017334
0.330157011747360229 -0.581719100475311279 0.514709115028381348
0.745312809944152832 -0.13011874258518219 -0.409120887517929077
0.178433403372764587 0.0953387096524238586 -0.906120181083679199
0.234231054782867432 -0.251636147499084473 0.810219764709472656
-0.139147058129310608 -0.0692345276474952698 -0.933350026607513428
0.382788777351379395 0.155790984630584717 0.755063414573669434
0.994322478771209717 -0.069002881646156311 -0.008505980484187603
0.453366696834564209 0.682945013046264648 -0.326467126607894897
0.353285163640975952 -0.590889036655426025 -0.490700572729110718
0.690345406532287598 -0.508192658424377441 0.272894859313964844
-0.45441126823425293 -0.600645482540130615 -0.413837909698486328
-0.063552267849445343 0.514836668968200684 -0.663717150688171387
-0.604674994945526123 0.15015159547328949 -0.559241056442260742
0.470556676387786865 -0.499869853258132935 -0.492108136415481567
0.44956013560295105 -0.0760584399104118347 -0.719413936138153076
0.186518430709838867 0.663982868194580078 -0.490740060806274414
0.744073867797851562 0.508914053440093994 0.207306861877441406
0.703900396823883057 -0.0284487958997488022 -0.470770388841629028
-0.798931419849395752 -0.096262224018573761 0.350383996963500977
0.527758777141571045 0.817006170749664307 -0.0646015703678131104
-0.398991495370864868 0.054422374814748764 -0.763988971710205078
0.222816482186317444 -0.943642497062683105 -0.0876027196645736694
-0.0447450689971446991 -0.538637876510620117 0.643256783485412598
0.384124398231506348 -0.33494335412979126 -0.672414064407348633
0.0492757856845855713 -0.886720120906829834 0.228956401348114014
-0.66885066032409668 -0.514956653118133545 -0.292520105838775635
-0.633051693439483643 0.321197390556335449 0.463655591011047363
0.374896526336669922 0.508010208606719971 -0.551767528057098389
0.435239583253860474 0.728624582290649414 -0.293444365262985229
-0.983208060264587402 0.0593671984970569611 0.0358659587800502777
0.318591684103012085 -0.0766808316111564636 0.823016226291656494
-0.960204184055328369 0.137411653995513916 0.0753272250294685364
0.125851139426231384 -0.551311790943145752 0.616991758346557617
-0.736590325832366943 0.0274608228355646133 0.432998031377792358
-0.11025141179561615 0.946479499340057373 0.109036393463611603
0.968047678470611572 -0.10879652202129364 0.0668947771191596985
0.707309424877166748 0.529487013816833496 -0.233282521367073059
-0.767825305461883545 -0.166796416044235229 -0.371705383062362671
0.748375654220581055 0.533916354179382324 0.180347606539726257
-0.950776517391204834 0.0366382449865341187 -0.113889217376708984
-0.872041583061218262 -0.291247129440307617 -0.17395530641078949
-0.230188429355621338 -0.890393674373626709 -0.172813385725021362
0.544041574001312256 -0.733236610889434814 -0.184459343552589417
0.381787121295928955 0.0382334329187870026 -0.77881234884262085
-0.0961552262306213379 -0.988663077354431152 0.00743997236713767052
0.770941078662872314 -0.100753121078014374 -0.385334521532058716
0.395816951990127563 0.348310589790344238 0.654581308364868164
-0.834096550941467285 -0.104081146419048309 -0.301110208034515381
-0.00805116817355155945 0.592130005359649658 -0.5911521315574646
0.902429580688476562 0.085476316511631012 -0.194602027535438538
-0.127603232860565186 -0.767934620380401611 -0.382840603590011597
-0.293987780809402466 0.77305293083190918 -0.317942231893539429
-0.753960013389587402 0.641167700290679932 -0.0237946677953004837
0.39684760570526123 0.223279103636741638 -0.718198657035827637
0.365653574466705322 0.265255570411682129 0.722441494464874268
-0.143749669194221497 0.93826669454574585 -0.119431927800178528
0.0811249688267707825 0.172166630625724792 -0.913051843643188477
0.752776265144348145 0.65169978141784668 -0.0130306174978613853
-0.348143190145492554 0.790136873722076416 -0.264947444200515747
-0.561088681221008301 -0.741604447364807129 0.161588162183761597
-0.623471915721893311 0.28721204400062561 0.494343429803848267
0.284469455480575562 -0.681751668453216553 -0.43221813440322876
0.606533944606781006 -0.482617199420928955 -0.38921654224395752
0.0116748251020908356 -0.308237999677658081 0.838609158992767334
0.784125864505767822 0.384757876396179199 0.252687215805053711
-0.395437330007553101 -0.386751741170883179 -0.634690523147583008
-0.896973073482513428 -0.0205086134374141693 0.215308099985122681
-0.840986013412475586 -0.367316186428070068 0.18320813775062561
-0.34933239221572876 0.79461359977722168 -0.258760571479797363
-0.0282927509397268295 0.749443471431732178 -0.420300185680389404
-0.489419996738433838 0.611365795135498047 -0.374180197715759277
-0.0422964580357074738 -0.868346869945526123 -0.25996243953704834
-0.215702176094055176 0.6692047119140625 -0.472285568714141846
-0.931321382522583008 0.108831882476806641 -0.144589126110076904
-0.684759855270385742 -0.0610071159899234772 -0.492504417896270752
-0.581359386444091797 -0.751970767974853516 -0.117604315280914307
-0.893069624900817871 -0.0722612291574478149 -0.213659435510635376
0.561339497566223145 -0.4434528648853302 0.45851936936378479
0.488732457160949707 0.588587164878845215 -0.403930962085723877
-0.218178018927574158 0.478930443525314331 -0.656811356544494629
0.855611324310302734 0.290418505668640137 -0.202374175190925598
-0.496665656566619873 0.155339926481246948 0.661927521228790283
0.416303634643554688 -0.705655455589294434 -0.329729199409484863
0.528104245662689209 -0.214427337050437927 0.614821493625640869
0.445496082305908203 -0.184640020132064819 0.699142098426818848
-0.433452904224395752 0.735151410102844238 0.278925299644470215
0.287187010049819946 0.868686199188232422 -0.180964142084121704
-0.0510633178055286407 -0.173325568437576294 -0.920219004154205322
0.366331309080123901 0.672537803649902344 -0.398921102285385132
-0.0678171813488006592 0.298313021659851074 -0.837555050849914551
0.0662456974387168884 -0.384762823581695557 -0.774446010589599609
-0.746793091297149658 0.252782344818115234 -0.368980199098587036
-0.159000694751739502 -0.42103046178817749 0.72514498233795166
0.0764641165733337402 -0.0196114778518676758 -0.972114622592926025
-0.0821187570691108704 0.89082491397857666 -0.219360128045082092
-0.727784454822540283 -0.428338110446929932 0.292804449796676636
0.0323043614625930786 -0.59333270788192749 -0.588987767696380615
-0.503434479236602783 -0.614867150783538818 -0.363734960556030273
0.619658887386322021 0.327638119459152222 -0.475418418645858765
0.770508110523223877 0.446353822946548462 -0.227483212947845459
-0.559641182422637939 -0.498933166265487671 -0.416671603918075562
0.131638064980506897 -0.23433491587638855 -0.86545252799987793
0.405433833599090576 0.664113640785217285 -0.38052290678024292
-0.532931387424468994 0.527042865753173828 0.419240444898605347
-0.533978044986724854 0.731493592262268066 -0.198074191808700562
-0.0150757851079106331 0.889439105987548828 -0.227756068110466003
0.249005258083343506 -0.647907793521881104 0.482684582471847534
0.397721827030181885 -0.227652087807655334 -0.717038273811340332
0.329288870096206665 0.936750054359436035 -0.0107300765812397003
0.0540304556488990784 0.0914887934923171997 0.958777308464050293
-0.167856514453887939 0.866265237331390381 0.236838266253471375
-0.904035985469818115 -0.295533686876296997 -0.118387877941131592
0.228510379791259766 0.754385530948638916 -0.369236469268798828
0.836038410663604736 -0.180824235081672668 -0.280945003032684326
-0.41061103343963623 -0.677727639675140381 -0.36215674877166748
-0.418743103742599487 -0.789157450199127197 0.218481138348579407
0.11019425094127655 0.449653059244155884 0.713322162628173828
0.156214237213134766 0.302825778722763062 0.812513053417205811
0.135113805532455444 -0.376128822565078735 -0.767700135707855225
-0.392708688974380493 0.111714445054531097 -0.760598301887512207
0.13084682822227478 -0.939122438430786133 -0.127970263361930847
-0.223321482539176941 -0.762995123863220215 -0.358953773975372314
0.817545711994171143 0.308346718549728394 0.247053965926170349
-0.382534563541412354 -0.91001594066619873 0.0386372730135917664
0.133423641324043274 -0.0767638012766838074 0.936839282512664795
-0.194392397999763489 0.615048408508300781 -0.537482321262359619
0.419969439506530762 0.651813685894012451 0.387041538953781128
-0.475713163614273071 -0.0322104133665561676 -0.701964616775512695
-0.77475285530090332 0.131047800183296204 -0.37185332179069519
-0.698927164077758789 0.633059203624725342 -0.137593820691108704
0.380859613418579102 -0.491783589124679565 -0.563019335269927979
0.0396953299641609192 -0.91374361515045166 -0.187589317560195923
-0.448149770498275757 -0.847129642963409424 -0.108403116464614868
-0.387315571308135986 -0.818255722522735596 -0.202815741300582886
-0.209877759218215942 0.922715246677398682 -0.13130071759223938
-0.649749040603637695 -0.47908395528793335 -0.346724390983581543
0.665418565273284912 0.690022885799407959 0.100792273879051208
-0.949202775955200195 0.135868191719055176 0.0966984257102012634
-0.0232006218284368515 -0.587395310401916504 -0.599247753620147705
0.93255847692489624 -0.303722381591796875 -0.0454308874905109406
-0.774648427963256836 -0.598705887794494629 -0.0592032149434089661
0.519182205200195312 0.731205523014068604 0.217531591653823853
-0.873769044876098633 -0.379460781812667847 -0.111828476190567017
-0.520310461521148682 -0.00222893571481108665 -0.661875367164611816
0.108660332858562469 -0.829719960689544678 -0.303629130125045776
-0.441232293844223022 -0.516772091388702393 -0.500584065914154053
0.219374567270278931 -0.412110388278961182 -0.708322227001190186
-0.186404317617416382 -0.148887559771537781 0.882906258106231689
-0.675218939781188965 -0.00894412491470575333 0.506023883819580078
-0.780360758304595947 0.538478195667266846 -0.124916002154350281
0.595847845077514648 -0.464407742023468018 -0.413400650024414062
-0.126205757260322571 0.624819815158843994 -0.545091390609741211
0.0309828575700521469 0.250312626361846924 -0.874087214469909668
-0.528481841087341309 0.672762811183929443 -0.280085504055023193
0.947143375873565674 0.164406254887580872 -0.100870728492736816
-0.102916844189167023 -0.811928153038024902 0.333114415407180786
0.73676455020904541 -0.531423628330230713 -0.194850131869316101
0.881114304065704346 0.372765272855758667 -0.109939940273761749
-0.666069447994232178 0.738179385662078857 -0.00529268290847539902
-0.417974144220352173 -0.604908943176269531 -0.435939550399780273
0.321024060249328613 0.0822265595197677612 -0.818787634372711182
-0.254413336515426636 0.814895331859588623 -0.279200106859207153
0.778518319129943848 0.333879381418228149 -0.291221410036087036
-0.200452610850334167 -0.961812853813171387 0.0472974441945552826
0.9377860426902771 -0.0372976884245872498 0.143881693482398987
-0.139835059642791748 -0.235362276434898376 -0.861427485942840576
0.553926229476928711 0.0911280363798141479 -0.622819304466247559
0.919960916042327881 0.121150575578212738 -0.160128355026245117
0.87419581413269043 -0.0476071462035179138 0.249333083629608154
-0.239351525902748108 0.897323548793792725 -0.159661352634429932
-0.0315029732882976532 -0.657520532608032227 0.525055885314941406
0.820007741451263428 -0.141930133104324341 -0.313380122184753418
0.967109858989715576 -0.195850372314453125 -0.0381723158061504364
-0.800820231437683105 -0.192808523774147034 0.324145704507827759
0.245452389121055603 0.394385993480682373 0.712360680103302002
0.528548717498779297 -0.114745102822780609 -0.642073392868041992
0.59238046407699585 -0.480309903621673584 0.401613354682922363
0.0958764180541038513 -0.219893932342529297 0.881847739219665527
-0.768348336219787598 -0.540837347507476807 0.141158983111381531
0.888078510761260986 0.0348579138517379761 -0.223876997828483582
0.254289954900741577 -0.51184999942779541 -0.613777399063110352
0.655707061290740967 0.0759290307760238647 0.523837447166442871
0.205038771033287048 0.190238416194915771 0.856730759143829346
0.467483341693878174 0.675629258155822754 -0.327382087707519531
-0.257928669452667236 -0.616451561450958252 0.513710319995880127
0.220426127314567566 -0.788509964942932129 -0.327788621187210083
-0.37089991569519043 -0.274132579565048218 0.716256678104400635
-0.0877467840909957886 0.882190942764282227 -0.232816606760025024
-0.0132512599229812622 -0.697753608226776123 -0.479664206504821777
-0.787032663822174072 0.419527262449264526 0.22177712619304657
-0.00351213617250323296 0.668086409568786621 0.515757143497467041
0.796553254127502441 0.254003316164016724 -0.305575817823410034
-0.805928826332092285 -0.21708756685256958 -0.309015065431594849
-0.411068171262741089 -0.61926734447479248 -0.425013244152069092
0.717155814170837402 0.6431313157081604 0.0871993899345397949
-0.50182640552520752 0.5089607834815979 0.46003115177154541
-0.746864020824432373 -0.122431747615337372 -0.410659581422805786
-0.464552879333496094 0.192397743463516235 0.678816318511962891
0.00058614509180188179 0.8303031325340271 -0.315039873123168945
-0.707596242427825928 0.33933943510055542 0.374116957187652588
-0.591941595077514648 -0.0939429476857185364 0.584340155124664307
-0.743718206882476807 -0.410366594791412354 -0.284841090440750122
0.797757267951965332 -0.492771953344345093 0.145742624998092651
-0.030605711042881012 0.661467313766479492 0.523313283920288086
-0.731073141098022461 -0.0201840698719024658 -0.442032605409622192
0.377419382333755493 -0.0777235627174377441 0.776521265506744385
-0.0710753127932548523 0.636564254760742188 0.542616426944732666
-0.573427200317382812 0.717558979988098145 -0.17514897882938385
-0.114464163780212402 0.62387460470199585 -0.549480020999908447
-0.35772976279258728 0.429590910673141479 -0.624557793140411377
-0.471084564924240112 0.642149865627288818 0.362070232629776001
-0.0215677376836538315 -0.990019500255584717 0.00368902063928544521
0.301915824413299561 0.175377458333969116 -0.806647956371307373
0.777643978595733643 0.156461656093597412 -0.362724810838699341
0.081577010452747345 -0.594275772571563721 -0.587433695793151855
0.106988497078418732 0.674701035022735596 -0.49401429295539856
-0.809297442436218262 -0.558241546154022217 -0.0373164303600788116
0.13125215470790863 0.338722795248031616 0.795063793659210205
-0.382319450378417969 0.698831737041473389 -0.358751237392425537
0.540595173835754395 0.291016876697540283 -0.571400821208953857
-0.863857269287109375 -0.302408307790756226 0.186073467135429382
0.684755504131317139 -0.597315013408660889 0.19468022882938385
-0.511065363883972168 -0.789082944393157959 0.139819711446762085
0.987882494926452637 -0.0547830983996391296 0.0290181860327720642
-0.970193743705749512 0.0468698181211948395 -0.0755204558372497559
-0.0134404655545949936 -0.287011057138442993 0.851544976234436035
0.34482806921005249 0.311399281024932861 0.712629973888397217
-0.342075109481811523 0.446106284856796265 0.620045244693756104
0.186584249138832092 0.555088937282562256 0.598146915435791016
0.066598258912563324 -0.569940626621246338 -0.610496342182159424
0.249581754207611084 0.89504474401473999 -0.154980868101119995
-0.479735314846038818 0.578690469264984131 -0.41651993989944458
-0.376116484403610229 0.857987463474273682 -0.145127430558204651
-0.406201958656311035 -0.322505563497543335 -0.663014054298400879
0.628916025161743164 -0.409099161624908447 0.415500551462173462
0.823037624359130859 0.250488936901092529 -0.274405688047409058
0.187106460332870483 0.680483400821685791 0.468633413314819336
-0.987042486667633057 -0.000140688076498918235 -0.040356755256652832
0.222336053848266602 -0.755887985229492188 -0.374110966920852661
-0.237956821918487549 0.579848527908325195 -0.556926250457763672
0.399191021919250488 -0.424975812435150146 -0.603249192237854004
-0.132581621408462524 -0.737897813320159912 -0.421271175146102905
0.90962672233581543 -0.112597256898880005 -0.184926629066467285
0.299919575452804565 0.650195658206939697 -0.456649094820022583
-0.65974658727645874 0.678819954395294189 -0.126577258110046387
0.289999097585678101 -0.344629973173141479 -0.722944021224975586
0.099160023033618927 -0.29668724536895752 0.835395574569702148
0.512817323207855225 0.0534495115280151367 -0.666828930377960205
-0.402241408824920654 -0.444837182760238647 -0.583422005176544189
-0.637788951396942139 -0.00687135243788361549 -0.545149147510528564
-0.172576531767845154 -0.667515158653259277 -0.490216970443725586
0.840783298015594482 0.158110737800598145 -0.275778472423553467
0.899312615394592285 0.292006850242614746 -0.136349514126777649
0.872414588928222656 0.0984025895595550537 -0.248163938522338867
0.322339743375778198 -0.881949007511138916 -0.137520015239715576
0.792730808258056641 0.255835950374603271 -0.31113886833190918
-0.653437376022338867 -0.165384426712989807 -0.505398988723754883
-0.155396893620491028 0.582017362117767334 -0.581450939178466797
0.528371095657348633 -0.768029093742370605 -0.150476440787315369
0.629753172397613525 0.482819110155105591 0.363991141319274902
-0.0375750139355659485 -0.816550135612487793 -0.328508287668228149
0.46148267388343811 0.466984957456588745 -0.525481224060058594
0.245229870080947876 0.242226243019104004 0.809276700019836426
-0.573671638965606689 0.57333904504776001 -0.337739944458007812
-0.401977270841598511 0.298416227102279663 -0.678923904895782471
-0.701566219329833984 0.528621315956115723 -0.248683080077171326
-0.806053876876831055 -0.528560400009155273 0.0945490151643753052
-0.60749131441116333 0.716490805149078369 -0.143268972635269165
0.913217008113861084 0.195509746670722961 -0.146267712116241455
-0.274272501468658447 0.920102834701538086 -0.0965140685439109802
0.0262175370007753372 0.730608999729156494 -0.444723367691040039
-0.484507054090499878 0.3992767333984375 0.555152475833892822
0.253844380378723145 -0.745943725109100342 -0.369019687175750732
-0.796609699726104736 -0.53618854284286499 -0.0977021157741546631
0.865970432758331299 -0.382593989372253418 0.125702992081642151
0.218130931258201599 0.92608177661895752 0.11982349306344986
-0.5548744797706604 -0.749085366725921631 0.155579343438148499
0.496633052825927734 0.220513492822647095 -0.64254605770111084
-0.00252044829539954662 0.590115666389465332 -0.593275368213653564
0.682222366333007812 -0.169149115681648254 -0.475183159112930298
-0.642608284950256348 -0.145528450608253479 -0.520814299583435059
-0.744236767292022705 -0.431021153926849365 -0.272651582956314087
-0.940563499927520752 0.0580740645527839661 -0.131368055939674377
0.746387898921966553 0.623297810554504395 0.0686341896653175354
-0.573885142803192139 0.673184096813201904 0.233471184968948364
-0.618576169013977051 -0.443731874227523804 -0.403056472539901733
-0.432064652442932129 0.385390758514404297 -0.605048298835754395
0.457355320453643799 0.749967277050018311 0.24078485369682312
-0.0761319026350975037 -0.992924809455871582 -0.00748466374352574348
-0.174116224050521851 0.0329395532608032227 -0.922013401985168457
-0.728273451328277588 -0.624435007572174072 0.10402398556470871
0.238031968474388123 0.762820720672607422 -0.357516318559646606
0.941770732402801514 -0.168888002634048462 -0.106036588549613953
-0.854427993297576904 0.00433080922812223434 -0.277709662914276123
-0.0100591490045189857 -0.30692097544670105 0.838779270648956299
-0.631668508052825928 0.339944422245025635 -0.461164921522140503
0.377714276313781738 -0.802042663097381592 0.229816794395446777
-0.659698843955993652 0.17568109929561615 -0.497309416532516479
0.596718788146972656 -0.393031656742095947 -0.462669283151626587
-0.101966217160224915 -0.388336271047592163 -0.765474379062652588
-0.0413594581186771393 -0.453768432140350342 -0.71997445821762085
-0.642430722713470459 -0.566012144088745117 -0.279303669929504395
-0.486964166164398193 0.621681332588195801 -0.371014147996902466
-0.540323019027709961 0.741575062274932861 -0.180972561240196228
0.447427660226821899 -0.853212058544158936 -0.092984616756439209
-0.656959354877471924 -0.51381683349609375 -0.308037996292114258
-0.102930322289466858 0.826085865497589111 -0.310003846883773804
-0.328908532857894897 -0.628578901290893555 0.467975735664367676
0.269207179546356201 -0.423385113477706909 -0.678937554359436035
0.439232170581817627 0.872902810573577881 -0.0537835657596588135
0.262067258358001709 0.773762643337249756 0.334727227687835693
-0.573062300682067871 0.0205583777278661728 -0.611441493034362793
0.0888041704893112183 0.265751898288726807 -0.856863498687744141
-0.748001694679260254 -0.322541087865829468 -0.333111435174942017
0.482713639736175537 0.557641208171844482 0.431717783212661743
0.146843418478965759 0.274389028549194336 0.836220145225524902
0.779272735118865967 -0.249088793992996216 -0.327596455812454224
-0.895926296710968018 -0.390143126249313354 -0.062807619571685791
0.855936944484710693 -0.347171783447265625 -0.173157185316085815
0.878050923347473145 0.437065631151199341 0.0509607903659343719
-0.281644076108932495 0.0119636207818984985 -0.853909194469451904
-0.0108727486804127693 -0.824288547039031982 0.325172960758209229
0.93557131290435791 0.128206312656402588 0.127330183982849121
-0.99100571870803833 -0.028744332492351532 0.00491028651595115662
-0.0842236727476119995 -0.0252756606787443161 -0.968834161758422852
0.770835340023040771 -0.609698057174682617 -0.0383495502173900604
0.269388794898986816 -0.524790644645690918 -0.595618665218353271
0.0465424433350563049 -0.411805003881454468 -0.753944814205169678
-0.598091781139373779 0.747554123401641846 -0.110906518995761871
-0.629693269729614258 0.762160301208496094 0.00935413874685764313
0.232356056571006775 -0.243899956345558167 -0.815596520900726318
-0.945150136947631836 -0.299209415912628174 -0.0267391521483659744
0.342308193445205688 -0.540807366371154785 -0.542954802513122559
-0.120360486209392548 0.338142901659011841 0.798724591732025146
-0.482209295034408569 -0.287189215421676636 0.622333049774169922
-0.98292011022567749 -0.0907940268516540527 0.0344753041863441467
-0.543008327484130859 0.0662887394428253174 -0.635106861591339111
0.0549094676971435547 -0.481373101472854614 -0.693985342979431152
0.723974347114562988 -0.332171171903610229 0.359502702951431274
0.50069582462310791 -0.787624716758728027 -0.154610276222229004
0.706351339817047119 0.591423094272613525 -0.170712634921073914
-0.216758802533149719 -0.165720045566558838 -0.859862208366394043
-0.325826674699783325 -0.610630393028259277 -0.483632206916809082
-0.0563326478004455566 -0.826848864555358887 -0.317245274782180786
-0.678264021873474121 -0.487549483776092529 -0.307012856006622314
0.551238358020782471 0.244542032480239868 -0.580984711647033691
-0.480979204177856445 -0.750900685787200928 -0.223583489656448364
-0.253843486309051514 -0.571779370307922363 0.557578682899475098
0.843824625015258789 -0.294323891401290894 0.221421182155609131
0.793929159641265869 0.0995428338646888733 -0.357078880071640015
0.166175767779350281 0.786390841007232666 -0.350865691900253296
0.364780217409133911 -0.69703519344329834 0.375480830669403076
-0.755605936050415039 0.310966402292251587 -0.334127098321914673
0.658085644245147705 0.275329738855361938 -0.464084386825561523
-0.0836653783917427063 0.740015149116516113 -0.423226594924926758
-0.299445509910583496 -0.883941709995269775 -0.152913033962249756
0.0294302068650722504 -0.641807913780212402 0.54069054126739502
-0.311186164617538452 -0.279242783784866333 -0.750941038131713867
-0.513238906860351562 -0.6321982741355896 -0.334291696548461914
-0.34658774733543396 0.431393682956695557 -0.629397094249725342
0.223429501056671143 -0.674616992473602295 -0.464270204305648804
0.0183790009468793869 -0.992159128189086914 -0.024503074586391449
-0.6189156174659729 -0.757656872272491455 -0.0526534579694271088
-0.0305938180536031723 0.901792049407958984 -0.211487472057342529
0.878788411617279053 -0.260220646858215332 0.185484841465950012
0.985425472259521484 -0.0987449139356613159 -0.0153255164623260498
-0.60001063346862793 0.604006290435791016 -0.282712429761886597
0.376652032136917114 -0.667541861534118652 -0.397060513496398926
0.0440474115312099457 -0.771849393844604492 -0.386554032564163208
0.757139146327972412 0.401330113410949707 -0.276439815759658813
0.183199852705001831 0.698022603988647461 0.45122373104095459
-0.480005264282226562 0.493095636367797852 0.489721775054931641
-0.393223166465759277 -0.329652756452560425 -0.668172001838684082
-0.541832387447357178 0.422311872243881226 -0.491229504346847534
0.596703767776489258 0.535666763782501221 -0.35120701789855957
-0.341588467359542847 -0.859265327453613281 -0.167089015245437622
-0.11631377786397934 -0.161798968911170959 0.908192992210388184
0.185255691409111023 -0.963509082794189453 -0.0490695610642433167
0.468940407037734985 -0.410132646560668945 0.56049346923828125
0.312654316425323486 0.89496690034866333 0.119290724396705627
0.563116490840911865 0.733703851699829102 0.173096686601638794
0.409592926502227783 -0.361828386783599854 -0.636066913604736328
0.208542227745056152 -0.902610659599304199 0.172610387206077576
-0.479862749576568604 -0.777998805046081543 0.191628456115722656
0.62574005126953125 0.665506362915039062 0.1888255774974823
0.293869078159332275 -0.81970679759979248 -0.253917813301086426
0.669912874698638916 0.368712186813354492 -0.402505576610565186
0.816456317901611328 -0.484800994396209717 -0.127633005380630493
-0.86800086498260498 0.472899973392486572 0.0168985333293676376
-0.142210468649864197 0.979775428771972656 -0.0295907016843557358
0.835576534271240234 0.500249207019805908 -0.0656164437532424927
-0.413137167692184448 -0.448738396167755127 -0.572565853595733643
-0.738535583019256592 -0.640775024890899658 0.0646334290504455566
-0.736965835094451904 -0.633806407451629639 0.0773579627275466919
-0.084568321704864502 0.375449180603027344 -0.779403865337371826
-0.70630413293838501 0.260444015264511108 -0.414668858051300049
0.429771840572357178 -0.837744951248168945 -0.142861813306808472
0.7372245192527771 -0.267690718173980713 0.375791460275650024
0.519660711288452148 -0.489962458610534668 -0.462594270706176758
-0.140882387757301331 -0.57567143440246582 -0.594428360462188721
0.907936453819274902 0.289960324764251709 -0.121001183986663818
-0.555078864097595215 0.12777264416217804 0.613740444183349609
-0.577006161212921143 0.368714272975921631 -0.494114160537719727
-0.512741386890411377 -0.0651214271783828735 -0.663144230842590332
0.896296024322509766 0.0438066385686397552 0.215859830379486084
0.421735912561416626 0.436574578285217285 0.576843559741973877
0.717316389083862305 -0.287329435348510742 -0.391277879476547241
0.510275363922119141 0.830374360084533691 -0.0654362961649894714
0.14123690128326416 0.0875375568866729736 -0.927697539329528809
0.132730573415756226 0.480519562959671021 -0.681311726570129395
-0.331901073455810547 -0.480449020862579346 0.600884377956390381
-0.53200078010559082 0.228858858346939087 -0.606543958187103271
0.137618333101272583 -0.913741111755371094 0.176074743270874023
-0.0252388343214988708 -0.526247680187225342 -0.655960500240325928
-0.590388715267181396 -0.436736941337585449 -0.43683171272277832
0.0726997256278991699 -0.430991679430007935 -0.734139144420623779
-0.515196025371551514 0.790213942527770996 -0.137007921934127808
-0.0652606934309005737 0.419829368591308594 -0.744721770286560059
0.248862460255622864 0.61427462100982666 -0.517980754375457764
0.637299716472625732 0.437971830368041992 0.38972058892250061
-0.597779035568237305 -0.741534292697906494 -0.1126532182097435
-0.647099792957305908 0.382810592651367188 0.414423614740371704
0.473798662424087524 -0.123086072504520416 -0.688563227653503418
-0.0668596327304840088 -0.675640344619750977 -0.498709291219711304
0.142838209867477417 0.766090512275695801 -0.381163716316223145
-0.364792525768280029 0.123320929706096649 -0.779129683971405029
-0.78424382209777832 0.536068201065063477 0.115085653960704803
0.437362760305404663 -0.439596027135848999 -0.565313339233398438
0.0168564487248659134 0.975706160068511963 0.0631835460662841797
0.202919751405715942 -0.618753731250762939 -0.528917372226715088
-0.603771090507507324 -0.426599204540252686 -0.430418521165847778
0.529918313026428223 0.0339114628732204437 0.651079416275024414
-0.817162394523620605 -0.35229116678237915 0.226390793919563293
-0.20673467218875885 -0.028717435896396637 0.901741564273834229
0.187922120094299316 0.379659056663513184 -0.748166859149932861
0.917816638946533203 0.273148298263549805 -0.101566269993782043
0.0690869316458702087 -0.652980387210845947 -0.523542344570159912
-0.441441267728805542 -0.558505535125732422 0.464774578809738159
0.600072264671325684 -0.629739522933959961 0.254945874214172363
0.107015587389469147 0.794604241847991943 0.353135257959365845
0.632611989974975586 0.76959151029586792 -0.00746068311855196953
-0.110873855650424957 -0.574435830116271973 -0.59862828254699707
-0.576491475105285645 0.296676844358444214 -0.531902611255645752
0.216154947876930237 0.971430420875549316 -0.00271651311777532101
-0.471485048532485962 -0.461739063262939453 -0.520164608955383301
-0.108032152056694031 -0.1915169358253479 -0.895854413509368896
-0.618024230003356934 0.128752619028091431 0.551759779453277588
0.357521742582321167 -0.499236494302749634 0.570824086666107178
0.641983330249786377 -0.377896755933761597 -0.422907203435897827
0.906229555606842041 0.195367872714996338 0.162926614284515381
-0.760556340217590332 0.306864619255065918 0.328522205352783203
-0.489316225051879883 0.0375401750206947327 -0.687582194805145264
0.887959718704223633 -0.0837591812014579773 -0.221885263919830322
0.0644852444529533386 0.738961100578308105 -0.430545628070831299
0.166982844471931458 -0.809415876865386963 -0.317811340093612671
0.926875293254852295 -0.0648591518402099609 -0.156085669994354248
0.126188337802886963 0.844737470149993896 -0.281345665454864502
0.0683412030339241028 0.928171932697296143 -0.156911790370941162
0.540876030921936035 -0.0334419421851634979 -0.643105447292327881
0.000365026149665936828 -0.00668969564139842987 0.993076682090759277
-0.446235775947570801 0.548796176910400391 0.466886907815933228
0.302452683448791504 -0.654523670673370361 -0.453784257173538208
-0.0920321866869926453 -0.805714130401611328 -0.337414771318435669
0.371382206678390503 0.176677420735359192 -0.757589995861053467
0.562893152236938477 -0.566100120544433594 -0.354110121726989746
0.469457805156707764 -0.219836205244064331 -0.661958873271942139
-0.0284535139799118042 0.89939570426940918 -0.216216325759887695
-0.0288675222545862198 -0.706054747104644775 0.467713654041290283
0.708571255207061768 -0.43663334846496582 -0.312953025102615356
0.381163686513900757 0.620145082473754883 0.445453435182571411
-0.716811001300811768 0.592461228370666504 0.15881645679473877
0.105236433446407318 0.554205238819122314 0.619058310985565186
-0.129868373274803162 -0.774658918380737305 0.373402446508407593
-0.728453457355499268 0.42032131552696228 -0.299230396747589111
-0.567384839057922363 -0.685610353946685791 -0.227001339197158813
0.158519521355628967 -0.623777508735656738 -0.539148449897766113
0.551562309265136719 -0.190012663602828979 -0.601372957229614258
-0.838484287261962891 0.500173628330230713 -0.0555633306503295898
-0.449654698371887207 -0.360875070095062256 -0.608937203884124756
-0.030949791893362999 0.987098515033721924 0.0190206784754991531
0.513359129428863525 -0.709231138229370117 -0.24746839702129364
0.885540962219238281 -0.39860883355140686 0.0708655044436454773
-0.500214219093322754 -0.469007909297943115 -0.492617428302764893
0.178447023034095764 0.535055696964263916 -0.621943771839141846
0.841297388076782227 -0.0869178697466850281 -0.292871236801147461
-0.0215133838355541229 -0.907137811183929443 -0.194296360015869141
0.390689045190811157 -0.00540528027340769768 0.771917641162872314
0.513872504234313965 0.277861207723617554 -0.601161539554595947
-0.499654829502105713 0.203788876533508301 0.644625246524810791
0.467869371175765991 0.307296723127365112 -0.625500500202178955
-0.512812554836273193 0.0530153363943099976 -0.665348052978515625
-0.891042113304138184 -0.404741853475570679 -0.0499014221131801605
0.833733558654785156 0.287097930908203125 0.235218614339828491
0.713812828063964844 0.169822469353675842 -0.43870919942855835
-0.417437493801116943 -0.879712939262390137 -0.0677480623126029968
-0.129002153873443604 -0.0373384803533554077 -0.945309996604919434
-0.549990653991699219 0.462418735027313232 -0.456977158784866333
-0.149495020508766174 -0.789422929286956787 -0.347729325294494629
-0.456878632307052612 0.486311972141265869 -0.511475086212158203
-0.541842281818389893 -0.086083538830280304 -0.637881100177764893
0.347694128751754761 0.845540225505828857 0.189343288540840149
0.798132419586181641 -0.0893096923828125 -0.351698815822601318
0.4501362144947052 0.888155937194824219 -0.0152367688715457916
0.15693269670009613 0.146240144968032837 -0.898873746395111084
0.0879043489694595337 0.0601528696715831757 -0.96145021915435791
-0.413572043180465698 -0.903467476367950439 -0.00835608132183551788
0.624700307846069336 0.537686944007873535 -0.323562860488891602
-0.295966207981109619 -0.0862953364849090576 -0.83544468879699707
-0.0233422257006168365 0.458558410406112671 0.71747511625289917
-0.689672589302062988 -0.279287487268447876 0.422942668199539185
0.0824539661407470703 0.926540553569793701 -0.154250308871269226
0.0824727937579154968 -0.23460078239440918 0.87663799524307251
-0.736928045749664307 -0.071356065571308136 0.428744077682495117
-0.650074422359466553 0.405593365430831909 -0.395478308200836182
0.767362773418426514 0.0891678929328918457 -0.390878677368164062
-0.657156407833099365 0.326815903186798096 0.434840232133865356
0.348391085863113403 0.596767127513885498 -0.487778365612030029
-0.162433505058288574 -0.0278819315135478973 0.929999411106109619
0.378144353628158569 0.684516072273254395 0.37690359354019165
0.317718833684921265 0.867694437503814697 -0.171820491552352905
-0.621016502380371094 -0.720058023929595947 0.118023209273815155
-0.114162690937519073 -0.826724410057067871 -0.304538607597351074
0.943860113620758057 0.263999849557876587 -0.0465805940330028534
0.393449783325195312 -0.142124578356742859 -0.752673864364624023
0.872732818126678467 0.470656901597976685 -0.0208199918270111084
-0.179013937711715698 0.902897298336029053 -0.171483069658279419
-0.103616267442703247 -0.738608419895172119 -0.423070669174194336
