ply
format ascii 1.0
element vertex 740
property float x
property float y
property float z
end_header
0.630073606967926025 0.821137189865112305 0.332038581371307373
-0.901689469814300537 0.687488436698913574 -0.21291525661945343
-0.954915642738342285 -0.958958923816680908 0.105446971952915192
-0.476672887802124023 -0.898209989070892334 -0.21509183943271637
-0.0952312871813774109 -0.802841663360595703 -0.352976709604263306
0.549658119678497314 0.205108717083930969 -0.634871542453765869
0.860198616981506348 0.0390163250267505646 -0.274412602186203003
-0.176389917731285095 -0.489626824855804443 -0.690189242362976074
0.243303567171096802 -0.514409482479095459 0.669561922550201416
-0.0672237202525138855 0.622627556324005127 -0.564818859100341797
-0.22462838888168335 0.945905208587646484 -0.132115855813026428
0.980099380016326904 -0.14102916419506073 -0.0604086033999919891
0.556893706321716309 0.864364385604858398 -0.270724952220916748
0.146325886249542236 -0.0895278751850128174 -0.938713014125823975
0.922272026538848877 0.0962299928069114685 0.180324628949165344
-0.950910985469818115 -0.143912509083747864 -0.128465324640274048
0.502430498600006104 0.439759820699691772 -0.679122805595397949
-0.200367569923400879 -0.419481068849563599 0.750112771987915039
0.13572220504283905 0.311823546886444092 -0.833472490310668945
0.0902643948793411255 -0.875471889972686768 -0.253295004367828369
0.460130363702774048 0.0824441686272621155 0.717292129993438721
0.0581888779997825623 -0.51899796724319458 -0.66480332612991333
0.198642581701278687 -0.590507984161376953 -0.595738053321838379
0.148170903325080872 -0.831938445568084717 0.315835416316986084
-0.247383236885070801 0.128781601786613464 -0.880275905132293701
0.636652469635009766 0.642014682292938232 0.543979823589324951
0.0891685336828231812 -0.989410042762756348 0.0342958755791187286
0.144235000014305115 -0.267417073249816895 -0.866981029510498047
-0.634976089000701904 0.981734693050384521 -0.0533797070384025574
0.571564733982086182 0.960353553295135498 -0.105713129043579102
-0.0026677791029214859 -0.460226953029632568 -0.717407703399658203
-0.484826385974884033 0.395464837551116943 0.697352349758148193
-0.864858627319335938 0.384209245443344116 -0.267969459295272827
0.208443000912666321 0.135711729526519775 -0.905328631401062012
-0.283895820379257202 0.381294697523117065 0.780944883823394775
0.465549468994140625 0.887913107872009277 0.231866925954818726
-0.535009860992431641 0.591439604759216309 -0.596311390399932861
0.507510066032409668 -0.935270130634307861 0.154649853706359863
0.0721805840730667114 -0.403575241565704346 -0.764686644077301025
0.310456931591033936 -0.950325310230255127 -0.12403859943151474
0.987855672836303711 0.201630145311355591 -0.0368642210960388184
0.312673628330230713 0.482429981231689453 -0.696916460990905762
0.21009451150894165 0.5525360107421875 0.632039844989776611
-0.51331174373626709 -0.146209597587585449 -0.668415665626525879
-0.860838353633880615 -0.831901252269744873 0.272482246160507202
-0.186310797929763794 0.769816875457763672 -0.399378955364227295
-0.978787839412689209 -0.991803884506225586 0.0181937012821435928
0.502386629581451416 0.627009332180023193 -0.557441532611846924
0.982235252857208252 0.666746258735656738 -0.0539251416921615601
0.873564839363098145 0.279595345258712769 -0.255931735038757324
-0.847137033939361572 0.297911792993545532 -0.292472243309020996
0.855035543441772461 -0.950096666812896729 0.123854324221611023
-0.250828683376312256 -0.0719016566872596741 -0.875867843627929688
0.136613160371780396 0.772087574005126953 0.393101096153259277
0.0588719658553600311 0.888123035430908203 -0.231672108173370361
-0.182380363345146179 0.350769698619842529 -0.806402385234832764
0.269580602645874023 0.184176817536354065 -0.862834036350250244
0.0200083460658788681 -0.549647152423858643 -0.634881675243377686
0.771027565002441406 0.201193749904632568 -0.397705078125
-0.523935437202453613 -0.745189905166625977 0.425286561250686646
-0.530495762825012207 -0.365511238574981689 -0.654865682125091553
0.403194844722747803 0.965400576591491699 -0.0964902415871620178
-0.919136404991149902 -0.892653763294219971 0.185028359293937683
-0.591060221195220947 -0.929290294647216797 0.167070373892784119
-0.168961375951766968 -0.998043417930603027 -0.00593928946182131767
-0.989636421203613281 0.200409188866615295 0.0327731147408485413
0.401879221200942993 0.406508445739746094 -0.762483000755310059
0.798853814601898193 0.284383177757263184 -0.359230995178222656
0.36093604564666748 0.802019059658050537 -0.354032248258590698
-0.427103430032730103 -0.712524831295013428 -0.467720389366149902
-0.950481295585632324 -0.580469131469726562 -0.129171624779701233
0.661711394786834717 -0.1679106205701828 -0.52106863260269165
0.699813306331634521 0.884041726589202881 -0.241445913910865784
-0.647539436817169189 0.779962539672851562 -0.38233494758605957
-0.262161910533905029 -0.910999655723571777 0.197234451770782471
-0.530081450939178467 -0.677135169506072998 -0.5038033127784729
-0.61499178409576416 -0.475814104080200195 -0.573366343975067139
0.299152135848999023 0.918949544429779053 -0.181374445557594299
-0.760892331600189209 -0.474122822284698486 0.406497210264205933
-0.543522775173187256 0.469152718782424927 -0.643606185913085938
0.581439554691314697 0.888500571250915527 -0.231051519513130188
0.977761685848236084 -0.160084784030914307 -0.0675046667456626892
0.308408230543136597 -0.642476677894592285 -0.542599856853485107
-0.202331721782684326 -0.788015604019165039 -0.374216526746749878
0.335193336009979248 0.367467880249023438 0.792108774185180664
0.549942612648010254 0.905370354652404785 -0.203322023153305054
-0.983395516872406006 0.73146367073059082 -0.0504030436277389526
0.783251345157623291 0.527116179466247559 -0.380803853273391724
0.999668776988983154 0.449912786483764648 -0.00100538611877709627
0.697451531887054443 -0.672257959842681885 -0.481061279773712158
0.0523042120039463043 -0.234919905662536621 -0.887482941150665283
0.826899170875549316 0.567696332931518555 -0.322106301784515381
0.745582222938537598 -0.0107056796550750732 0.424817144870758057
0.482822716236114502 -0.948971092700958252 0.126192286610603333
-0.62593919038772583 -0.917019963264465332 -0.184900522232055664
-0.782583117485046387 0.833019912242889404 -0.311991274356842041
0.066313132643699646 -0.954539358615875244 0.114626660943031311
-0.0950092598795890808 -0.21889108419418335 -0.898066520690917969
-0.818829238414764404 0.871215939521789551 -0.259462893009185791
-0.0836202278733253479 0.907038390636444092 -0.200580298900604248
-0.600105464458465576 0.844257891178131104 0.297354847192764282
0.323526233434677124 0.0655309557914733887 0.827587723731994629
0.143390089273452759 0.441304624080657959 -0.734871149063110352
0.790308773517608643 0.887928247451782227 0.231844216585159302
0.428292781114578247 0.14151647686958313 0.742998123168945312
0.748412132263183594 0.674528598785400391 0.421430885791778564
-0.362382054328918457 -0.195824936032295227 0.79621511697769165
0.940187036991119385 0.907475471496582031 -0.142565175890922546
-0.445771157741546631 -0.19730280339717865 -0.728094339370727539
-0.779391109943389893 0.288807690143585205 0.384361833333969116
-0.785662829875946045 0.332892149686813354 -0.375020384788513184
0.935785651206970215 -0.00858567655086517334 0.153579160571098328
0.728988230228424072 -0.827714443206787109 0.322171896696090698
-0.463413357734680176 0.488204479217529297 -0.691418588161468506
-0.155995473265647888 0.920570433139801025 0.182877182960510254
-0.871831059455871582 0.885478317737579346 -0.236019283533096313
-0.456558316946029663 -0.210769370198249817 -0.718770861625671387
-0.605740368366241455 -0.00299051799811422825 -0.583113193511962891
0.857692420482635498 -0.204849526286125183 0.277201473712921143
-0.363326281309127808 0.313369482755661011 -0.794925332069396973
0.500277101993560791 0.273449331521987915 -0.680984020233154297
0.413735628128051758 0.0776754170656204224 0.754751741886138916
0.828893661499023438 0.0453447327017784119 -0.319547027349472046
-0.172775983810424805 0.726286530494689941 -0.451211512088775635
0.885355710983276367 -0.442724436521530151 0.235703304409980774
-0.388818979263305664 0.375517398118972778 -0.775772929191589355
-0.0475742258131504059 -0.0203757677227258682 0.985127806663513184
-0.385276854038238525 -0.912045478820800781 -0.192349910736083984
-0.492608040571212769 -0.644579470157623291 -0.540246009826660156
0.0933591052889823914 0.186758562922477722 0.916332483291625977
-0.108347855508327484 0.96900409460067749 -0.0845353305339813232
-0.966275513172149658 0.820960283279418945 0.0902500972151756287
0.749764144420623779 -0.837294459342956543 0.307800799608230591
-0.539266347885131836 -0.790236771106719971 0.371384024620056152
-0.860055088996887207 -0.891993463039398193 -0.225310102105140686
0.162474334239959717 -0.838783919811248779 0.30556643009185791
-0.481940478086471558 -0.785119950771331787 -0.375717043876647949
0.0613633915781974792 -0.812831580638885498 0.344347357749938965
-0.0364792123436927795 -0.45601990818977356 -0.721290409564971924
-0.370969027280807495 0.688774943351745605 -0.492638289928436279
-0.984198272228240967 0.881308853626251221 0.0530235320329666138
-0.701626598834991455 0.811290204524993896 0.346191734075546265
0.154456034302711487 -0.543486654758453369 -0.640567183494567871
-0.561196684837341309 -0.479785174131393433 -0.624222636222839355
-0.807696521282196045 -0.73649907112121582 -0.347004711627960205
0.508592009544372559 -0.867827296257019043 -0.26503288745880127
0.494476079940795898 0.761796832084655762 0.405414938926696777
-0.332775712013244629 -0.833930552005767822 -0.3130837082862854
-0.753441870212554932 0.810173571109771729 -0.343579769134521484
0.958569586277008057 0.164217680692672729 0.106255635619163513
-0.466459274291992188 -0.538582503795623779 0.645772159099578857
-0.419096231460571289 0.477600127458572388 -0.700584113597869873
-0.628811955451965332 0.0832128897309303284 -0.557896077632904053
-0.440640747547149658 -0.784671366214752197 0.378043502569198608
0.227980837225914001 -0.822831392288208008 -0.326078414916992188
-0.773464441299438477 0.544094502925872803 -0.390673249959945679
0.685499668121337891 0.0555246025323867798 0.496711194515228271
-0.106334365904331207 0.309091866016387939 0.838312327861785889
-0.687189221382141113 0.23806394636631012 -0.492548853158950806
0.770618200302124023 0.816724061965942383 -0.334522724151611328
0.899527609348297119 0.91490548849105835 -0.187648862600326538
0.275475740432739258 0.973847746849060059 -0.0793854594230651855
-0.46473461389541626 -0.494449794292449951 0.689205169677734375
-0.802173912525177002 -0.427735984325408936 0.357100158929824829
0.492825567722320557 -0.650975167751312256 -0.533086717128753662
0.880035221576690674 -0.439032196998596191 -0.246985524892807007
-0.595520377159118652 0.540000438690185547 0.589736998081207275
-0.707190036773681641 0.956809580326080322 -0.114378996193408966
0.223109662532806396 -0.558378458023071289 0.626290082931518555
-0.656773269176483154 -0.862983584403991699 -0.27056199312210083
-0.541840136051177979 -0.589165031909942627 0.595991551876068115
-0.657055556774139404 0.343785911798477173 0.529177427291870117
-0.24733366072177887 0.0390683040022850037 -0.880304574966430664
-0.607748448848724365 0.9375762939453125 0.149859920144081116
-0.192559510469436646 -0.842032134532928467 0.300693720579147339
-0.797244548797607422 -0.690476417541503906 -0.361456066370010376
0.823876321315765381 0.118275649845600128 -0.324633687734603882
0.446024537086486816 0.507335364818572998 0.676523923873901367
0.714120686054229736 -0.16528688371181488 0.462463617324829102
-0.312052041292190552 -0.0813111811876296997 0.836424469947814941
-0.696250438690185547 0.950032949447631836 -0.124572917819023132
-0.799899935722351074 -0.881866812705993652 -0.241955667734146118
-0.100874178111553192 -0.740125179290771484 -0.433453857898712158
0.719968318939208984 -0.840243220329284668 -0.304983347654342651
0.346932381391525269 0.0669639557600021362 -0.809069573879241943
-0.382685929536819458 0.851714611053466797 0.286168873310089111
-0.798173248767852783 0.177846074104309082 -0.360172063112258911
0.418944329023361206 0.857322037220001221 -0.282300800085067749
0.120467953383922577 -0.373832017183303833 0.786970317363739014
0.0183793995529413223 -0.467589855194091797 -0.710612475872039795
-0.633676409721374512 0.168833360075950623 -0.552450895309448242
0.814050614833831787 0.362168550491333008 -0.338219165802001953
0.434007048606872559 -0.262591570615768433 -0.73826223611831665
-0.0390472561120986938 0.49139830470085144 -0.688639640808105469
0.460449934005737305 -0.706611514091491699 0.471449017524719238
-0.50286334753036499 -0.0362699590623378754 -0.678748726844787598
0.646824359893798828 -0.140764400362968445 0.539246439933776855
0.15073511004447937 -0.638995051383972168 0.546951591968536377
0.0929851531982421875 -0.632686734199523926 -0.553558647632598877
0.572398722171783447 -0.126848727464675903 -0.613884210586547852
0.440238773822784424 0.291151195764541626 -0.732876062393188477
-0.160172909498214722 0.646949470043182373 -0.537593066692352295
-0.915545940399169922 0.780684053897857666 0.190414503216743469
0.19602261483669281 0.098086237907409668 0.910424172878265381
0.854630589485168457 -0.979687392711639404 -0.0583901330828666687
0.139443278312683105 -0.123151443898677826 0.944145858287811279
0.403954803943634033 0.596490800380706787 0.588782012462615967
0.957818567752838135 0.516611099243164062 -0.111909635365009308
0.751078605651855469 0.402236998081207275 -0.419398576021194458
0.161356076598167419 0.911950111389160156 -0.194165095686912537
-0.696948647499084473 0.921417534351348877 -0.176864445209503174
0.219996422529220581 -0.979772269725799561 -0.0614015832543373108
-0.440666794776916504 0.903222978115081787 -0.206851765513420105
-0.606621503829956055 -0.95152592658996582 0.120885759592056274
-0.99561840295791626 0.482607990503311157 -0.0194021109491586685
0.972311854362487793 0.443675428628921509 -0.0838607028126716614
-0.95822596549987793 -0.719686210155487061 0.10696941614151001
-0.987891018390655518 0.032453782856464386 0.0445134788751602173
0.871235191822052002 0.816604673862457275 0.256885766983032227
-0.768632590770721436 0.501633644104003906 -0.396873414516448975
0.375767439603805542 0.643764913082122803 0.542257368564605713
-0.0948966220021247864 -0.0486014746129512787 0.964017689228057861
0.00228039850480854511 -0.225096032023429871 -0.893753707408905029
0.850665450096130371 0.89677053689956665 -0.221904084086418152
-0.567160367965698242 -0.906408429145812988 -0.204291939735412598
0.714009582996368408 0.253737300634384155 -0.466162592172622681
0.849754452705383301 -0.085289590060710907 -0.288853257894515991
0.276920229196548462 -0.40506279468536377 0.761754274368286133
-0.743775665760040283 0.381806254386901855 0.426978826522827148
-0.201685324311256409 0.988293945789337158 0.0418031401932239532
0.317591279745101929 0.594448685646057129 -0.593534231185913086
0.354114830493927002 -0.637840688228607178 -0.546077489852905273
-0.748128533363342285 -0.326457828283309937 -0.424333661794662476
0.618048548698425293 0.94117814302444458 -0.14075411856174469
0.387367814779281616 0.954123139381408691 -0.117098480463027954
0.461369723081588745 -0.929894208908081055 -0.16301138699054718
-0.24177822470664978 -0.128752380609512329 -0.882158517837524414
0.140361353754997253 -0.874603271484375 -0.253894984722137451
0.371903359889984131 0.482765436172485352 -0.69611966609954834
-0.468761175870895386 0.192383497953414917 -0.70822376012802124
0.994082033634185791 -0.744974076747894287 -0.0179640054702758789
0.632050871849060059 -0.693466842174530029 -0.487715661525726318
0.409202218055725098 0.20385231077671051 -0.760459184646606445
-0.990621089935302734 -0.21915985643863678 -0.0284697301685810089
-0.276743143796920776 -0.988234817981719971 0.0422007292509078979
0.286915630102157593 0.34065091609954834 0.813761115074157715
-0.479772597551345825 -0.737705767154693604 -0.43655848503112793
-0.592775285243988037 -0.320336490869522095 0.592438578605651855
0.813200950622558594 0.865481674671173096 0.265516728162765503
0.569356381893157959 -0.218129321932792664 -0.61792987585067749
0.0488890260457992554 0.690320253372192383 -0.489043980836868286
-0.609316051006317139 -0.988383769989013672 0.0411987490952014923
-0.761278271675109863 -0.833391070365905762 -0.313775986433029175
-0.99280238151550293 0.77963942289352417 0.0114773837849497795
-0.248469829559326172 0.335097968578338623 -0.817295253276824951
0.800921440124511719 -0.277685284614562988 -0.356372267007827759
-0.868936479091644287 0.826266288757324219 -0.262331157922744751
0.0115159843116998672 -0.825917065143585205 0.324868172407150269
0.696451485157012939 -0.623463332653045654 0.483606427907943726
-0.301945745944976807 -0.664386987686157227 -0.518225669860839844
-0.868093430995941162 0.852701663970947266 0.261598736047744751
0.847745180130004883 -0.51436913013458252 -0.291631400585174561
-0.0155218197032809258 -0.0533845908939838409 0.982535839080810547
-0.961461961269378662 -0.108584627509117126 -0.102993197739124298
-0.879723310470581055 0.245301723480224609 -0.245478972792625427
-0.723486363887786865 -0.978648483753204346 -0.060932546854019165
-0.561277806758880615 0.694242000579833984 0.48625028133392334
0.588674843311309814 0.500116109848022461 0.596473991870880127
0.151550129055976868 0.837691128253936768 0.307205706834793091
0.921482622623443604 0.400961011648178101 -0.176745414733886719
-0.929870963096618652 0.471971422433853149 -0.161416694521903992
-0.0864631831645965576 -0.294262200593948364 -0.846812546253204346
0.213699221611022949 0.576436221599578857 -0.610157966613769531
-0.871168971061706543 -0.939577341079711914 -0.147094830870628357
-0.378267377614974976 0.719107508659362793 0.456496477127075195
0.723967015743255615 0.598541378974914551 0.450681686401367188
0.118613183498382568 -0.0311715658754110336 -0.952582180500030518
0.132342830300331116 0.539236366748809814 -0.644489765167236328
-0.392837494611740112 -0.993904531002044678 0.00406374596059322357
0.394640892744064331 -0.438182443380355835 -0.73465341329574585
-0.130759596824645996 -0.0180780962109565735 -0.947714328765869141
-0.403461664915084839 -0.702897131443023682 -0.474965512752532959
-0.797227442264556885 -0.612329423427581787 0.363019049167633057
0.975312888622283936 0.769648194313049316 -0.0690958648920059204
-0.337500572204589844 0.969319522380828857 -0.0893287733197212219
0.533844232559204102 -0.934524357318878174 -0.155400604009628296
-0.871138393878936768 -0.990487635135650635 0.0270473826676607132
-0.503099441528320312 0.702890396118164062 -0.474973022937774658
-0.536035120487213135 -0.130120187997817993 0.648279190063476562
0.298325657844543457 -0.330680161714553833 -0.82036590576171875
-0.88984304666519165 -0.248377427458763123 -0.233424708247184753
0.774223208427429199 -0.129067838191986084 -0.389699637889862061
-0.0151572311297059059 0.984894335269927979 0.0515776947140693665
0.442316889762878418 0.542970061302185059 -0.644083917140960693
-0.698333323001861572 -0.460753262042999268 -0.480074197053909302
-0.336523085832595825 -0.95497596263885498 0.113719768822193146
-0.99339139461517334 0.0517327748239040375 -0.0248522460460662842
-0.668613672256469727 -0.363218039274215698 -0.513791143894195557
0.799335479736328125 -0.609196245670318604 -0.357475787401199341
0.491203844547271729 -0.448469579219818115 -0.688819050788879395
-0.0271731559187173843 -0.402100354433059692 -0.765794754028320312
-0.962682425975799561 -0.171042978763580322 0.0977130904793739319
-0.124978862702846527 -0.600572109222412109 0.584765374660491943
0.357574939727783203 -0.45076298713684082 -0.723779857158660889
0.91537165641784668 -0.367507874965667725 -0.187912583351135254
-0.0108815394341945648 -0.861574232578277588 -0.2725105881690979
-0.311160385608673096 0.79666602611541748 0.363690853118896484
0.0812729448080062866 0.370187342166900635 0.789913058280944824
-0.480642795562744141 -0.371969252824783325 -0.698565900325775146
0.70565718412399292 0.745601356029510498 -0.426426917314529419
0.186919286847114563 0.626231551170349121 -0.560784637928009033
-0.161998972296714783 -0.825494647026062012 -0.323908567428588867
-0.558134317398071289 0.097332194447517395 -0.627048850059509277
-0.945536971092224121 0.834400832653045654 0.133325129747390747
-0.326690524816513062 -0.859038829803466797 -0.276016175746917725
-0.695231735706329346 -0.777128994464874268 0.387068629264831543
0.367091566324234009 -0.68172687292098999 0.501225709915161133
-0.744903922080993652 -0.200054630637168884 0.425628781318664551
0.0673963576555252075 -0.32430797815322876 -0.824795007705688477
0.0786453858017921448 0.766434311866760254 0.399865776300430298
0.126388862729072571 0.204834207892417908 0.904804408550262451
0.376298874616622925 0.552205264568328857 -0.632520794868469238
-0.595442473888397217 -0.454944610595703125 -0.592617154121398926
0.160164967179298401 0.796395421028137207 -0.361248433589935303
-0.613927900791168213 -0.894421100616455078 0.222104161977767944
-0.986626982688903809 0.837503910064697266 -0.0414068661630153656
0.239823341369628906 0.819527864456176758 0.334452718496322632
0.646656215190887451 -0.24716794490814209 -0.536828458309173584
-0.638148069381713867 0.518121421337127686 -0.547445297241210938
-0.233090460300445557 0.620358407497406006 -0.564419567584991455
-0.115226238965988159 -0.789695918560028076 -0.369845181703567505
0.0984993204474449158 -0.400291174650192261 0.765606939792633057
0.538033366203308105 -0.854980230331420898 -0.28607293963432312
0.167799606919288635 0.305865675210952759 0.840369880199432373
-0.137423709034919739 -0.911706745624542236 -0.192906752228736877
-0.10494580864906311 0.94533383846282959 0.133746996521949768
-0.78882753849029541 -0.990830779075622559 -0.027833353728055954
0.36418759822845459 0.943844914436340332 -0.135880842804908752
0.717499136924743652 -0.195099696516990662 0.458420991897583008
0.178808853030204773 -0.960034191608428955 0.103213608264923096
0.17943786084651947 -0.721296012401580811 -0.457615315914154053
0.146525904536247253 0.874721348285675049 -0.25433272123336792
-0.307001978158950806 0.679337263107299805 0.504085063934326172
0.864619970321655273 0.323441594839096069 -0.27030491828918457
0.43101191520690918 0.921948909759521484 0.180809274315834045
0.919051706790924072 0.730163097381591797 0.185155421495437622
-0.723804712295532227 0.149987146258354187 -0.451561659574508667
0.31940111517906189 0.595922887325286865 -0.590056836605072021
0.14390149712562561 -0.776702761650085449 0.387578636407852173
0.659036993980407715 0.843950450420379639 -0.296878129243850708
0.857362091541290283 0.973254144191741943 -0.0741341933608055115
-0.392334431409835815 0.669658541679382324 0.515666544437408447
0.806812644004821777 -0.304483503103256226 0.351549506187438965
0.357068151235580444 0.370072901248931885 -0.792985439300537109
0.852834224700927734 -0.967251896858215332 -0.0931072309613227844
-0.847788333892822266 0.942351460456848145 -0.142534956336021423
0.695357918739318848 -0.437144041061401367 -0.485731571912765503
-0.700127363204956055 0.63893502950668335 0.479207903146743774
0.484497934579849243 0.801060259342193604 0.358432739973068237
0.184776172041893005 0.604681253433227539 -0.5808677077293396
-0.576307058334350586 -0.0314862579107284546 0.60864567756652832
-0.452237784862518311 0.925749063491821289 0.174425631761550903
0.486748456954956055 -0.550110340118408203 -0.637912452220916748
0.194174826145172119 0.966414690017700195 -0.0908723250031471252
-0.545746505260467529 -0.278393149375915527 -0.641684174537658691
-0.52700275182723999 -0.173600092530250549 -0.657884716987609863
-0.814414799213409424 -0.128963425755500793 -0.337715595960617065
-0.974232733249664307 0.923737525939941406 0.0737224072217941284
-0.461061775684356689 -0.978964924812316895 0.063893437385559082
0.784882307052612305 -0.168282985687255859 -0.378548771142959595
-0.854350268840789795 0.845978498458862305 0.28221505880355835
0.518736600875854492 0.943169057369232178 -0.137115940451622009
-0.141380146145820618 0.288982748985290527 -0.849348306655883789
-0.537556052207946777 -0.933737456798553467 0.157833293080329895
0.279238015413284302 -0.645678699016571045 -0.537854015827178955
-0.0196788739413022995 -0.744857907295227051 -0.427994817495346069
-0.158246740698814392 -0.820645451545715332 0.332776188850402832
0.0517924875020980835 -0.497626245021820068 0.686079084873199463
-0.289632648229598999 0.71209031343460083 -0.464674711227416992
-0.352876722812652588 0.849250495433807373 0.289865314960479736
0.0558925755321979523 -0.977170825004577637 0.0676198899745941162
-0.196098536252975464 0.613081097602844238 -0.575505197048187256
-0.518465697765350342 0.62670290470123291 -0.5602569580078125
0.576282382011413574 0.0638396367430686951 -0.610300004482269287
-0.737052202224731445 -0.514419198036193848 0.435024023056030273
0.64195781946182251 -0.103894025087356567 -0.543180704116821289
-0.331032603979110718 0.692538261413574219 -0.488689929246902466
0.62772214412689209 0.959485352039337158 -0.10783059149980545
-0.840591609477996826 0.253818541765213013 0.302854686975479126
-0.535628378391265869 0.585185885429382324 -0.601321816444396973
0.454282164573669434 0.599650323390960693 0.585672557353973389
0.196910113096237183 0.0869664549827575684 -0.912255048751831055
0.214042693376541138 0.832166790962219238 -0.313170820474624634
0.0411366783082485199 0.972257494926452637 0.0778250992298126221
-0.604060173034667969 0.926549673080444336 0.17276279628276825
-0.950835704803466797 0.620225965976715088 -0.1231059730052948
0.912090182304382324 -0.990947425365447998 -0.0274791698902845383
-0.799206316471099854 -0.837698101997375488 -0.308249205350875854
-0.524389684200286865 -0.349645107984542847 -0.658191859722137451
0.100350573658943176 0.639231443405151367 -0.54623258113861084
0.593582749366760254 -0.379791110754013062 -0.594333410263061523
0.229966327548027039 -0.815083622932434082 -0.337267905473709106
0.341799527406692505 -0.333161860704421997 0.812833666801452637
0.201024264097213745 0.487089306116104126 -0.692616403102874756
0.210527151823043823 0.310411244630813599 -0.834454119205474854
0.640255630016326904 0.855197548866271973 0.280944019556045532
-0.207457929849624634 0.0995495766401290894 -0.906013309955596924
0.849365711212158203 -0.176039367914199829 0.289692461490631104
0.166414037346839905 -0.47882804274559021 -0.700240731239318848
0.452816516160964966 0.286945641040802002 -0.722004950046539307
0.157677322626113892 0.327661633491516113 -0.821719884872436523
-0.742533743381500244 0.994430005550384521 0.000528961594682186842
0.6967429518699646 0.992342829704284668 -0.0232434049248695374
0.133161991834640503 -0.0631637349724769592 -0.946325123310089111
-0.213738530874252319 0.674010157585144043 0.510459423065185547
0.724836528301239014 0.564724564552307129 0.449641227722167969
-0.77248990535736084 -0.510592281818389893 -0.395683079957962036
0.223710328340530396 -0.767455101013183594 -0.402644485235214233
0.921593308448791504 0.888332784175872803 -0.176543250679969788
0.916496932506561279 0.742141366004943848 -0.185032933950424194
-0.330964386463165283 -0.812416255474090576 0.344844341278076172
-0.491500139236450195 0.975351929664611816 -0.0690002664923667908
-0.960436701774597168 -0.135053977370262146 0.102377556264400482
-0.365153372287750244 -0.995830535888671875 -0.00889142695814371109
-0.132891103625297546 -0.384919136762619019 0.778018474578857422
-0.0174156259745359421 0.62117469310760498 -0.563563108444213867
-0.708191454410552979 -0.195662334561347961 0.469558507204055786
-0.983020186424255371 0.960037529468536377 -0.0515425093472003937
0.454254984855651855 -0.395223379135131836 0.722036004066467285
-0.0453117229044437408 0.854431688785552979 -0.286776870489120483
-0.195165261626243591 0.40230262279510498 -0.765642762184143066
-0.435710668563842773 0.964188992977142334 0.0945838913321495056
-0.61357724666595459 0.517044126987457275 0.571966409683227539
-0.105150185525417328 0.249864861369132996 0.876085400581359863
0.307086288928985596 -0.348007827997207642 -0.806433975696563721
-0.0536107346415519714 0.657025456428527832 -0.526314020156860352
-0.131869107484817505 -0.162541657686233521 -0.929956674575805664
-0.171171903610229492 -0.650766134262084961 0.535367131233215332
-0.232157185673713684 -0.986244857311248779 -0.0417538285255432129
0.731499254703521729 0.841618597507476807 -0.300102263689041138
0.592207014560699463 0.718458294868469238 0.457273274660110474
0.0503231100738048553 0.388570159673690796 0.775070607662200928
-0.988866329193115234 -0.886316537857055664 0.0379530787467956543
0.570857405662536621 -0.887378454208374023 -0.232895925641059875
0.470757901668548584 0.886905670166015625 0.233378186821937561
0.0271350499242544174 0.163452357053756714 -0.928809523582458496
-0.608769774436950684 -0.930256247520446777 0.165064007043838501
-0.203230872750282288 0.878499388694763184 -0.247490763664245605
0.946729600429534912 0.979239702224731445 -0.0594857148826122284
0.232450202107429504 -0.404071301221847534 -0.764313995838165283
-0.704794168472290039 -0.268892168998718262 0.473623663187026978
0.271637856960296631 -0.295604676008224487 0.846913993358612061
0.600431919097900391 0.992217361927032471 0.0154124395921826363
0.859422206878662109 -0.710709095001220703 -0.275486111640930176
0.303914159536361694 -0.994450747966766357 0.000389717664802446961
-0.664401769638061523 -0.537961006164550781 -0.518056988716125488
0.729253888130187988 -0.133706375956535339 -0.447403788566589355
0.266689121723175049 0.286572933197021484 -0.851023256778717041
0.151398539543151855 -0.281774550676345825 -0.854358434677124023
0.981321632862091064 -0.414942115545272827 -0.0543905571103096008
-0.910432875156402588 0.486757397651672363 -0.195000648498535156
0.694477617740631104 0.716844916343688965 0.459203869104385376
0.328498989343643188 0.799699902534484863 0.360060542821884155
-0.807421445846557617 -0.0176631901413202286 -0.347385048866271973
-0.828839778900146484 -0.567629992961883545 0.320483744144439697
-0.621820151805877686 -0.928440749645233154 -0.16403023898601532
-0.979672491550445557 0.505206525325775146 -0.0617043785750865936
-0.564677834510803223 -0.902943313121795654 -0.207311466336250305
0.574330627918243408 0.534669220447540283 -0.612101256847381592
-0.783806085586547852 0.302747040987014771 -0.377402931451797485
0.0633491054177284241 -0.97211611270904541 -0.0769192427396774292
-0.728294014930725098 -0.840023815631866455 0.303706377744674683
0.782990694046020508 0.140647873282432556 0.380054622888565063
0.33781394362449646 -0.755761384963989258 0.412636876106262207
0.0170054249465465546 -0.399915575981140137 -0.767728030681610107
0.946767628192901611 -0.728508949279785156 -0.135275900363922119
0.845555365085601807 0.559742152690887451 0.295408487319946289
0.632955193519592285 0.0788928121328353882 -0.551203310489654541
0.859027683734893799 0.285627961158752441 -0.279497087001800537
-0.891290962696075439 0.374754756689071655 -0.226464822888374329
0.8409690260887146 -0.911339700222015381 -0.1935100257396698
0.885866343975067139 0.152193456888198853 -0.235381528735160828
0.907406151294708252 0.457057774066925049 -0.202468708157539368
0.619394898414611816 -0.248001009225845337 -0.56543046236038208
0.530310213565826416 0.696940481662750244 -0.481633365154266357
0.244646251201629639 0.761385560035705566 -0.409493803977966309
-0.188242673873901367 -0.972921013832092285 -0.0749493911862373352
-0.819233596324920654 -0.826780021190643311 0.323573589324951172
-0.19297511875629425 0.77498549222946167 0.389633536338806152
-0.212294444441795349 0.870646834373474121 0.257768392562866211
0.522459685802459717 0.565293312072753906 -0.620441794395446777
-0.435345351696014404 -0.287678003311157227 0.737303793430328369
-0.39057844877243042 0.651586472988128662 -0.531655728816986084
0.0155285811051726341 0.179301157593727112 -0.919644832611083984
0.231245517730712891 0.735678136348724365 -0.438270598649978638
-0.48828279972076416 -0.848368644714355469 -0.290769338607788086
0.924935221672058105 -0.372677773237228394 -0.170436248183250427
0.697380244731903076 -0.598693370819091797 0.48249506950378418
-0.158431783318519592 -0.601302087306976318 0.58404695987701416
-0.781303584575653076 -0.921012043952941895 0.182214707136154175
-0.457989722490310669 0.987421274185180664 0.0463291555643081665
-0.434593915939331055 0.204516038298606873 -0.741064488887786865
-0.0108923688530921936 0.1297902911901474 -0.948274850845336914
0.0212562084197998047 -0.0908753275871276855 -0.967826604843139648
-0.383288204669952393 -0.419271498918533325 0.750281989574432373
-0.147665724158287048 -0.245997145771980286 0.878552079200744629
-0.0993070527911186218 0.901217401027679443 -0.21014837920665741
0.894722998142242432 0.895469725131988525 -0.224281162023544312
0.00916184950619935989 0.955907762050628662 0.111784376204013824
0.0585223585367202759 -0.919276118278503418 -0.180777609348297119
-0.250722348690032959 -0.977066397666931152 -0.0696152299642562866
-0.259428292512893677 0.200743421912193298 0.869986116886138916
-0.176913425326347351 -0.380477964878082275 0.781604290008544922
0.579307615756988525 0.429603248834609985 0.605692684650421143
0.996438682079315186 -0.0925244763493537903 -0.0173947103321552277
0.24850049614906311 0.475027680397033691 -0.702807486057281494
-0.827096641063690186 -0.886753499507904053 0.233606502413749695
0.201637789607048035 -0.94642108678817749 -0.135845571756362915
-0.60309910774230957 -0.397664636373519897 0.582278430461883545
-0.876639723777770996 -0.988079309463500977 0.0432470403611660004
-0.130076959729194641 0.23254963755607605 0.887128472328186035
0.529957294464111328 -0.988717377185821533 -0.0342484898865222931
0.19371330738067627 -0.227272585034370422 -0.891905069351196289
-0.563203573226928711 -0.994829833507537842 -0.0213319659233093262
-0.432156831026077271 0.453531861305236816 -0.72138667106628418
0.373096466064453125 0.424664974212646484 0.745927274227142334
-0.481380730867385864 -0.956276655197143555 -0.115683197975158691
-0.361245065927505493 -0.563599288463592529 0.621151983737945557
-0.107818484306335449 -0.600572288036346436 -0.585178792476654053
0.432305842638015747 -0.938672780990600586 -0.145332321524620056
-0.824432671070098877 -0.715781450271606445 -0.32386443018913269
0.710114181041717529 0.682177484035491943 0.467257767915725708
-0.66289597749710083 -0.0903153494000434875 -0.519789934158325195
-0.815078198909759521 0.834144830703735352 0.312525540590286255
-0.147608444094657898 -0.67122262716293335 0.513794958591461182
0.505321502685546875 0.447151809930801392 -0.675789833068847656
0.798303127288818359 0.766134202480316162 -0.359992444515228271
-0.542064845561981201 0.621817708015441895 0.563856601715087891
0.475517183542251587 0.161936596035957336 0.704868674278259277
0.0703756958246231079 -0.640585780143737793 -0.544716536998748779
-0.317280173301696777 -0.965850830078125 -0.0956674665212631226
0.0406476520001888275 0.528375387191772461 -0.654513418674468994
-0.684973418712615967 0.832443773746490479 -0.312787890434265137
-0.517989456653594971 0.114888310432434082 -0.665674984455108643
-0.374038368463516235 -0.702918887138366699 -0.474941164255142212
-0.875916838645935059 -0.457227349281311035 -0.251735806465148926
0.925854206085205078 -0.656960368156433105 0.174207255244255066
-0.655567348003387451 0.00278289034031331539 -0.527478992938995361
0.290139973163604736 0.439282864332199097 -0.733702301979064941
-0.830764412879943848 0.540732681751251221 -0.315109819173812866
-0.773438334465026855 -0.742943346500396729 -0.390706777572631836
0.128338977694511414 -0.879310250282287598 -0.246158003807067871
-0.373464673757553101 -0.696509778499603271 -0.482115507125854492
0.0388787761330604553 0.0139762051403522491 -0.987420082092285156
-0.157531112432479858 -0.817587792873382568 0.337363064289093018
0.803436040878295898 -0.00521124061197042465 -0.352895408868789673
-0.281244993209838867 0.930604696273803711 -0.160075858235359192
-0.202282816171646118 0.631531715393066406 0.554296612739562988
-0.408323407173156738 0.418768942356109619 -0.753271758556365967
0.206374421715736389 0.486059755086898804 -0.693566560745239258
-0.433232605457305908 -0.63957744836807251 -0.545845270156860352
-0.162364214658737183 0.0578624308109283447 -0.930048048496246338
-0.993015468120574951 -0.328839927911758423 -0.0212016124278306961
0.0717760175466537476 0.988856375217437744 0.0380198843777179718
-0.457298576831817627 -0.501988470554351807 -0.678865969181060791
0.696210980415344238 -0.961902022361755371 -0.102883495390415192
0.481366127729415894 0.995871365070343018 -0.0125325499102473259
-0.341096788644790649 -0.800888895988464355 -0.355482488870620728
0.936959385871887207 -0.822052061557769775 0.151141241192817688
-0.827022671699523926 -0.95152592658996582 -0.127309679985046387
0.959434390068054199 0.340096086263656616 -0.107392758131027222
-0.0885583758354187012 0.819674372673034668 -0.330443471670150757
-0.231696873903274536 0.93358314037322998 -0.154633134603500366
-0.614567220211029053 -0.334955990314483643 -0.570495545864105225
0.514682531356811523 -0.600655972957611084 0.584682822227478027
0.365824311971664429 -0.952164411544799805 0.119559615850448608
0.992410898208618164 -0.604288816452026367 0.0141106769442558289
-0.924306333065032959 -0.165525108575820923 -0.172196313738822937
-0.434552878141403198 0.0509461350739002228 0.737943649291992188
0.31037476658821106 -0.813937902450561523 0.342838287353515625
0.172731220722198486 0.165852189064025879 0.925278663635253906
0.946035504341125488 -0.467563658952713013 -0.136479303240776062
-0.522233366966247559 -0.215135276317596436 0.661862075328826904
-0.578665435314178467 -0.851063072681427002 -0.287043839693069458
-0.607406675815582275 0.619465351104736328 0.566171646118164062
0.221551179885864258 -0.0338913649320602417 -0.896217584609985352
0.751885890960693359 -0.168954506516456604 -0.418362677097320557
-0.603432595729827881 0.844561934471130371 0.296898692846298218
-0.0516801811754703522 0.327833980321884155 -0.8215903639793396
-0.862587988376617432 -0.835969924926757812 -0.271108955144882202
-0.32521471381187439 0.996239542961120605 -0.01164279505610466
0.738300144672393799 -0.902090013027191162 -0.208714082837104797
0.465030550956726074 0.304644793272018433 -0.712974429130554199
0.581912696361541748 -0.356593042612075806 -0.605103790760040283
-0.189115047454833984 -0.634344041347503662 0.551528811454772949
0.0566173195838928223 0.881535887718200684 -0.242499649524688721
-0.40175783634185791 -0.177109658718109131 -0.766135692596435547
0.325173497200012207 0.98556441068649292 -0.0438193455338478088
-0.819513380527496338 0.805504202842712402 -0.331583678722381592
0.72522205114364624 0.942170560359954834 -0.142832249402999878
-0.151424035429954529 0.81595999002456665 -0.335579186677932739
-0.67309260368347168 -0.545698583126068115 0.511557400226593018
-0.623097896575927734 0.887876629829406738 -0.236143574118614197
0.438982188701629639 -0.543191909790039062 -0.640839219093322754
-0.89611738920211792 -0.994656682014465332 -0.0162197388708591461
0.989551067352294922 -0.593098461627960205 0.0333469919860363007
-0.531011700630187988 0.844056367874145508 0.297657102346420288
-0.274951577186584473 0.568848907947540283 -0.617160320281982422
-0.0451323986053466797 -0.948073148727416992 -0.133130013942718506
0.378345370292663574 0.710452258586883545 -0.469894915819168091
0.560655415058135986 -0.892562806606292725 -0.224374309182167053
-0.358193665742874146 -0.79742276668548584 -0.359930157661437988
0.0920803919434547424 -0.137382343411445618 -0.943884670734405518
0.429731667041778564 -0.796925127506256104 -0.360568732023239136
0.826168239116668701 -0.93535315990447998 0.154477432370185852
0.962199568748474121 -0.127826422452926636 0.0987160578370094299
0.109434306621551514 -0.368260979652404785 -0.794244825839996338
0.255099862813949585 0.728960275650024414 -0.447780609130859375
-0.45121842622756958 0.601752400398254395 0.583603739738464355
0.9100608229637146 -0.442417442798614502 -0.197617575526237488
-0.841673910617828369 0.419048845767974854 0.301231056451797485
0.741892158985137939 -0.808269500732421875 -0.346011728048324585
-0.805775761604309082 -0.769104540348052979 -0.349660396575927734
-0.133559271693229675 0.943740367889404297 -0.136071860790252686
-0.254718005657196045 -0.351352959871292114 -0.80392080545425415
0.82091909646987915 -0.154287517070770264 -0.328722476959228516
-0.164062127470970154 -0.665756285190582275 0.520335912704467773
0.194429606199264526 -0.3590354323387146 -0.800657212734222412
0.286284446716308594 -0.679295122623443604 -0.502584338188171387
0.850562453269958496 0.262405633926391602 -0.287736028432846069
-0.827199578285217285 -0.854220151901245117 -0.287048310041427612
0.87924039363861084 -0.692777514457702637 0.244877040386199951
0.295935392379760742 -0.699063777923583984 -0.481843471527099609
0.685662508010864258 -0.587682962417602539 0.496516376733779907
0.730567455291748047 -0.0251363925635814667 -0.443991482257843018
-0.13061581552028656 0.95215994119644165 -0.125758111476898193
-0.450628131628036499 0.962437927722930908 0.0982209518551826477
0.168106213212013245 -0.275365769863128662 0.859821736812591553
0.467981338500976562 -0.957348942756652832 0.10879102349281311
0.300679594278335571 0.889803171157836914 -0.233479872345924377
0.534816443920135498 0.067311502993106842 -0.648568987846374512
-0.55352318286895752 0.927452325820922852 0.170887887477874756
0.951156795024871826 0.164649829268455505 -0.122519165277481079
0.176611572504043579 -0.96669161319732666 -0.0941310673952102661
0.617025136947631836 -0.932647883892059326 -0.15634213387966156
-0.371788591146469116 -0.582290351390838623 0.602757275104522705
-0.484393000602722168 0.377035260200500488 0.697702229022979736
0.575690925121307373 -0.103593558073043823 -0.610845804214477539
-0.214465990662574768 -0.395530879497528076 -0.770730316638946533
-0.468813717365264893 -0.832666575908660889 -0.31247982382774353
0.0691171362996101379 -0.801358222961425781 0.358076244592666626
-0.612154066562652588 0.697652697563171387 -0.483323901891708374
-0.728943288326263428 0.404672592878341675 -0.447802424430847168
0.23834151029586792 0.353419363498687744 0.803451716899871826
-0.906267046928405762 0.569367647171020508 0.204333916306495667
-0.570015192031860352 -0.690348505973815918 -0.489012390375137329
-0.265677034854888916 -0.93317258358001709 -0.155383318662643433
-0.516955852508544922 0.920870482921600342 -0.177843958139419556
0.113107308745384216 0.777604043483734131 0.386500179767608643
0.0671417862176895142 -0.30311015248298645 -0.840165138244628906
-0.158186495304107666 0.5098152756690979 -0.671642541885375977
0.580435574054718018 0.020077558234333992 -0.606305778026580811
-0.56808096170425415 -0.751852333545684814 0.417314380407333374
-0.0595056340098381042 -0.306283622980117798 -0.83732306957244873
-0.940801918506622314 -0.282014429569244385 0.143160045146942139
-0.470905005931854248 -0.302360653877258301 -0.707552909851074219
0.900767982006072998 0.82821810245513916 0.212583139538764954
-0.989299595355987549 0.908781707286834717 0.0350386463105678558
0.111354060471057892 0.914514839649200439 -0.188290983438491821
0.600557446479797363 0.116532064974308014 -0.587896466255187988
-0.76538616418838501 -0.206926703453063965 0.401120007038116455
0.0343783684074878693 -0.921655356884002686 -0.176429867744445801
0.0281422417610883713 -0.755502283573150635 0.412946879863739014
0.568076133728027344 -0.985395252704620361 0.0505373515188694
0.544213950634002686 0.0873878449201583862 -0.639895975589752197
-0.532797157764434814 -0.815995872020721436 -0.336097300052642822
-0.338878244161605835 -0.951755344867706299 0.120409175753593445
-0.544357359409332275 0.98494642972946167 -0.0456952676177024841
-0.428983241319656372 -0.0808356404304504395 -0.742604374885559082
0.291803658008575439 -0.814180135726928711 0.342474907636642456
0.712900400161743164 -0.0119100166484713554 0.463923871517181396
-0.336657673120498657 -0.64761507511138916 -0.536847949028015137
-0.709433436393737793 0.352810651063919067 -0.470963835716247559
-0.875656366348266602 0.537859439849853516 -0.253039926290512085
-0.65082848072052002 0.974883198738098145 -0.0762422829866409302
-0.17033897340297699 0.740299522876739502 -0.43309745192527771
0.197305396199226379 0.961599647998809814 0.0999621227383613586
-0.0254082381725311279 -0.646041750907897949 -0.538609147071838379
0.219469413161277771 0.24303792417049408 -0.881282925605773926
0.269637554883956909 0.910269379615783691 -0.197236403822898865
-0.114008210599422455 -0.58315575122833252 -0.603956520557403564
0.813786804676055908 0.210985139012336731 0.343064934015274048
-0.163072869181632996 -0.435874104499816895 -0.739882946014404297
-0.278581738471984863 0.484306186437606812 -0.694787979125976562
0.879246890544891357 0.964982390403747559 -0.0943776220083236694
-0.4907664954662323 -0.0220198016613721848 0.692556202411651611
-0.558622896671295166 0.452776640653610229 -0.626597940921783447
0.389738559722900391 -0.70788198709487915 -0.469385474920272827
0.0313256122171878815 0.787782192230224609 -0.374539226293563843
-0.626051127910614014 0.489851802587509155 -0.558446884155273438
-0.439606964588165283 -0.315530449151992798 -0.73643791675567627
-0.233846813440322876 -0.767199814319610596 -0.398711949586868286
0.243163406848907471 -0.523142397403717041 0.660967469215393066
-0.853597044944763184 0.953937351703643799 -0.117438003420829773
0.654844403266906738 0.887519478797912598 0.232457444071769714
-0.315277278423309326 -0.801482558250427246 0.357927441596984863
-0.0903166830539703369 -0.546695291996002197 -0.637605905532836914
0.424613803625106812 -0.928902328014373779 0.167876109480857849
-0.951473414897918701 -0.573524296283721924 -0.127438157796859741
-0.689668595790863037 0.840570747852325439 -0.30456310510635376
0.101800419390201569 -0.950956583023071289 -0.12288501113653183
-0.276806861162185669 -0.00402289396151900291 -0.857811331748962402
-0.0501368492841720581 -0.538366377353668213 -0.645292699337005615
-0.102001681923866272 0.229224532842636108 -0.890776336193084717
-0.651842176914215088 -0.858734488487243652 0.275638222694396973
-0.0591963194310665131 -0.683658480644226074 0.498914361000061035
-0.130053073167800903 -0.896911025047302246 -0.221647366881370544
-0.205844566226005554 0.769369304180145264 -0.395928084850311279
0.739368975162506104 0.523935437202453613 -0.434139072895050049
-0.817116022109985352 -0.991568148136138916 0.0197794567793607712
-0.989429891109466553 0.104077205061912537 0.034162130206823349
0.50087970495223999 0.00813542120158672333 -0.680463254451751709
0.643670082092285156 -0.361771255731582642 -0.539961397647857666
-0.248293459415435791 -0.632143020629882812 -0.554167270660400391
0.390025168657302856 0.810312449932098389 0.347361713647842407
-0.58419191837310791 0.0892316028475761414 -0.603000283241271973
-0.730820417404174805 0.506703972816467285 -0.443708300590515137
0.0293270032852888107 0.739712238311767578 -0.433754831552505493
0.0617037452757358551 0.299296796321868896 -0.842179358005523682
0.24349665641784668 0.752207100391387939 -0.417950481176376343
0.376255452632904053 -0.436394989490509033 -0.739402234554290771
0.722171306610107422 0.430231243371963501 -0.453390121459960938
0.193798080086708069 0.438019096851348877 0.735145032405853271
0.525466978549957275 0.153977662324905396 -0.659212112426757812
0.80213475227355957 0.457422018051147461 -0.353883743286132812
-0.691602587699890137 0.619610130786895752 -0.489671587944030762
-0.632920980453491211 -0.430459856986999512 0.552929401397705078
-0.0721788331866264343 -0.346159219741821289 0.809313654899597168
0.619124174118041992 -0.525226891040802002 0.566507399082183838
0.217200696468353271 -0.786255121231079102 -0.374260395765304565
