ply
format ascii 1.0
element vertex 739
property float x
property float y
property float z
end_header
0.405273467302322388 -0.0584442131221294403 0.742929220199584961
-0.14194151759147644 0.494204461574554443 -0.623005688190460205
0.831906795501708984 -0.0787291675806045532 0.274719268083572388
-0.834558248519897461 0.298135697841644287 0.0169591791927814484
0.000857276434544473886 0.347097188234329224 -0.806690573692321777
-0.266836374998092651 0.499723225831985474 0.530237495899200439
0.227628037333488464 -0.135715767741203308 -0.83482891321182251
-0.108210094273090363 0.287956416606903076 -0.808108389377593994
0.351875811815261841 -0.544378817081451416 -0.409976363182067871
-0.226382508873939514 -0.198735088109970093 0.799350559711456299
-0.420907974243164062 -0.116308689117431641 0.703041791915893555
0.0884269028902053833 -0.420550525188446045 -0.717794716358184814
0.499841302633285522 -0.637454569339752197 -0.101657688617706299
-0.759660065174102783 -0.374397337436676025 0.0755781158804893494
0.150211691856384277 0.85158151388168335 -0.184123128652572632
-0.573521554470062256 0.567955195903778076 -0.104871198534965515
-0.364187151193618774 -0.277330338954925537 0.642921805381774902
0.848418593406677246 -0.284072935581207275 -0.0271153002977371216
0.514786243438720703 -0.573494076728820801 -0.182424619793891907
-0.212066859006881714 0.469510704278945923 -0.599047005176544189
-0.0864370018243789673 -0.165698245167732239 -0.900128006935119629
0.376601696014404297 0.647556304931640625 0.252721905708312988
0.36113661527633667 0.285157710313796997 -0.639367401599884033
0.880860090255737305 0.231252163648605347 0.0122066717594861984
-0.0352646671235561371 -0.704896986484527588 0.459090858697891235
0.465666264295578003 0.510137736797332764 -0.327524423599243164
-0.351686090230941772 0.164707303047180176 -0.731719136238098145
0.16163162887096405 -0.896146178245544434 -0.0950600132346153259
0.694036662578582764 0.0203896239399909973 0.478458404541015625
-0.518704771995544434 0.0650023669004440308 0.641091346740722656
0.442514240741729736 0.158645287156105042 -0.659423112869262695
-0.281070739030838013 -0.349226266145706177 0.652390658855438232
0.812089920043945312 -0.0166007690131664276 -0.336118370294570923
-0.250228703022003174 -0.860858500003814697 -0.0446270331740379333
-0.0200486462563276291 0.573550224304199219 -0.606698215007781982
-0.571767270565032959 0.302999019622802734 -0.422714740037918091
-0.770632922649383545 -0.12861420214176178 0.324775040149688721
0.737541139125823975 -0.190612733364105225 -0.316999882459640503
0.739180803298950195 -0.0741819068789482117 -0.402677297592163086
-0.184765949845314026 -0.73578953742980957 -0.323896735906600952
-0.424471735954284668 -0.0319838821887969971 -0.739771783351898193
-0.595913529396057129 0.194781303405761719 0.484195798635482788
-0.933365881443023682 -0.0540069974958896637 0.123793065547943115
-0.597417652606964111 -0.246639847755432129 -0.441776007413864136
0.35782313346862793 0.265267461538314819 -0.657722055912017822
-0.390306293964385986 0.18167780339717865 -0.687452077865600586
0.3507232666015625 0.296516895294189453 0.638736546039581299
-0.318089544773101807 0.132926255464553833 0.773812830448150635
0.145207837224006653 0.179366931319236755 -0.861972033977508545
0.254292041063308716 -0.796950638294219971 -0.168918073177337646
-0.00251589762046933174 0.883168578147888184 -0.229695335030555725
0.217116743326187134 0.421314507722854614 0.637214362621307373
0.588862895965576172 -0.0645154267549514771 0.572484612464904785
0.619921207427978516 0.535148262977600098 -0.068548254668712616
-0.0645900368690490723 -0.665780246257781982 -0.489167094230651855
-0.0623909458518028259 0.863125741481781006 -0.239791333675384521
-0.261971354484558105 0.343334347009658813 0.671652019023895264
-0.468223839998245239 0.617052972316741943 0.188704833388328552
0.0781270116567611694 0.657790899276733398 -0.4931659996509552
0.774175345897674561 -0.366327941417694092 -0.0560432001948356628
-0.275906354188919067 0.258805036544799805 -0.723442733287811279
0.155824348330497742 0.0763501375913619995 -0.908051908016204834
0.440493077039718628 -0.438297629356384277 -0.431755661964416504
0.0632370635867118835 0.59636986255645752 0.56676560640335083
-0.295989811420440674 0.249142512679100037 -0.715328872203826904
-0.577212929725646973 -0.198187261819839478 -0.501970529556274414
-0.603203237056732178 -0.402575790882110596 -0.287092775106430054
-0.28307032585144043 -0.679246366024017334 -0.308959364891052246
0.632038712501525879 -0.31751549243927002 -0.338385462760925293
-0.335073262453079224 0.71914142370223999 -0.197097659111022949
-0.678382277488708496 0.463870108127593994 -0.0929171368479728699
0.91933828592300415 0.0355013124644756317 -0.159292057156562805
0.619547545909881592 0.197564020752906799 -0.455110073089599609
0.733311474323272705 0.167794838547706604 -0.341334342956542969
-0.444790095090866089 0.646480977535247803 -0.169517412781715393
-0.45397832989692688 0.434879809617996216 0.419735640287399292
0.0983711257576942444 0.932455122470855713 -0.0927686169743537903
0.641436874866485596 -0.117833122611045837 0.489600181579589844
0.772517025470733643 -0.141060084104537964 -0.310510933399200439
-0.810621440410614014 0.321898728609085083 -0.0460031628608703613
-0.810750365257263184 -0.14616549015045166 -0.257131576538085938
-0.664717912673950195 -0.332409769296646118 0.281279504299163818
0.280637592077255249 -0.828971207141876221 -0.0805850997567176819
0.779481709003448486 -0.192442715167999268 0.260277658700942993
-0.631379783153533936 -0.244825318455696106 0.404284119606018066
-0.323976904153823853 -0.239577233791351318 0.703807413578033447
0.646856844425201416 0.00950190052390098572 0.536133825778961182
-0.815149843692779541 0.129234865307807922 -0.262355923652648926
0.126825720071792603 0.650151669979095459 0.472162723541259766
-0.873307585716247559 -0.120746202766895294 -0.17501811683177948
-0.134209409356117249 0.701131522655487061 -0.411271065473556519
0.262699633836746216 -0.204428359866142273 -0.771946251392364502
-0.604571282863616943 -0.0232167970389127731 -0.576840698719024658
0.665898442268371582 0.126666158437728882 -0.456745445728302002
-0.501304745674133301 0.160320952534675598 -0.604053497314453125
-0.702774226665496826 -0.334077507257461548 -0.225199729204177856
0.781123101711273193 0.0668030828237533569 -0.349954664707183838
-0.751261353492736816 0.0922389030456542969 0.374773472547531128
-0.488987207412719727 -0.0896961241960525513 -0.657848000526428223
0.300603985786437988 -0.505618870258331299 -0.495980888605117798
0.551968932151794434 -0.620259940624237061 0.0336446948349475861
0.195028215646743774 -0.866426348686218262 -0.121060892939567566
0.0837048366665840149 -0.591194450855255127 -0.559531271457672119
0.514465212821960449 -0.240657374262809753 -0.533769428730010986
-0.365067780017852783 -0.542616963386535645 -0.398073792457580566
0.713441431522369385 -0.334761828184127808 0.210109993815422058
-0.0461472831666469574 0.185572803020477295 -0.906163036823272705
0.371114730834960938 -0.710085630416870117 -0.165984734892845154
-0.0226064138114452362 -0.58667832612991333 -0.593126416206359863
-0.174830213189125061 0.109365850687026978 -0.882079064846038818
0.137428328394889832 0.229540511965751648 -0.832758665084838867
0.0745584219694137573 -0.53841787576675415 -0.619063794612884521
-0.964575290679931641 -0.0731530413031578064 0.0292236413806676865
-0.368616074323654175 -0.512079596519470215 -0.428912729024887085
-0.163377955555915833 0.739216446876525879 -0.337535232305526733
-0.150015011429786682 0.0484605543315410614 -0.923638582229614258
0.072763100266456604 -0.590437054634094238 -0.569893181324005127
-0.412513315677642822 -0.33673626184463501 -0.551329493522644043
-0.134394481778144836 0.430586278438568115 0.685094356536865234
0.555990397930145264 0.256818175315856934 -0.4806784987449646
-0.328025341033935547 -0.801150381565093994 -0.0577570050954818726
0.21976839005947113 0.135934948921203613 -0.840473175048828125
0.588547646999359131 -0.587041854858398438 0.0333720073103904724
0.42416873574256897 0.433032691478729248 0.452420294284820557
-0.774093866348266602 0.323046207427978516 0.125875875353813171
0.0874891728162765503 -0.667231917381286621 -0.478969067335128784
-0.057048797607421875 -0.537100911140441895 -0.628961026668548584
0.71684730052947998 -0.287887305021286011 0.253040999174118042
-0.369460374116897583 0.510135293006896973 -0.427202522754669189
-0.247380897402763367 0.827482163906097412 0.120876394212245941
0.648112118244171143 0.00605279766023159027 -0.532495558261871338
0.711966753005981445 -0.393726438283920288 0.137219697237014771
-0.465660691261291504 -0.302559733390808105 0.533268272876739502
-0.37018817663192749 -0.777298450469970703 -0.0441194623708724976
0.139374509453773499 -0.65849769115447998 -0.455337464809417725
0.00187899405136704445 0.371993005275726318 0.786361217498779297
0.315483063459396362 -0.544821083545684814 -0.439871490001678467
-0.659102916717529297 -0.356526762247085571 -0.265929460525512695
0.593643784523010254 0.310959368944168091 -0.391032904386520386
0.293285191059112549 -0.0689266026020050049 -0.823654651641845703
0.393141180276870728 0.447527974843978882 0.470200628042221069
-0.369978338479995728 0.0456268787384033203 -0.776473820209503174
0.714698553085327148 0.421499013900756836 -0.0921635031700134277
0.299839437007904053 0.303840994834899902 -0.673123955726623535
-0.211504563689231873 -0.588849663734436035 0.478549063205718994
0.0623967349529266357 -0.143240004777908325 0.922117352485656738
0.371024399995803833 -0.054536331444978714 -0.773890018463134766
-0.100762262940406799 0.184490814805030823 -0.882137417793273926
-0.654969096183776855 -0.280574142932891846 0.347171425819396973
-0.306852519512176514 0.260067790746688843 -0.699453294277191162
-0.502994537353515625 -0.347630083560943604 -0.458903342485427856
-0.280407041311264038 -0.44391864538192749 -0.569781243801116943
0.864219963550567627 0.14056318998336792 -0.171569481492042542
0.0797182992100715637 -0.318558603525161743 -0.802528023719787598
0.314764440059661865 -0.0568414479494094849 0.815227150917053223
-0.1622048020362854 0.575844228267669678 -0.527835726737976074
0.444586992263793945 0.309214383363723755 -0.546783387660980225
0.542451679706573486 -0.543188989162445068 0.19082525372505188
-0.0166126936674118042 0.991030514240264893 -0.00880566146224737167
0.217110410332679749 0.365705698728561401 -0.684740185737609863
0.381495475769042969 -0.67875593900680542 0.204292282462120056
-0.489142298698425293 -0.358230233192443848 -0.462966710329055786
-0.111386381089687347 -0.482677429914474487 -0.651176989078521729
0.58230745792388916 0.282867759466171265 0.425848245620727539
-0.835936307907104492 -0.252078592777252197 0.0969173312187194824
0.106893621385097504 0.946244478225708008 -0.0385531000792980194
0.538385152816772461 0.638775825500488281 -0.0172740891575813293
-0.490259498357772827 -0.171818569302558899 -0.606603324413299561
-0.023809501901268959 0.71944659948348999 0.448893964290618896
-0.425175458192825317 -0.222841843962669373 -0.629434049129486084
-0.119299188256263733 0.560484647750854492 -0.570270955562591553
0.943970978260040283 0.0568746589124202728 -0.0994284078478813171
0.056737113744020462 -0.693128585815429688 -0.464096516370773315
-0.710861086845397949 0.191436320543289185 0.357007533311843872
-0.461344927549362183 -0.653815865516662598 0.133660465478897095
-0.077449016273021698 0.57422029972076416 0.580478370189666748
-0.570653319358825684 0.345249950885772705 -0.382445424795150757
-0.676696836948394775 0.324403733015060425 -0.27307543158531189
0.365064233541488647 -0.00899846293032169342 0.791656017303466797
-0.90162283182144165 -0.145100265741348267 0.0960405692458152771
0.682162106037139893 -0.131223917007446289 -0.43290361762046814
0.433834820985794067 0.0349982306361198425 -0.727599740028381348
0.957259237766265869 0.00212156330235302448 -0.101129144430160522
-0.501098036766052246 0.541976451873779297 -0.244448170065879822
-0.584128737449645996 0.0487154349684715271 -0.585593223571777344
0.864125370979309082 0.142184048891067505 -0.172554671764373779
-0.627322971820831299 -0.5175933837890625 -0.0882612168788909912
0.608043313026428223 0.196862295269966125 -0.471260577440261841
-0.0929163247346878052 -0.46855318546295166 -0.671985447406768799
-0.494128525257110596 0.623901546001434326 -0.139895275235176086
-0.47256624698638916 0.219392523169517517 -0.592141568660736084
0.188850641250610352 0.600590705871582031 0.483112156391143799
0.436695277690887451 -0.486251860857009888 -0.389281541109085083
0.627782762050628662 -0.384289950132369995 -0.272614270448684692
0.086324445903301239 0.464875131845474243 0.681316137313842773
0.731680512428283691 -0.256728976964950562 0.263954639434814453
-0.26270759105682373 -0.596665680408477783 -0.429451972246170044
-0.662074089050292969 -0.206398084759712219 0.401110529899597168
-0.575707793235778809 0.335265606641769409 -0.390210926532745361
0.7459983229637146 -0.0475263148546218872 -0.409192115068435669
0.129108190536499023 -0.608219563961029053 0.520504534244537354
-0.772123992443084717 -0.0971691608428955078 -0.34248507022857666
-0.230334475636482239 0.788590550422668457 -0.20966067910194397
-0.375662177801132202 -0.698234140872955322 -0.179507285356521606
-0.0850308984518051147 0.287806868553161621 0.822900295257568359
-0.32867354154586792 -0.245294272899627686 -0.693634688854217529
0.887593686580657959 0.220476344227790833 -0.0296876970678567886
-0.973773360252380371 -0.0250452551990747452 -0.0519249811768531799
0.843183994293212891 -0.291314363479614258 -0.00650012306869029999
0.300706237554550171 0.795555293560028076 0.110475830733776093
0.701280415058135986 -0.151905804872512817 0.394070059061050415
-0.517542719841003418 -0.128107890486717224 0.606329381465911865
0.2164803147315979 0.320918679237365723 0.721211731433868408
0.0670203566551208496 -0.430669635534286499 0.718274712562561035
0.261862039566040039 0.728300869464874268 -0.265298515558242798
-0.0478573888540267944 -0.174941107630729675 -0.911695599555969238
-0.232153356075286865 0.45971381664276123 -0.594119131565093994
-0.713453948497772217 0.420235157012939453 -0.0926215872168540955
0.419992804527282715 0.626479148864746094 -0.230689078569412231
0.787186145782470703 -0.353028059005737305 -0.0463181883096694946
0.146767556667327881 -0.421504855155944824 -0.683403968811035156
-0.120560742914676666 0.62966078519821167 0.500391125679016113
0.900243461132049561 0.169954404234886169 -0.0750032663345336914
-0.673386871814727783 0.439076870679855347 0.13365703821182251
0.237666592001914978 -0.615270793437957764 0.429904639720916748
-0.284860670566558838 -0.368705570697784424 -0.63243788480758667
-0.0865691155195236206 0.488587677478790283 -0.656365752220153809
0.570550024509429932 0.446091830730438232 -0.27509540319442749
0.2331056147813797 0.870108604431152344 -0.0480678938329219818
-0.57502901554107666 -0.418170541524887085 -0.305308163166046143
0.481373965740203857 0.454558283090591431 0.372271925210952759
-0.356896340847015381 -0.729890346527099609 -0.156393468379974365
0.503012001514434814 0.00943058449774980545 0.677721202373504639
0.584524452686309814 0.299636691808700562 -0.41201213002204895
0.728545665740966797 0.024206971749663353 -0.437700897455215454
0.815189063549041748 0.333803415298461914 -0.0138942180201411247
0.0455979183316230774 -0.876082897186279297 -0.230855107307434082
0.220280632376670837 0.812471091747283936 -0.180233940482139587
0.39227449893951416 -0.770164728164672852 -0.0117590446025133133
0.514602422714233398 -0.448513388633728027 -0.339221864938735962
0.370863914489746094 0.181510820984840393 -0.703512370586395264
0.901545286178588867 -0.114511854946613312 0.13447137176990509
0.0097647886723279953 -0.300239056348800659 -0.839304864406585693
-0.021321294829249382 0.958428263664245605 -0.0911926105618476868
-0.293058931827545166 -0.328748941421508789 0.659498035907745361
0.77658158540725708 -0.145135596394538879 -0.304396122694015503
-0.595512211322784424 0.388658583164215088 -0.310181885957717896
0.450753122568130493 -0.59278637170791626 -0.241180181503295898
-0.0352913662791252136 0.561614155769348145 0.611054956912994385
-0.189566940069198608 0.619349002838134766 -0.461193621158599854
-0.841251373291015625 -0.141532391309738159 0.21031796932220459
-0.81672435998916626 0.285838574171066284 -0.0900743156671524048
-0.364194244146347046 0.519501805305480957 0.420342743396759033
0.351777702569961548 0.178341448307037354 -0.721968472003936768
0.625100493431091309 -0.245714828372001648 0.410485178232192993
-0.704553008079528809 -0.046324852854013443 0.454321324825286865
0.239332929253578186 -0.879175305366516113 -0.006944228895008564
-0.254915326833724976 -0.18435312807559967 0.788636624813079834
0.1325560063123703 0.462650060653686523 -0.65577542781829834
0.310757279396057129 0.00467333151027560234 -0.832535386085510254
0.145247176289558411 -0.383991658687591553 -0.717265486717224121
0.0860937982797622681 -0.208238720893859863 0.872642815113067627
-0.330835014581680298 0.430243343114852905 -0.541727542877197266
-0.0316462069749832153 -0.090495571494102478 -0.961387813091278076
0.639842092990875244 -0.228856444358825684 -0.410225182771682739
-0.282418489456176758 -0.310866087675094604 -0.681557595729827881
0.931018173694610596 -0.00729244109243154526 0.155068069696426392
0.306058168411254883 0.783147692680358887 -0.127042904496192932
-0.577582240104675293 -0.230637922883033752 -0.477567166090011597
-0.0101328417658805847 0.395229339599609375 -0.768886744976043701
0.89350813627243042 0.147095412015914917 0.113590523600578308
-0.20077890157699585 0.196750909090042114 -0.816031694412231445
0.930742383003234863 0.123902603983879089 -0.0581144951283931732
0.459829986095428467 0.694160342216491699 0.0608390010893344879
0.176396086812019348 -0.167059868574142456 0.850647091865539551
0.0519038103520870209 -0.279020875692367554 0.843071579933166504
-0.323553711175918579 0.0863243639469146729 -0.793239831924438477
-0.274751424789428711 -0.23583124577999115 -0.741265535354614258
0.55326002836227417 -0.360503077507019043 0.390477806329727173
-0.0334329269826412201 -0.684881985187530518 -0.484767735004425049
0.556714415550231934 -0.106177926063537598 -0.586584746837615967
0.465470641851425171 0.339045494794845581 -0.501461446285247803
0.662753462791442871 0.499077558517456055 -0.0500982962548732758
-0.0297493431717157364 0.981244206428527832 -0.0261418335139751434
-0.809924542903900146 -0.0450487546622753143 0.328340202569961548
0.877925753593444824 -0.229296088218688965 0.0385626927018165588
-0.114364750683307648 0.885495543479919434 -0.160078823566436768
0.238939136266708374 0.149851799011230469 -0.819299757480621338
0.218893945217132568 0.328404247760772705 0.713450729846954346
0.816629767417907715 0.110081344842910767 -0.275937378406524658
0.329404830932617188 0.721274018287658691 0.206532329320907593
0.000716763839591294527 0.816353499889373779 -0.327166050672531128
-0.652753174304962158 0.437339067459106445 -0.169048398733139038
0.42301332950592041 0.517518222332000732 -0.365675002336502075
0.252764701843261719 -0.0394044294953346252 -0.865702807903289795
0.0276409704238176346 0.976538002490997314 -0.0421581640839576721
0.750438451766967773 0.0367287881672382355 -0.410236179828643799
-0.35304144024848938 0.198868140578269958 -0.70645296573638916
-0.0102709447965025902 0.352759093046188354 0.80131298303604126
-0.389494180679321289 0.0365216098725795746 -0.765788614749908447
0.788192152976989746 -0.139760598540306091 -0.294318109750747681
-0.290532678365707397 0.371001273393630981 0.625099837779998779
-0.235680341720581055 0.458041876554489136 -0.592607617378234863
-0.398949295282363892 -0.372871935367584229 0.535103440284729004
-0.154858618974685669 0.853696048259735107 0.183944284915924072
0.182995527982711792 0.101401910185813904 0.880295038223266602
-0.472444057464599609 -0.16169622540473938 -0.631324350833892822
0.175505980849266052 -0.545403361320495605 -0.551152706146240234
0.767719686031341553 0.0765208825469017029 0.365540027618408203
-0.536456644535064697 0.520212769508361816 -0.231222480535507202
-0.123480543494224548 -0.863873839378356934 -0.190496876835823059
-0.46956971287727356 -0.295890152454376221 -0.532699406147003174
-0.0688614621758460999 -0.883004665374755859 -0.202152371406555176
0.634184718132019043 0.53118973970413208 0.0564080514013767242
0.291355162858963013 -0.598341166973114014 0.403272271156311035
0.442276507616043091 0.220681354403495789 -0.617867887020111084
-0.310053110122680664 0.104803204536437988 0.794557094573974609
0.177774593234062195 -0.886793434619903564 0.09095010906457901
-0.3487376868724823 -0.381357669830322266 -0.56875687837600708
0.344942986965179443 -0.777710795402526855 -0.0797813385725021362
-0.614665091037750244 -0.518658757209777832 0.112478122115135193
0.249792680144309998 -0.337607264518737793 -0.683340132236480713
0.434112429618835449 0.231871351599693298 -0.615757524967193604
0.247475370764732361 0.545140564441680908 -0.495901614427566528
-0.321557879447937012 -0.00578802125528454781 0.827044785022735596
0.818348884582519531 -0.107198283076286316 -0.275924891233444214
0.0797567963600158691 0.760915875434875488 -0.367570370435714722
-0.534967422485351562 -0.623270213603973389 -0.0756040811538696289
-0.403474599123001099 0.0151951340958476067 -0.760763049125671387
0.0857233777642250061 0.622591078281402588 0.529565155506134033
-0.388433486223220825 0.498322725296020508 -0.4219169020652771
-0.235153734683990479 0.745571553707122803 -0.269694924354553223
0.0901998728513717651 0.203576520085334778 -0.876396119594573975
-0.199674203991889954 -0.209613442420959473 0.810355126857757568
-0.63932490348815918 0.226682990789413452 0.411159247159957886
0.242131620645523071 -0.1181960329413414 -0.835114240646362305
0.0187616869807243347 -0.799238502979278564 0.353628575801849365
-0.333041727542877197 -0.358235210180282593 0.601643562316894531
-0.0873375982046127319 -0.915268898010253906 -0.127907648682594299
-0.958917319774627686 0.0959116294980049133 -0.0060774507001042366
-0.0131581984460353851 -0.358817368745803833 -0.798328399658203125
0.0127558968961238861 -0.969083786010742188 -0.0706165581941604614
0.543602824211120605 -0.613566756248474121 -0.0654267966747283936
0.60788881778717041 -0.561217844486236572 -0.0422012060880661011
0.712328493595123291 0.196035116910934448 -0.345676124095916748
-0.43932342529296875 0.714402496814727783 0.057762783020734787
0.0786130130290985107 0.390455752611160278 0.745549976825714111
-0.547564923763275146 0.0216148048639297485 0.630776703357696533
0.401087343692779541 0.678338050842285156 0.182798758149147034
-0.157875671982765198 0.698987960815429688 -0.392211049795150757
-0.220790043473243713 -0.523525655269622803 -0.540275096893310547
0.043313492089509964 0.933563292026519775 0.129878953099250793
-0.421374887228012085 -0.437391787767410278 -0.451968967914581299
0.595805108547210693 0.306596159934997559 -0.396021842956542969
-0.479363292455673218 -0.604384779930114746 0.19088059663772583
0.520112395286560059 0.0144872125238180161 0.658991754055023193
0.116801910102367401 -0.104390457272529602 -0.915457010269165039
0.289573371410369873 -0.773151874542236328 0.170324802398681641
-0.803103446960449219 -0.325203597545623779 -0.065777994692325592
0.724662244319915771 0.416032969951629639 -0.0817768797278404236
0.391062945127487183 0.684135317802429199 -0.187190547585487366
-0.784824728965759277 -0.020525636151432991 -0.369279086589813232
0.058904692530632019 0.919535458087921143 0.150491312146186829
0.689533233642578125 0.341044157743453979 -0.23838527500629425
0.482273995876312256 0.597028255462646484 0.19780692458152771
0.17884749174118042 0.656654894351959229 0.428207814693450928
-0.788414657115936279 -0.119794800877571106 0.308291405439376831
-0.25431215763092041 -0.805213809013366699 0.159490108489990234
0.44843590259552002 0.624479949474334717 0.200068578124046326
-0.399805784225463867 -0.264843523502349854 -0.622936546802520752
-0.372193276882171631 -0.126935169100761414 -0.738788902759552002
0.938229680061340332 -0.102062560617923737 -0.0662618204951286316
-0.167107194662094116 0.765238046646118164 -0.302443653345108032
-0.4069100022315979 -0.166859462857246399 -0.682646334171295166
0.588172256946563721 -0.256137222051620483 0.442788839340209961
-0.49112093448638916 0.454651594161987305 0.361969888210296631
-0.725014686584472656 -0.218273401260375977 0.312810540199279785
0.314290940761566162 0.707441866397857666 0.239529520273208618
0.599984526634216309 -0.580510556697845459 -0.00768608925864100456
-0.570593595504760742 -0.291626781225204468 0.431274235248565674
0.157671913504600525 -0.150346368551254272 -0.869608759880065918
0.677282273769378662 0.446927070617675781 0.113556727766990662
0.334289520978927612 -0.359171807765960693 -0.602415919303894043
0.484964430332183838 0.58065485954284668 -0.215534433722496033
-0.847902297973632812 -0.243042051792144775 0.0850781500339508057
0.207758411765098572 0.792230129241943359 0.224116012454032898
0.687407433986663818 0.299333274364471436 -0.285940825939178467
0.442455440759658813 0.120518147945404053 -0.679586887359619141
0.633694052696228027 0.151568055152893066 0.474783509969711304
-0.931359767913818359 0.0207787379622459412 -0.147043555974960327
0.212926387786865234 -0.506314873695373535 0.562776565551757812
-0.855307817459106445 0.163473829627037048 -0.165212675929069519
-0.132060497999191284 -0.760497152805328369 0.337066352367401123
-0.530397593975067139 -0.651467025279998779 -0.0163358822464942932
0.50428694486618042 0.206138268113136292 -0.572737395763397217
-0.604309260845184326 0.482274770736694336 -0.182505890727043152
0.759587585926055908 0.220003679394721985 -0.263354003429412842
0.467819631099700928 0.606489777565002441 -0.199171960353851318
-0.404166370630264282 -0.354380339384078979 0.546283304691314697
-0.748317480087280273 0.192802712321281433 0.302072614431381226
0.112309224903583527 -0.146404281258583069 -0.896969377994537354
-0.150464326143264771 0.72666323184967041 -0.362881898880004883
-0.684964656829833984 -0.398726552724838257 0.178227975964546204
-0.421951204538345337 0.289189368486404419 0.583125889301300049
-0.113846547901630402 -0.515633702278137207 0.618273735046386719
-0.665769517421722412 -0.311572164297103882 -0.299946010112762451
-0.891430258750915527 -0.0483935512602329254 0.204857587814331055
-0.0603117868304252625 -0.634971499443054199 -0.525922894477844238
0.415746062994003296 -0.621148586273193359 -0.247339725494384766
-0.341074913740158081 -0.0131486067548394203 -0.810465693473815918
0.483312040567398071 0.181482821702957153 -0.607200860977172852
-0.219029635190963745 -0.631167173385620117 -0.42676931619644165
-0.963164389133453369 0.0270777232944965363 -0.0833841785788536072
-0.0044658132828772068 0.377381384372711182 -0.78622126579284668
0.306388348340988159 0.438727408647537231 -0.552312254905700684
-0.559615194797515869 0.296574920415878296 -0.440620869398117065
-0.0545841045677661896 0.390862852334976196 -0.757912278175354004
-0.0872607603669166565 0.60786515474319458 -0.541658520698547363
0.0914327055215835571 0.877658247947692871 0.194758683443069458
-0.481016755104064941 -0.365956574678421021 -0.463656365871429443
0.971196234226226807 -0.0416895337402820587 0.055946696549654007
0.0906736254692077637 -0.280765354633331299 0.824779212474822998
0.562101602554321289 0.0256542433053255081 0.615797221660614014
-0.330560147762298584 0.0752129033207893372 -0.793150603771209717
-0.00953719671815633774 -0.75110161304473877 -0.412649780511856079
-0.891061484813690186 0.208784222602844238 0.0464942343533039093
0.5719565749168396 0.45885881781578064 -0.26228630542755127
0.135336056351661682 0.561566352844238281 -0.559297442436218262
-0.434881508350372314 0.697663366794586182 0.0965367481112480164
-0.234717875719070435 0.105760082602500916 -0.845886886119842529
0.552943885326385498 -0.0720920935273170471 0.603235602378845215
0.534500360488891602 0.0652132183313369751 -0.626098215579986572
-0.302398204803466797 -0.801515400409698486 -0.10562489926815033
-0.0770578905940055847 -0.312108337879180908 0.807393550872802734
-0.289864510297775269 0.667905867099761963 -0.320930123329162598
0.0546690672636032104 -0.836113572120666504 -0.285956382751464844
-0.115244589745998383 -0.309455633163452148 -0.793142378330230713
-0.841381251811981201 0.26415938138961792 -0.0728361904621124268
0.215988248586654663 -0.393964022397994995 -0.660398662090301514
0.0661740973591804504 0.335755527019500732 -0.793295800685882568
0.386958837509155273 -0.699237823486328125 -0.167732760310173035
0.745032906532287598 0.314651608467102051 -0.181474164128303528
-0.265103369951248169 -0.379313468933105469 -0.642360091209411621
0.348961591720581055 0.663540840148925781 -0.266619473695755005
-0.495819926261901855 -0.22983887791633606 0.56070709228515625
0.104113630950450897 -0.943496227264404297 0.0540715530514717102
-0.0117396218702197075 -0.958253204822540283 -0.104002788662910461
0.020169546827673912 0.813597261905670166 0.332521945238113403
0.80510258674621582 0.188258692622184753 -0.222572460770606995
0.333701491355895996 -0.0368635095655918121 0.80819237232208252
-0.346943050622940063 0.134903788566589355 0.750444531440734863
0.0392079912126064301 0.265999525785446167 0.855378210544586182
0.108885683119297028 -0.906957805156707764 0.128599554300308228
-0.44419822096824646 0.389317423105239868 -0.47782549262046814
0.145642787218093872 -0.55537337064743042 0.559670686721801758
-0.532432317733764648 -0.0798133909702301025 0.619419574737548828
-0.673391461372375488 -0.209518641233444214 -0.38454967737197876
0.345197618007659912 -0.163541063666343689 -0.73808443546295166
-0.383857309818267822 -0.0239715483039617538 0.7726326584815979
-0.621560335159301758 -0.2813454270362854 0.384444057941436768
0.390669167041778564 0.195464476943016052 -0.677986860275268555
0.390074342489242554 0.695686697959899902 -0.168694585561752319
0.155884608626365662 -0.763711512088775635 0.312159210443496704
0.295156270265579224 -0.486139416694641113 -0.518359005451202393
0.150941625237464905 0.732762336730957031 -0.354887902736663818
-0.0678820386528968811 -0.00686202524229884148 -0.975395023822784424
-0.0241091884672641754 -0.392428308725357056 -0.766892611980438232
0.231570452451705933 -0.147665277123451233 0.828394114971160889
0.177538424730300903 -0.858323991298675537 0.148360922932624817
0.84052962064743042 -0.295670121908187866 0.0065662073902785778
-0.534340202808380127 -0.523693382740020752 0.228313952684402466
0.260770738124847412 0.612724602222442627 0.410877704620361328
-0.273558974266052246 -0.687800824642181396 -0.309745758771896362
0.639436960220336914 0.138652235269546509 -0.478718221187591553
0.813978016376495361 0.157340332865715027 -0.241496428847312927
-0.662114262580871582 0.425416171550750732 -0.17179553210735321
0.305467993021011353 -0.617235898971557617 -0.365074336528778076
0.59960097074508667 -0.576122522354125977 0.0179734025150537491
-0.387124449014663696 0.135289207100868225 -0.719591438770294189
0.444170087575912476 -0.310941904783248901 -0.544838845729827881
-0.279388010501861572 -0.509434103965759277 -0.507754623889923096
-0.338765591382980347 -0.2783660888671875 -0.661182224750518799
-0.419729679822921753 0.566798925399780273 -0.311821579933166504
0.275908112525939941 -0.0177034419029951096 0.85575634241104126
0.92295759916305542 0.146749168634414673 0.054172080010175705
-0.126894846558570862 0.92738950252532959 -0.0674278959631919861
-0.54550701379776001 0.0716439932584762573 -0.612025201320648193
-0.721063435077667236 -0.363444298505783081 -0.160994842648506165
-0.0734383687376976013 0.953642368316650391 -0.0590644627809524536
-0.261074841022491455 0.262379735708236694 -0.734884500503540039
0.7540169358253479 -0.180741414427757263 -0.30674859881401062
0.851101517677307129 0.117861822247505188 0.215083658695220947
-0.689106464385986328 0.42633509635925293 0.1292010098695755
-0.261622458696365356 -0.662156760692596436 0.35477110743522644
0.722414791584014893 -0.362117767333984375 0.166075974702835083
-0.557843327522277832 -0.540777504444122314 -0.168054684996604919
-0.782189905643463135 0.0494753122329711914 0.361509799957275391
0.491929113864898682 0.452770888805389404 -0.360146194696426392
-0.159093171358108521 0.671518445014953613 -0.425241351127624512
-0.0609158910810947418 -0.420269876718521118 0.729062676429748535
-0.467956572771072388 0.371549338102340698 -0.470657646656036377
-0.165238708257675171 -0.766232430934906006 0.301067978143692017
0.747009634971618652 -0.237243309617042542 0.261324822902679443
0.313413470983505249 0.475389719009399414 -0.511476337909698486
-0.649194896221160889 -0.260760009288787842 -0.36844182014465332
-0.158828511834144592 0.730313599109649658 -0.355130225419998169
-0.492249608039855957 0.617944180965423584 -0.148387089371681213
-0.353589504957199097 0.223519712686538696 -0.689015984535217285
-0.056794971227645874 -0.268961608409881592 -0.845348179340362549
0.166390851140022278 0.190255612134933472 0.843456149101257324
-0.712572872638702393 0.366996407508850098 -0.168300911784172058
0.525160014629364014 -0.567127883434295654 -0.17937806248664856
-0.302602320909500122 0.229730814695358276 0.725248336791992188
-0.0890959128737449646 0.417623549699783325 -0.717136144638061523
0.506374359130859375 0.558091342449188232 -0.214661255478858948
0.802299976348876953 -0.331254899501800537 -0.0541272275149822235
-0.493320465087890625 -0.0092204483225941658 -0.68345111608505249
0.426500558853149414 -0.665374100208282471 -0.167455866932868958
-0.936106860637664795 -0.109845288097858429 0.0668853446841239929
0.268101125955581665 -0.212193161249160767 -0.76245582103729248
-0.0547794848680496216 -0.554432868957519531 -0.612530231475830078
-0.394698679447174072 -0.658541440963745117 -0.224205881357192993
0.343728899955749512 -0.402419328689575195 0.555858731269836426
-0.71599191427230835 0.391824215650558472 0.132933959364891052
-0.932207942008972168 -0.0532100647687911987 -0.132264882326126099
0.302502661943435669 -0.612277865409851074 -0.376089096069335938
-0.2651328444480896 -0.1508750319480896 -0.801146209239959717
-0.84431225061416626 0.265015691518783569 -0.0650378838181495667
0.363285690546035767 -0.329401224851608276 -0.603248775005340576
0.49283301830291748 0.6415901780128479 -0.109412454068660736
0.130363240838050842 -0.738618135452270508 -0.363176852464675903
-0.496306568384170532 -0.119109705090522766 0.63232344388961792
0.630620062351226807 0.338975667953491211 -0.317992210388183594
0.47400200366973877 -0.00935282930731773376 -0.702726006507873535
-0.104529775679111481 0.712915897369384766 -0.415822386741638184
0.0744146853685379028 0.829257011413574219 -0.285208046436309814
-0.660631060600280762 -0.252791166305541992 -0.362220644950866699
0.275565445423126221 0.651092112064361572 0.356898695230484009
-0.697776377201080322 -0.36242377758026123 -0.203749820590019226
-0.0584967806935310364 -0.413500785827636719 -0.735562980175018311
-0.215472608804702759 0.695875287055969238 -0.353183716535568237
0.740118145942687988 -0.182850748300552368 -0.320475190877914429
0.298078566789627075 -0.809475064277648926 0.0865581557154655457
-0.41391146183013916 -0.589143574237823486 -0.291864722967147827
-0.398813933134078979 -0.171470239758491516 0.68969351053237915
-0.299055010080337524 -0.264136075973510742 -0.702378273010253906
-0.357777029275894165 -0.492177486419677734 -0.459254592657089233
-0.343756586313247681 -0.793325901031494141 -0.0463389307260513306
0.193270027637481689 0.176312804222106934 -0.834092795848846436
-0.221430748701095581 0.350932896137237549 0.695990502834320068
-0.36954420804977417 -0.738783836364746094 -0.123854368925094604
-0.520781397819519043 -0.259463399648666382 -0.513197839260101318
-0.761491954326629639 0.107182048261165619 0.355694562196731567
0.048881087452173233 -0.3276938796043396 -0.806970357894897461
0.589785516262054443 -0.29246830940246582 -0.411919325590133667
0.117507100105285645 -0.0222614146769046783 -0.949674010276794434
0.00737824244424700737 0.344610810279846191 -0.80729222297668457
0.584953427314758301 0.0140006681904196739 0.596560478210449219
0.537932455539703369 -0.560547411441802979 0.174623250961303711
-0.0523586943745613098 0.0401248857378959656 -0.973371267318725586
0.495315104722976685 -0.178202047944068909 -0.598485767841339111
-0.167036265134811401 -0.259677767753601074 -0.795673906803131104
0.540881752967834473 -0.151042774319648743 0.570146560668945312
-0.453445702791213989 -0.603185176849365234 -0.221166908740997314
-0.088978990912437439 -0.89721071720123291 0.164935216307640076
0.739052832126617432 -0.318480134010314941 -0.190248578786849976
-0.68848884105682373 -0.376243442296981812 -0.194504618644714355
0.356139600276947021 -0.58562624454498291 0.359086960554122925
0.539956867694854736 -0.527832686901092529 -0.218845665454864502
-0.199546724557876587 -0.673215389251708984 0.391894340515136719
0.198459625244140625 -0.52036517858505249 0.558919727802276611
-0.0682523176074028015 0.8568611741065979 -0.245054394006729126
0.109813690185546875 -0.458139598369598389 -0.672473788261413574
0.173220962285995483 0.181694120168685913 -0.842349529266357422
0.0641622692346572876 -0.745916962623596191 0.39601588249206543
0.32629278302192688 0.380488574504852295 -0.591373562812805176
0.670487821102142334 0.293924093246459961 -0.312327206134796143
-0.211192503571510315 0.668808102607727051 -0.392392426729202271
-0.254015624523162842 -0.609952628612518311 -0.423461973667144775
0.404873430728912354 -0.263226449489593506 -0.618129730224609375
-0.71698993444442749 -0.0182935595512390137 -0.452444016933441162
0.281300276517868042 0.188716411590576172 -0.768620967864990234
0.116309508681297302 -0.677073001861572266 0.447008281946182251
-0.362787008285522461 0.552537500858306885 0.387823998928070068
0.592308640480041504 0.234646201133728027 -0.456788003444671631
-0.922363102436065674 -0.16614513099193573 -0.0165913552045822144
-0.831365585327148438 -0.226255312561988831 0.141412466764450073
0.673966884613037109 0.509478271007537842 -0.00238081859424710274
0.251045286655426025 0.493540465831756592 0.547161102294921875
-0.807831227779388428 0.0283572264015674591 0.338948637247085571
0.726534724235534668 0.402928322553634644 -0.091708451509475708
0.331855744123458862 -0.308892697095870972 -0.643166899681091309
0.107596956193447113 -0.924414157867431641 -0.0903832465410232544
-0.0361638590693473816 -0.569925904273986816 -0.604159832000732422
0.916889846324920654 0.112881757318973541 0.0993773117661476135
-0.058194182813167572 0.833728313446044922 0.285665392875671387
-0.219451636075973511 -0.693600296974182129 -0.350170731544494629
-0.299779057502746582 0.75816875696182251 -0.178740561008453369
-0.542396605014801025 0.512310981750488281 -0.233640223741531372
-0.402065008878707886 0.684935629367828369 0.176869690418243408
-0.344872981309890747 -0.775900900363922119 -0.0840496569871902466
0.68553239107131958 -0.452617526054382324 -0.0943923816084861755
0.685921072959899902 0.128501042723655701 0.430797070264816284
-0.480577588081359863 -0.0444478057324886322 -0.683339118957519531
0.483163237571716309 -0.619845092296600342 -0.159876048564910889
-0.206124171614646912 -0.381043553352355957 0.681938290596008301
-0.00226282724179327488 0.836652994155883789 -0.302105724811553955
-0.524645209312438965 -0.642956554889678955 -0.0426792390644550323
-0.772915303707122803 -0.0340703502297401428 -0.377081811428070068
-0.104108057916164398 0.297249943017959595 -0.80582815408706665
0.19532814621925354 -0.809208214282989502 -0.210280135273933411
-0.113237872719764709 0.370262742042541504 -0.746708214282989502
0.064441680908203125 -0.556203067302703857 -0.605707228183746338
0.049503471702337265 0.612760066986083984 -0.554124176502227783
-0.636481881141662598 0.114754989743232727 -0.493492305278778076
-0.234280973672866821 0.735301613807678223 0.283671110868453979
-0.804756045341491699 0.13668505847454071 0.269490748643875122
-0.619821310043334961 -0.444859176874160767 -0.210249438881874084
0.363563656806945801 0.779311418533325195 0.0506288185715675354
0.170325532555580139 -0.492942571640014648 -0.605258703231811523
0.386651307344436646 -0.565686881542205811 -0.346257865428924561
0.819884657859802246 -0.325335264205932617 -0.00999028142541646957
-0.0761011913418769836 0.783261775970458984 -0.340981066226959229
-0.354819804430007935 -0.627548456192016602 -0.306102097034454346
0.477960854768753052 -0.106550924479961395 -0.658216357231140137
0.237229213118553162 -0.222232416272163391 -0.779250860214233398
-0.348408907651901245 -0.147375449538230896 0.742858469486236572
0.0549703687429428101 0.904522180557250977 0.178960219025611877
-0.230493009090423584 0.673402845859527588 -0.3659248948097229
-0.550905704498291016 -0.0307465922087430954 -0.626195788383483887
0.350976884365081787 0.0650155544281005859 -0.785248458385467529
0.439141988754272461 -0.731045722961425781 -0.00757483905181288719
-0.153249680995941162 0.75553816556930542 -0.325550675392150879
-0.53065866231918335 -0.61687314510345459 -0.085059337317943573
0.904299736022949219 0.178745627403259277 -0.053341347724199295
-0.289610534906387329 0.589532554149627686 -0.412812799215316772
-0.0437065251171588898 0.795360088348388672 -0.343290120363235474
0.298985213041305542 0.645717203617095947 -0.336890369653701782
0.749241828918457031 0.288331001996994019 -0.210364386439323425
0.956629395484924316 -0.0553035661578178406 -0.0728378370404243469
0.347702860832214355 -0.183233022689819336 -0.720073163509368896
0.629361331462860107 -0.452171027660369873 -0.185490041971206665
0.379055619239807129 -0.757097780704498291 -0.0663434788584709167
-0.346187323331832886 0.78295600414276123 -0.0656183585524559021
0.1450091153383255 -0.131000310182571411 0.887181460857391357
0.744745910167694092 0.364646792411804199 -0.122351847589015961
0.0888118892908096313 -0.788075268268585205 0.329889059066772461
0.249538630247116089 -0.504224181175231934 0.539474248886108398
-0.117261774837970734 0.726508378982543945 -0.387151241302490234
0.0111946109682321548 0.472499728202819824 0.704645335674285889
-0.0919783860445022583 -0.668061435222625732 0.473607659339904785
0.158491909503936768 0.358008742332458496 0.728872478008270264
-0.318264007568359375 -0.812813699245452881 0.0522069744765758514
0.583415746688842773 0.437807291746139526 -0.268392086029052734
0.890472590923309326 0.022582031786441803 0.215587511658668518
0.566986560821533203 0.364163249731063843 -0.367385506629943848
0.539544522762298584 0.59467017650604248 -0.115270309150218964
-0.456275910139083862 -0.0999383032321929932 -0.679087936878204346
0.076059095561504364 -0.415558934211730957 -0.727708816528320312
0.886932373046875 0.0845008492469787598 -0.181444734334945679
-0.469692647457122803 0.147090837359428406 -0.643725574016571045
0.354408413171768188 0.341921031475067139 -0.598966419696807861
0.367823004722595215 -0.20874534547328949 -0.68835294246673584
-0.785556495189666748 -0.229235470294952393 0.213537916541099548
-0.160937711596488953 0.0664713755249977112 -0.909476876258850098
0.120284691452980042 0.910075485706329346 -0.112317010760307312
0.83846735954284668 0.261896908283233643 0.0788339376449584961
-0.166492581367492676 -0.660813510417938232 0.43060612678527832
-0.310696005821228027 0.798483550548553467 0.0901885926723480225
0.0251516625285148621 -0.695658683776855469 -0.475501716136932373
-0.342723578214645386 -0.629269957542419434 0.318171381950378418
0.376206278800964355 -0.441495597362518311 0.490894198417663574
0.169347062706947327 -0.124083854258060455 -0.877433240413665771
-0.804186224937438965 0.221948280930519104 -0.191298142075538635
-0.524784207344055176 0.570380210876464844 -0.17215399444103241
0.159051477909088135 0.265745729207992554 0.796510457992553711
0.792786717414855957 0.294292449951171875 0.126821920275688171
-0.752491295337677002 -0.281938850879669189 0.208630219101905823
0.650456428527832031 -0.172156855463981628 -0.441491305828094482
-0.340115278959274292 0.809027969837188721 -0.00948159582912921906
0.474902033805847168 0.0860065743327140808 0.67130744457244873
-0.232345506548881531 0.692551612854003906 -0.341113388538360596
-0.162488773465156555 -0.533500254154205322 0.570248723030090332
-0.169095978140830994 0.865332245826721191 -0.147094368934631348
0.806056022644042969 -0.176256120204925537 0.23417586088180542
-0.33613315224647522 -0.554597020149230957 0.410939067602157593
-0.233355522155761719 0.0296154562383890152 -0.880204558372497559
0.251732885837554932 0.763749182224273682 -0.22421543300151825
0.0233163684606552124 -0.496824204921722412 0.67978203296661377
-0.658679008483886719 0.128372982144355774 -0.460334718227386475
-0.525061964988708496 -0.558440566062927246 -0.190440759062767029
-0.228580400347709656 -0.555991232395172119 -0.499821990728378296
0.217121779918670654 0.420293033123016357 -0.638207376003265381
-0.382229000329971313 -0.223691374063491821 -0.667116165161132812
0.668475091457366943 0.347380489110946655 0.260613232851028442
-0.320743769407272339 -0.79921424388885498 -0.0810987651348114014
0.594389259815216064 0.55138707160949707 -0.0897909924387931824
0.635055065155029297 -0.426940113306045532 0.214390993118286133
-0.323611527681350708 -0.661000907421112061 0.296381354331970215
0.229441598057746887 -0.794750869274139404 -0.199793711304664612
0.85523688793182373 -0.152275964617729187 0.182075709104537964
-0.174419477581977844 0.135933235287666321 -0.871281981468200684
0.603479087352752686 0.532361805438995361 -0.108097031712532043
-0.481782972812652588 -0.017500629648566246 0.695549428462982178
-0.67750781774520874 -0.0110113024711608887 0.499828159809112549
0.28749421238899231 -0.658746182918548584 -0.331198751926422119
-0.853021740913391113 -0.00932086817920207977 -0.279749870300292969
0.434149563312530518 -0.262659460306167603 0.591325700283050537
0.317720562219619751 0.257406234741210938 -0.694686770439147949
0.208565667271614075 0.750255882740020752 0.284181118011474609
0.133584156632423401 0.762053310871124268 0.336370617151260376
-0.563882589340209961 -0.499833613634109497 0.216587245464324951
-0.489303708076477051 0.631340205669403076 0.127919435501098633
0.15231303870677948 -0.118128672242164612 -0.891081392765045166
0.0436234325170516968 -0.830939829349517822 0.294903814792633057
0.256047576665878296 0.129824593663215637 0.82137531042098999
-0.457833468914031982 -0.703699350357055664 -0.0427852533757686615
-0.0758155360817909241 -0.648340344429016113 -0.50382077693939209
0.49493253231048584 -0.521655797958374023 0.278946280479431152
0.750689029693603516 -0.191556364297866821 -0.298563063144683838
0.378550142049789429 0.709374010562896729 -0.157103255391120911
-0.56928718090057373 -0.601494133472442627 -0.0413804128766059875
-0.645511806011199951 0.160216167569160461 -0.459176689386367798
-0.560271918773651123 -0.497591942548751831 -0.231269419193267822
0.503890812397003174 0.667128443717956543 0.0362037979066371918
-0.604005157947540283 -0.295286834239959717 0.391018033027648926
0.64591670036315918 -0.538162350654602051 -0.00141167314723134041
-0.231748595833778381 -0.839259862899780273 -0.120038367807865143
0.0746117383241653442 0.862190961837768555 -0.235260173678398132
0.154773741960525513 0.397127717733383179 -0.698012232780456543
-0.0926875695586204529 0.770968735218048096 0.351098030805587769
0.589895784854888916 0.570769906044006348 0.0634855777025222778
0.645957052707672119 -0.278769433498382568 -0.355843842029571533
0.930954992771148682 -0.0599976032972335815 0.122559249401092529
-0.591581225395202637 -0.578079164028167725 -0.0419723577797412872
-0.140818700194358826 0.76811748743057251 -0.315916150808334351
-0.339836150407791138 -0.148091837763786316 -0.750591039657592773
-0.444690048694610596 0.0991751402616500854 -0.689830958843231201
-0.180819392204284668 -0.579272270202636719 -0.512695670127868652
