ply
format ascii 1.0
element vertex 739
property float x
property float y
property float z
end_header
0.855621457099914551 0.469251453876495361 -0.251865178346633911
-0.23658345639705658 0.880531013011932373 -0.240795686841011047
0.736965477466583252 -0.219415932893753052 -0.43162575364112854
-0.109526097774505615 0.897382616996765137 -0.213031932711601257
0.185689777135848999 0.969048023223876953 -0.081539057195186615
0.421913623809814453 0.938754916191101074 -0.130562305450439453
0.631298363208770752 -0.168878555297851562 -0.549187600612640381
-0.0112003656104207039 -0.556383192539215088 0.626984179019927979
-0.775741398334503174 -0.123479083180427551 -0.389572173357009888
0.415217787027359009 0.104746833443641663 -0.754130780696868896
-0.0770149007439613342 -0.91569674015045166 0.187003478407859802
-0.104842245578765869 0.584444344043731689 -0.600561141967773438
-0.325373560190200806 0.500833034515380859 -0.658958137035369873
0.26616862416267395 -0.723728477954864502 -0.446701496839523315
0.82281416654586792 0.419498264789581299 -0.309791833162307739
0.947147369384765625 -0.472211897373199463 -0.095159478485584259
0.891059458255767822 -0.328942060470581055 -0.219197958707809448
0.660593390464782715 -0.776169121265411377 -0.272138804197311401
-0.331309854984283447 -0.955437123775482178 0.0983027219772338867
-0.362855255603790283 -0.184780120849609375 -0.789944946765899658
0.179476380348205566 -0.794565558433532715 0.363999933004379272
-0.0911186113953590393 0.368171036243438721 -0.790421187877655029
0.0428662598133087158 0.822866141796112061 -0.323392540216445923
0.00592846889048814774 -0.726477265357971191 -0.448805421590805054
-0.382686346769332886 0.774999260902404785 0.373676151037216187
0.165521517395973206 0.704682588577270508 -0.4709186851978302
-0.617454111576080322 0.39558255672454834 0.543811142444610596
0.0564082935452461243 -0.977080583572387695 0.0646525248885154724
-0.46114349365234375 0.126189336180686951 0.715097308158874512
-0.768689453601837158 -0.870446622371673584 -0.0578349009156227112
0.357356518507003784 0.6946755051612854 0.469752013683319092
0.636664092540740967 -0.392669260501861572 0.525484442710876465
-0.426454305648803711 -0.944906830787658691 -0.116524435579776764
-0.389399170875549316 0.0271757710725069046 0.773563206195831299
-0.895242393016815186 -0.650499939918518066 -0.117157652974128723
0.901332736015319824 -0.525890529155731201 -0.166869327425956726
-0.0486672557890415192 -0.160068422555923462 -0.931039333343505859
0.961347699165344238 -0.504218041896820068 0.0582282058894634247
-0.394195765256881714 -0.319821149110794067 -0.742888748645782471
0.804785430431365967 0.186906144022941589 -0.345554441213607788
0.191600173711776733 0.142720043659210205 -0.904791951179504395
0.497586846351623535 0.373259961605072021 -0.652680099010467529
0.0685335472226142883 0.233034670352935791 -0.887374699115753174
0.522349417209625244 0.974859356880187988 -0.00292139826342463493
0.933600127696990967 0.255675852298736572 -0.153429299592971802
0.192504152655601501 -0.459711790084838867 0.714448153972625732
0.689436912536621094 -0.383821427822113037 -0.47262457013130188
-0.562608599662780762 0.0261452719569206238 0.621581792831420898
-0.0577047504484653473 0.0313258357346057892 0.980015158653259277
-0.0169470980763435364 -0.108632519841194153 0.95786583423614502
0.917909502983093262 -0.38295939564704895 0.17385612428188324
0.642531812191009521 0.942321956157684326 0.0103263147175312042
0.281153172254562378 -0.453405797481536865 0.708592236042022705
0.258913427591323853 -0.596094608306884766 -0.583023667335510254
-0.693115592002868652 0.546015679836273193 -0.417178958654403687
0.506841421127319336 0.493704766035079956 0.588231265544891357
0.406798690557479858 0.124042615294456482 -0.759507298469543457
-0.926286816596984863 0.643064498901367188 -0.0729585438966751099
-0.321367919445037842 -0.904035508632659912 -0.195987477898597717
0.168094813823699951 0.484549760818481445 -0.691699087619781494
0.829853832721710205 -0.126727312803268433 -0.314603358507156372
0.390191048383712769 -0.609457910060882568 -0.551358699798583984
0.167703330516815186 0.320642620325088501 0.824292957782745361
-0.353348851203918457 0.970181882381439209 -0.0672494322061538696
0.962735652923583984 0.0228540617972612381 -0.0986910685896873474
-0.623776674270629883 -0.507778465747833252 0.496766716241836548
0.228781566023826599 -0.398600548505783081 0.757416665554046631
-0.462961435317993164 0.168475046753883362 -0.710134685039520264
-0.0981630012392997742 -0.141307756304740906 0.939695000648498535
0.828381538391113281 0.783105134963989258 -0.103565074503421783
0.0640482977032661438 0.318391084671020508 -0.827650666236877441
-0.976866960525512695 -0.483548372983932495 -0.000437587674241513014
-0.0370478630065917969 0.279267698526382446 -0.857324481010437012
-0.382957935333251953 -0.041920006275177002 -0.781802952289581299
-0.0918932482600212097 0.898385226726531982 0.213032960891723633
0.647395551204681396 -0.688589334487915039 -0.360160619020462036
0.934113621711730957 -0.664303302764892578 0.0217482540756464005
0.575129032135009766 -0.599231719970703125 -0.477368026971817017
-0.79670405387878418 0.725478112697601318 0.197934389114379883
0.820935070514678955 0.372596591711044312 0.318500250577926636
0.336418777704238892 0.985278427600860596 0.030123438686132431
-0.0557892695069313049 -0.736023843288421631 -0.436761975288391113
-0.0142147811129689217 -0.353540688753128052 -0.8015860915184021
-0.418854862451553345 0.833786249160766602 0.291672706604003906
0.602663338184356689 0.948372900485992432 0.041623678058385849
0.217544466257095337 -0.914950788021087646 -0.1807994544506073
-0.989564239978790283 0.210153147578239441 -0.0312237925827503204
0.969788610935211182 -0.535194933414459229 -0.0237415898591279984
0.340139567852020264 -0.0560119561851024628 0.81376802921295166
0.711254239082336426 -0.859746277332305908 -0.130133792757987976
0.478039860725402832 -0.961572051048278809 -0.0646330490708351135
0.19424612820148468 0.408747225999832153 -0.754554271697998047
0.807046234607696533 -0.543049812316894531 0.291008472442626953
0.0587566681206226349 0.0845613032579421997 -0.967618107795715332
-0.466571152210235596 -0.420425176620483398 -0.654108583927154541
-0.40296483039855957 -0.772361338138580322 -0.370723813772201538
0.478935867547988892 0.231587693095207214 -0.692650496959686279
-0.763899147510528564 -0.180780276656150818 -0.405727863311767578
0.4324951171875 -0.152850300073623657 -0.740162014961242676
0.557149648666381836 0.806323766708374023 0.287916034460067749
-0.212996512651443481 -0.485603153705596924 -0.68899691104888916
0.573922812938690186 -0.731498122215270996 -0.365522205829620361
0.274202346801757812 -0.602164506912231445 -0.57824099063873291
-0.333969950675964355 0.779357016086578369 -0.371219933032989502
0.257772296667098999 -0.0674593746662139893 -0.873153269290924072
-0.819557547569274902 -0.0366114228963851929 -0.330531656742095947
-0.778858542442321777 -0.484746634960174561 -0.347480535507202148
-0.00248919753357768059 -0.707154572010040283 0.468837380409240723
0.040796276181936264 0.816516458988189697 -0.332960963249206543
0.30102202296257019 -0.792676866054534912 0.362552553415298462
0.136163428425788879 -0.0247420594096183777 -0.944479942321777344
0.457550942897796631 -0.50543588399887085 -0.610685288906097412
-0.204096391797065735 0.735878825187683105 -0.434770137071609497
0.641459643840789795 0.728865444660186768 -0.327314555644989014
-0.876019060611724854 -0.450631886720657349 0.227060794830322266
0.483762353658676147 0.0357858650386333466 0.697454690933227539
0.210764482617378235 -0.415689855813980103 -0.749431848526000977
-0.96421736478805542 0.557551026344299316 -0.0295628886669874191
-0.783405542373657227 0.27576860785484314 -0.370851725339889526
0.441212862730026245 0.233657702803611755 -0.724292337894439697
0.157584935426712036 0.253872781991958618 -0.870235741138458252
-0.160036861896514893 0.493936598300933838 -0.685009777545928955
0.650798976421356201 -0.678012490272521973 -0.365364640951156616
0.19117031991481781 -0.382267504930496216 -0.775287330150604248
0.896369874477386475 0.182476893067359924 -0.215571328997612
0.219511255621910095 -0.85162585973739624 -0.283535689115524292
-0.356513142585754395 -0.26629108190536499 -0.780359029769897461
-0.47925838828086853 0.248174205422401428 0.693924307823181152
0.483119219541549683 -0.672230243682861328 -0.463239997625350952
-0.92671513557434082 0.645218312740325928 -0.0611075498163700104
-0.882429361343383789 -0.670130610466003418 0.122499607503414154
0.329052448272705078 0.921458244323730469 -0.16652911901473999
-0.23578353226184845 -0.787398874759674072 -0.367363095283508301
0.831753194332122803 0.0281479861587285995 -0.315112441778182983
0.168876677751541138 0.75652611255645752 0.407594919204711914
0.481377214193344116 -0.954986631870269775 -0.0736636370420455933
0.529072761535644531 -0.516678750514984131 0.561740577220916748
-0.448863357305526733 0.840326964855194092 0.274102717638015747
0.664075732231140137 -0.82236778736114502 -0.211779564619064331
-0.213818535208702087 0.777909696102142334 -0.382654815912246704
-0.000263396039372310042 -0.233396992087364197 -0.888072073459625244
0.140698820352554321 -0.511932909488677979 -0.669883966445922852
0.218041926622390747 -0.50126349925994873 -0.674752295017242432
-0.692831754684448242 0.40598180890083313 -0.462106317281723022
-0.128854498267173767 -0.341072678565979004 -0.809652388095855713
-0.357106655836105347 -0.157899484038352966 -0.796241283416748047
0.201897904276847839 -0.86889350414276123 -0.259723126888275146
-0.725026071071624756 -0.302113890647888184 -0.44302937388420105
-0.44935762882232666 0.483425319194793701 0.627639234066009521
-0.829554736614227295 -0.823084652423858643 -0.043973870575428009
0.719727933406829834 0.552139699459075928 -0.389167040586471558
0.00441760243847966194 -0.871789276599884033 -0.255485802888870239
-0.351704925298690796 -0.870544254779815674 -0.246398746967315674
0.648052871227264404 -0.938481569290161133 0.0219062510877847672
0.0335059650242328644 0.85602724552154541 -0.281961977481842041
0.914654374122619629 0.526153028011322021 0.141435295343399048
0.392909348011016846 0.0777728036046028137 0.771151602268218994
-0.436004966497421265 -0.27211153507232666 -0.7241477370262146
0.817794680595397949 0.74276500940322876 -0.157394841313362122
-0.602264761924743652 0.21557915210723877 -0.582213640213012695
0.690342247486114502 -0.0254830662161111832 -0.489454686641693115
0.762340068817138672 -0.186147198081016541 -0.404010564088821411
-0.3055076003074646 0.448625713586807251 0.708057820796966553
0.86349952220916748 0.0123486397787928581 -0.267174690961837769
0.79891359806060791 -0.513281404972076416 -0.313812375068664551
0.639833211898803711 -0.946198880672454834 -0.0211518667638301849
-0.109315671026706696 -0.356047123670578003 -0.7989349365234375
-0.428373843431472778 -0.714595198631286621 -0.434878349304199219
-0.254328280687332153 0.692809462547302246 -0.483386099338531494
-0.452668100595474243 -0.409435302019119263 -0.668099045753479004
0.298779815435409546 -0.848132669925689697 -0.286678403615951538
-0.851968705654144287 -0.362183362245559692 -0.275030851364135742
0.178720369935035706 -0.778637051582336426 -0.384687721729278564
-0.427868098020553589 -0.936160266399383545 -0.126997917890548706
0.66752016544342041 -0.729146957397460938 -0.312780469655990601
-0.555236995220184326 -0.858429849147796631 -0.221813827753067017
-0.898389697074890137 0.118472903966903687 -0.210670456290245056
0.589072644710540771 -0.634267866611480713 -0.443038731813430786
-0.857406377792358398 0.796765804290771484 -0.0428424589335918427
-0.205053269863128662 -0.489317148923873901 -0.686093747615814209
-0.132352933287620544 0.000899985374417155981 0.947174310684204102
-0.199025154113769531 0.974766552448272705 -0.0637098997831344604
-0.248542800545692444 0.11677667498588562 -0.874772787094116211
-0.615333676338195801 0.836658835411071777 0.221045061945915222
-0.287023633718490601 0.719678938388824463 -0.448542505502700806
0.0768072307109832764 -0.549721896648406982 0.634442687034606934
-0.680174410343170166 -0.344743967056274414 -0.487879246473312378
0.929937183856964111 0.239051923155784607 -0.159166693687438965
0.574293076992034912 0.327212721109390259 0.594563007354736328
0.587655961513519287 0.606488049030303955 -0.463967949151992798
-0.0776625499129295349 -0.508830249309539795 -0.672298133373260498
0.968061327934265137 0.447581499814987183 -0.0518643558025360107
0.335279285907745361 -0.148475140333175659 0.814700007438659668
0.179690137505531311 0.739482223987579346 -0.432093113660812378
-0.70635145902633667 -0.16630573570728302 -0.470500558614730835
0.50407111644744873 -0.93301999568939209 -0.115142643451690674
0.00900790467858314514 -0.0659928247332572937 -0.979660212993621826
-0.150822222232818604 -0.868844389915466309 -0.257619529962539673
-0.528299689292907715 -0.413043826818466187 -0.613394737243652344
-0.362410813570022583 -0.849534392356872559 -0.281748682260513306
0.935810267925262451 -0.684142231941223145 -0.00647238316014409065
-0.510336160659790039 -0.897092461585998535 0.181959465146064758
-0.256151586771011353 -0.962417423725128174 0.0936288535594940186
-0.257574379444122314 0.477889537811279297 -0.690531432628631592
0.0175627116113901138 0.94586557149887085 -0.133154019713401794
0.323040395975112915 -0.374407261610031128 -0.75272214412689209
-0.331346094608306885 -0.940008997917175293 0.130112260580062866
-0.550517261028289795 -0.0810293853282928467 -0.635894298553466797
-0.296260744333267212 -0.475618034601211548 -0.687125265598297119
0.316822707653045654 -0.201040729880332947 -0.821538329124450684
0.598929286003112793 0.708419501781463623 0.374559551477432251
-0.0592634007334709167 0.410101115703582764 0.756918549537658691
0.700550496578216553 0.707507431507110596 -0.306417942047119141
0.894738733768463135 -0.4918556809425354 0.187192231416702271
0.538485705852508545 -0.159721195697784424 -0.646257102489471436
-0.570497035980224609 -0.179603263735771179 0.610618650913238525
-0.411069333553314209 -0.0577585287392139435 0.755916476249694824
0.248588055372238159 -0.139926791191101074 -0.87560659646987915
-0.121771678328514099 -0.0111027797684073448 -0.950834214687347412
-0.33750644326210022 0.518476665019989014 -0.641794085502624512
0.0955479890108108521 0.98103642463684082 -0.0506598018109798431
-0.977251768112182617 0.0545200370252132416 -0.0615239106118679047
-0.947626590728759766 -0.597511172294616699 -0.0502171926200389862
0.370574444532394409 -0.591023147106170654 0.570791363716125488
-0.337249428033828735 0.344035148620605469 -0.7624397873878479
-0.611806750297546387 0.377308011054992676 -0.549703598022460938
0.636585593223571777 -0.114614084362983704 -0.546459078788757324
-0.452901482582092285 0.614818096160888672 0.528752148151397705
-0.834716975688934326 0.464548707008361816 -0.28587302565574646
0.365120172500610352 -0.835884451866149902 0.29416164755821228
-0.269687145948410034 0.957244396209716797 0.104398384690284729
-0.917194724082946777 -0.309941202402114868 -0.177837714552879333
-0.93431556224822998 -0.4050445556640625 -0.141637846827507019
-0.526549637317657471 0.278195619583129883 0.645985960960388184
0.573099195957183838 0.694873511791229248 0.401843547821044922
0.705763697624206543 -0.732783615589141846 0.276419848203659058
0.300912648439407349 -0.436751961708068848 -0.715547621250152588
0.183426886796951294 -0.132435306906700134 0.910969138145446777
0.297999650239944458 0.0913202986121177673 -0.843051671981811523
0.702126145362854004 -0.538084805011749268 -0.410489320755004883
-0.145912662148475647 0.737914204597473145 -0.43490910530090332
-0.740327596664428711 -0.335912555456161499 -0.422113865613937378
0.377103477716445923 0.693281888961791992 -0.470192790031433105
0.877011656761169434 0.159385368227958679 -0.247929945588111877
-0.970029234886169434 -0.249268278479576111 0.0799405798316001892
-0.738752841949462891 0.822892069816589355 -0.151428744196891785
-0.36992943286895752 -0.614059329032897949 0.552315354347229004
0.113172955811023712 -0.840391397476196289 0.29860156774520874
0.764308333396911621 0.364184767007827759 0.389057308435440063
-0.777855575084686279 0.747798442840576172 0.199028298258781433
-0.694676458835601807 0.382763147354125977 -0.464068174362182617
-0.24161142110824585 -0.274276643991470337 -0.835851073265075684
0.260090887546539307 0.0805882364511489868 -0.871202349662780762
-0.521222770214080811 -0.386421620845794678 -0.629196345806121826
-0.670727789402008057 0.334308624267578125 0.499556094408035278
0.458202719688415527 -0.619474411010742188 -0.518988370895385742
-0.756176352500915527 0.726695597171783447 -0.239159196615219116
-0.651592791080474854 -0.50433272123336792 -0.475582867860794067
-0.286164730787277222 -0.794768214225769043 -0.356876850128173828
-0.916495800018310547 0.148513510823249817 -0.18336053192615509
0.112780146300792694 -0.894748687744140625 -0.221807897090911865
0.961257219314575195 0.163148269057273865 -0.100077182054519653
-0.986181855201721191 0.000753450964111834764 -0.0418965928256511688
-0.024446072056889534 -0.102285332977771759 -0.963513553142547607
0.932638466358184814 -0.478476732969284058 -0.127568230032920837
-0.361049115657806396 0.186976984143257141 0.79132080078125
0.507805228233337402 -0.833788156509399414 0.268213480710983276
-0.968435704708099365 -0.0500171706080436707 -0.083332940936088562
-0.156982243061065674 -0.473532170057296753 -0.702629923820495605
-0.370723336935043335 -0.864499807357788086 -0.253568977117538452
0.446679204702377319 -0.650866091251373291 -0.496245831251144409
-0.918018162250518799 0.434539377689361572 0.163466349244117737
-0.102420300245285034 -0.793371260166168213 0.364261031150817871
-0.569823086261749268 0.0356520265340805054 0.614283502101898193
0.170812323689460754 -0.91063380241394043 -0.195549935102462769
-0.823237776756286621 0.206043899059295654 -0.321442157030105591
0.115746736526489258 0.951516568660736084 -0.121933586895465851
-0.477422595024108887 -0.158114254474639893 -0.697842121124267578
0.959996700286865234 -0.567356407642364502 0.0263848528265953064
0.941414892673492432 -0.169342786073684692 -0.133764982223510742
-0.283987581729888916 -0.792195558547973633 -0.360533237457275391
-0.488021343946456909 -0.95405423641204834 -0.0845976322889328003
0.123138017952442169 0.809265255928039551 -0.34232640266418457
-0.0813890993595123291 -0.867166101932525635 -0.261593431234359741
-0.856977581977844238 -0.0652555152773857117 0.275797218084335327
0.0174963250756263733 -0.940091550350189209 -0.14266696572303772
-0.71491086483001709 0.869937300682067871 -0.111055664718151093
0.868239045143127441 -0.606200933456420898 -0.181356072425842285
-0.585143566131591797 0.326442509889602661 -0.588836550712585449
0.280720621347427368 0.0581913404166698456 0.855804681777954102
-0.231163188815116882 0.870592296123504639 -0.257250994443893433
0.31475299596786499 -0.959322988986968994 -0.0961948856711387634
-0.535518109798431396 0.217859581112861633 0.643326878547668457
0.980718612670898438 0.23609355092048645 0.049861319363117218
-0.889202117919921875 -0.716767728328704834 -0.0793981850147247314
0.849038600921630859 0.48482784628868103 0.253655314445495605
-0.388378828763961792 0.842596471309661865 -0.286262005567550659
-0.279544353485107422 -0.394100695848464966 -0.752013921737670898
0.316106647253036499 0.251052826642990112 0.811024188995361328
0.361443251371383667 -0.236036539077758789 0.78376615047454834
-0.657947361469268799 0.803351879119873047 0.238054573535919189
-0.850737512111663818 0.442528873682022095 -0.267394542694091797
-0.600623786449432373 0.441993802785873413 -0.541001021862030029
0.237361177802085876 -0.600614964962005615 -0.579263210296630859
0.853383123874664307 0.808900773525238037 0.0228444747626781464
-0.677564084529876709 -0.838946163654327393 -0.179453909397125244
-0.453056126832962036 0.881354272365570068 0.214485853910446167
-0.631791353225708008 -0.913215517997741699 -0.100286476314067841
0.730149805545806885 0.508795082569122314 0.393037378787994385
-0.132212623953819275 -0.463079631328582764 -0.712758421897888184
-0.0939721018075942993 -0.320384889841079712 -0.826398253440856934
0.310674816370010376 0.0670108795166015625 -0.83419722318649292
-0.227584391832351685 -0.194641754031181335 -0.87674635648727417
0.0661336407065391541 -0.93782198429107666 -0.142913728952407837
-0.187339752912521362 0.644818544387817383 0.538092494010925293
-0.370523691177368164 -0.181165516376495361 -0.787526607513427734
0.85321277379989624 0.0142826363444328308 -0.281244099140167236
-0.927884459495544434 -0.703683793544769287 -0.00841229408979415894
-0.000857700302731245756 -0.329348921775817871 -0.819907903671264648
0.95508420467376709 -0.42039141058921814 -0.0896410942077636719
-0.0476466156542301178 0.871663868427276611 0.253211021423339844
-0.700985133647918701 0.682603240013122559 0.325298428535461426
-0.884937286376953125 0.516533195972442627 -0.193010479211807251
0.245585218071937561 0.962831318378448486 -0.0941788926720619202
0.515456080436706543 -0.84296882152557373 0.253404498100280762
-0.406544357538223267 0.387742877006530762 0.705825865268707275
0.291765064001083374 0.248509332537651062 -0.823585331439971924
0.673855841159820557 0.464586973190307617 0.465970128774642944
-0.754606008529663086 -0.861797690391540527 -0.0867825970053672791
-0.89932858943939209 -0.373285949230194092 -0.200253069400787354
0.00953127909451723099 0.794559717178344727 -0.361520439386367798
-0.796791315078735352 -0.424261093139648438 -0.339388191699981689
-0.644889533519744873 -0.105642691254615784 -0.537393450736999512
0.0659904852509498596 0.951995611190795898 -0.115918591618537903
0.282759964466094971 -0.862849414348602295 -0.264014303684234619
-0.763184249401092529 0.349412798881530762 -0.389861106872558594
-0.490808784961700439 0.90140300989151001 0.182820796966552734
-0.434104323387145996 -0.0615419261157512665 -0.737051188945770264
0.29971545934677124 -0.153692066669464111 0.841060340404510498
0.432854712009429932 0.831348001956939697 -0.289678215980529785
-0.838768959045410156 0.442569196224212646 0.280537962913513184
-0.958930850028991699 0.588462173938751221 -0.021991116926074028
0.261304348707199097 0.382997840642929077 -0.765305578708648682
-0.0298766326159238815 0.0188985131680965424 -0.989477694034576416
0.349908679723739624 -0.801568806171417236 0.345795094966888428
0.140762940049171448 0.732395827770233154 0.43856397271156311
-0.343273043632507324 0.861651122570037842 -0.261145591735839844
0.151991337537765503 0.326462209224700928 -0.81896674633026123
-0.0212759263813495636 0.868123114109039307 -0.260534316301345825
0.185282304883003235 -0.0587754435837268829 -0.915466129779815674
0.854698359966278076 0.228107348084449768 -0.281466394662857056
-0.995522201061248779 -0.248937159776687622 -0.0138200633227825165
0.550101995468139648 -0.739693522453308105 0.369314193725585938
-0.315041422843933105 0.0680587291717529297 -0.830395102500915527
-0.856859445571899414 -0.743280589580535889 0.100313112139701843
0.0758467614650726318 0.307090938091278076 -0.836099505424499512
0.00855261459946632385 0.982826292514801025 -0.0453739538788795471
-0.423198550939559937 0.236166685819625854 -0.741966009140014648
-0.77857208251953125 -0.213780045509338379 -0.381011068820953369
0.469421058893203735 0.290038853883743286 -0.693367362022399902
-0.881397843360900879 -0.621634900569915771 0.155992880463600159
-0.313821583986282349 -0.180470854043960571 -0.825655698776245117
0.679356694221496582 0.843292295932769775 0.180002763867378235
-0.935267865657806396 -0.0011750819394364953 -0.147613883018493652
-0.126486614346504211 -0.619350135326385498 0.563630163669586182
-0.113928817212581635 -0.94871211051940918 -0.120995134115219116
0.515894770622253418 0.902326583862304688 0.171518668532371521
0.517210543155670166 0.533665835857391357 -0.561291277408599854
0.922012627124786377 0.471997886896133423 -0.150573670864105225
0.433558881282806396 -0.883251309394836426 -0.219247043132781982
-0.509368777275085449 -0.00376295857131481171 0.673382461071014404
-0.274277448654174805 0.90031731128692627 0.205926328897476196
0.776467323303222656 -0.302229791879653931 -0.382415294647216797
0.366179138422012329 0.680231094360351562 0.483767002820968628
-0.538437902927398682 0.0113460477441549301 -0.645004808902740479
-0.482248663902282715 0.821485579013824463 -0.296355605125427246
-0.81121373176574707 0.0396847538650035858 0.344279468059539795
0.138005077838897705 -0.14686565101146698 -0.926223814487457275
0.487792819738388062 -0.897302627563476562 -0.186112508177757263
0.799031198024749756 0.261002719402313232 -0.353799611330032349
0.652081310749053955 0.854560375213623047 -0.175340250134468079
-0.742890715599060059 -0.78115612268447876 -0.198042839765548706
0.350995689630508423 0.568059325218200684 -0.596589088439941406
0.886099159717559814 0.726608872413635254 0.0748424604535102844
-0.626405000686645508 -0.406265020370483398 -0.530761361122131348
-0.464045971632003784 -0.316942274570465088 0.69413226842880249
0.586169898509979248 -0.952059090137481689 -0.0397379882633686066
-0.153569787740707397 -0.278763055801391602 0.853613972663879395
-0.309165686368942261 -0.0755611062049865723 0.838053405284881592
0.0196662396192550659 0.860423743724822998 -0.271226823329925537
-0.832252979278564453 -0.130971863865852356 -0.311308205127716064
0.106691434979438782 0.166753664612770081 -0.922742784023284912
0.446395218372344971 -0.964484333992004395 -0.0648391023278236389
0.959116518497467041 0.595567464828491211 -0.0195500440895557404
-0.871306836605072021 -0.367077797651290894 0.2420835942029953
-0.908289313316345215 -0.723059296607971191 0.0364707373082637787
0.4636344313621521 0.456678539514541626 -0.638913571834564209
-0.793286383152008057 0.856199800968170166 -0.0414440520107746124
-0.97448354959487915 0.435379862785339355 -0.0468632951378822327
0.118227377533912659 -0.745526313781738281 0.422815769910812378
0.820717215538024902 0.109417319297790527 0.330653220415115356
0.916864216327667236 0.20977783203125 -0.183252692222595215
0.0153912482783198357 0.996367812156677246 -0.00395726738497614861
0.497847080230712891 -0.543407022953033447 -0.562813699245452881
0.210888534784317017 -0.909761309623718262 -0.194062888622283936
0.311970710754394531 -0.194195941090583801 -0.825046241283416748
-0.642496764659881592 0.309588611125946045 -0.531466782093048096
0.907871603965759277 0.738691031932830811 -0.00884965155273675919
0.697964727878570557 -0.285311043262481689 -0.472298026084899902
-0.0194761920720338821 0.142624825239181519 -0.939948081970214844
-0.512206435203552246 0.591338753700256348 -0.520342767238616943
0.689793705940246582 0.0766432136297225952 -0.489865750074386597
-0.80746692419052124 -0.343180596828460693 0.338653922080993652
0.152495995163917542 0.908154845237731934 -0.192822635173797607
0.0282689258456230164 0.612305700778961182 -0.574546158313751221
0.10390818864107132 0.647956132888793945 0.535654127597808838
-0.20698171854019165 0.694330871105194092 -0.485120177268981934
0.5267486572265625 0.601272642612457275 0.507138729095458984
0.592580199241638184 -0.219160735607147217 -0.590306758880615234
-0.633484899997711182 -0.500318706035614014 0.491974204778671265
0.412536591291427612 -0.0659550204873085022 -0.755611658096313477
0.736127674579620361 0.140790611505508423 -0.435484647750854492
0.580916941165924072 0.170019403100013733 0.602154314517974854
0.035542171448469162 0.764138579368591309 -0.400022834539413452
0.213168442249298096 0.712212860584259033 -0.464033275842666626
0.760309278964996338 -0.262979567050933838 -0.400404244661331177
-0.276676386594772339 0.754939675331115723 -0.409853219985961914
0.84230273962020874 0.285030454397201538 -0.290806591510772705
-0.706661880016326904 -0.370210528373718262 -0.459028542041778564
0.252333253622055054 -0.887410461902618408 -0.233943372964859009
0.154048547148704529 -0.858319222927093506 -0.280275285243988037
0.245597481727600098 0.242994681000709534 0.849553167819976807
0.725565969944000244 -0.316444218158721924 -0.440903216600418091
0.296524226665496826 0.639852821826934814 0.53716200590133667
-0.469503939151763916 0.847425282001495361 -0.262866944074630737
0.931725800037384033 -0.479540318250656128 0.122560404241085052
0.821240425109863281 -0.364807844161987305 0.315995097160339355
0.525031208992004395 -0.389914661645889282 0.623304605484008789
0.450621426105499268 -0.789719283580780029 -0.341593325138092041
-0.608718812465667725 -0.3678416907787323 0.555539906024932861
-0.789009511470794678 -0.656690418720245361 0.253830671310424805
-0.436227679252624512 -0.96832120418548584 -0.0537987314164638519
-0.69244009256362915 0.794228971004486084 -0.230136364698410034
-0.431943327188491821 0.763512134552001953 -0.375773012638092041
0.695206642150878906 0.802412927150726318 -0.218074142932891846
0.0840663909912109375 0.561662793159484863 -0.625665128231048584
-0.599123775959014893 0.846948564052581787 -0.219740554690361023
-0.743056774139404297 0.607765436172485352 0.337852805852890015
0.662431836128234863 -0.686044394969940186 -0.350915193557739258
-0.101789660751819611 -0.292504757642745972 -0.846956253051757812
0.109622016549110413 0.0557950958609580994 -0.958886563777923584
0.915547430515289307 -0.704812765121459961 -0.0320837721228599548
-0.162413492798805237 -0.471039891242980957 -0.704881429672241211
0.436134845018386841 0.2741585373878479 0.722593605518341064
0.592422723770141602 -0.693377912044525146 0.390590846538543701
-0.289148569107055664 -0.921858608722686768 -0.167846545577049255
0.527144789695739746 -0.8761405348777771 0.204352453351020813
-0.110723249614238739 -0.951046466827392578 -0.126325622200965881
-0.986541628837585449 0.214851200580596924 0.0309288483113050461
-0.60137486457824707 0.415339529514312744 -0.553026676177978516
-0.942283570766448975 -0.598023712635040283 -0.0652771368622779846
-0.339981764554977417 -0.838275372982025146 0.297638386487960815
0.430625349283218384 -0.73557579517364502 -0.412278920412063599
-0.751082181930541992 0.100682258605957031 -0.417819887399673462
-0.617671966552734375 -0.332236111164093018 0.554575622081756592
0.553671419620513916 -0.944955646991729736 0.0741563662886619568
-0.91396331787109375 -0.615311980247497559 0.103412441909313202
0.842629134654998779 0.697845339775085449 -0.163948521018028259
-0.715033411979675293 -0.318226248025894165 -0.456555694341659546
0.490473538637161255 -0.566087961196899414 -0.549762904644012451
-0.636220753192901611 -0.89276885986328125 -0.127179786562919617
-0.23460051417350769 0.422188937664031982 0.739804625511169434
0.313756465911865234 0.526398599147796631 -0.64433598518371582
-0.685684919357299805 0.548194646835327148 -0.421867519617080688
0.901655733585357666 -0.581219792366027832 -0.144933447241783142
0.760953783988952637 -0.752538144588470459 -0.21168769896030426
-0.300485312938690186 -0.188918665051460266 -0.83292841911315918
-0.723223268985748291 0.173051789402961731 -0.448108315467834473
0.51642918586730957 0.307579755783081055 0.651579141616821289
0.292480319738388062 0.393575340509414673 -0.751129508018493652
-0.638041555881500244 0.893167078495025635 0.130399882793426514
-0.88378453254699707 -0.0478743910789489746 -0.238641038537025452
-0.601381957530975342 -0.0471135750412940979 -0.58607250452041626
0.73265308141708374 0.862458646297454834 -0.104516461491584778
0.0422606877982616425 0.865441799163818359 -0.264388769865036011
-0.769207000732421875 -0.747075796127319336 -0.205037295818328857
-0.197600767016410828 -0.175948157906532288 -0.89397960901260376
-0.673242509365081787 -0.279291629791259766 -0.501270532608032227
0.211503386497497559 0.953554093837738037 -0.116935603320598602
-0.366919249296188354 -0.381482392549514771 -0.727446854114532471
0.0285925287753343582 -0.745692968368530273 0.422615855932235718
-0.327250033617019653 0.164702370762825012 -0.818038761615753174
0.638499140739440918 0.726661086082458496 0.335368603467941284
-0.932668864727020264 0.0578084737062454224 -0.15538729727268219
-0.122254982590675354 -0.644043505191802979 -0.539174497127532959
-0.0890131071209907532 0.400329232215881348 0.764826774597167969
0.843267977237701416 -0.408587396144866943 -0.281771540641784668
0.065196014940738678 0.277699768543243408 -0.856690466403961182
0.299576461315155029 0.157020315527915955 -0.838498234748840332
0.253503113985061646 -0.75381004810333252 -0.409270226955413818
-0.221632793545722961 -0.409711003303527832 -0.751818835735321045
0.580794870853424072 -0.931876778602600098 -0.0879254043102264404
0.4455699622631073 0.0933220013976097107 -0.730420053005218506
0.34132811427116394 -0.387232124805450439 -0.73642432689666748
-0.251228749752044678 -0.459666579961776733 -0.707374095916748047
-0.927375912666320801 0.526635587215423584 -0.122541271150112152
-0.877143919467926025 0.238749295473098755 0.240433797240257263
0.570456624031066895 0.595397114753723145 -0.484972327947616577
0.429564595222473145 0.950650811195373535 0.0954817011952400208
-0.46224898099899292 0.884007930755615234 0.20894235372543335
0.851592004299163818 -0.0830209404230117798 0.282768487930297852
-0.804243922233581543 -0.621791660785675049 -0.259661674499511719
-0.361650645732879639 -0.463302940130233765 -0.678739726543426514
-0.157009094953536987 0.620297074317932129 -0.562296688556671143
0.739419043064117432 -0.582192301750183105 0.354944348335266113
-0.278116881847381592 -0.861071884632110596 -0.265717029571533203
0.322299778461456299 -0.54831850528717041 -0.621523022651672363
-0.916222691535949707 -0.23920731246471405 -0.177153125405311584
0.398256212472915649 0.332646876573562622 -0.734875917434692383
0.0322389863431453705 0.12910519540309906 0.948572218418121338
-0.791456162929534912 -0.350831300020217896 0.360789746046066284
0.300949424505233765 -0.715495705604553223 0.451186776161193848
-0.49841579794883728 0.186920210719108582 0.681404531002044678
0.700311779975891113 0.923959672451019287 -0.0191014111042022705
0.406415969133377075 -0.0258819535374641418 0.760218918323516846
-0.205266118049621582 0.856328248977661133 -0.280670851469039917
-0.0758760273456573486 0.952885329723358154 -0.117061257362365723
-0.743806123733520508 -0.564656913280487061 -0.358140945434570312
-0.458932787179946899 -0.450378507375717163 0.642024457454681396
0.75145953893661499 0.215701460838317871 -0.418017148971557617
0.0839977636933326721 0.342465460300445557 -0.810001373291015625
0.751304745674133301 0.59505760669708252 -0.331291109323501587
0.273402899503707886 0.610234200954437256 0.568331360816955566
-0.648038864135742188 -0.771881103515625 -0.287238359451293945
0.432737976312637329 0.30590510368347168 -0.717528879642486572
0.199225470423698425 0.654022276401519775 -0.527978420257568359
-0.20480819046497345 -0.553002715110778809 0.62824326753616333
-0.874436795711517334 -0.295213133096694946 -0.249863728880882263
0.825442492961883545 0.605890035629272461 -0.244288668036460876
-0.028222840279340744 0.405469983816146851 0.760666489601135254
0.245433568954467773 -0.682299435138702393 0.495392173528671265
0.490130901336669922 0.588484287261962891 -0.534020602703094482
-0.954752624034881592 0.622179687023162842 -0.00434293784201145172
-0.613584697246551514 0.488435953855514526 -0.512505114078521729
0.638367712497711182 -0.428674787282943726 -0.511639893054962158
-0.135675638914108276 -0.482769370079040527 -0.694296658039093018
0.86086040735244751 0.00553410919383168221 0.269505441188812256
-0.394132316112518311 -0.971280872821807861 -0.066721498966217041
-0.566955447196960449 0.493842750787734985 0.548633337020874023
0.130334004759788513 -0.921745121479034424 -0.175406560301780701
0.632050991058349609 -0.522823333740234375 -0.484248816967010498
-0.123712889850139618 -0.166963443160057068 0.921549499034881592
0.907343208789825439 0.430706560611724854 0.183158725500106812
0.346895724534988403 -0.408767968416213989 -0.720777213573455811
0.362130224704742432 -0.448080956935882568 -0.689371645450592041
-0.393251478672027588 0.45979192852973938 -0.668182253837585449
-0.203419744968414307 -0.264593213796615601 -0.851439535617828369
-0.205087795853614807 -0.133758604526519775 -0.899274587631225586
0.691995561122894287 -0.624974310398101807 -0.373124063014984131
-0.991259098052978516 -0.268231481313705444 -0.0250343382358551025
-0.286047637462615967 0.764294862747192383 -0.394163221120834351
-0.931162238121032715 -0.425988137722015381 0.137181460857391357
-0.932364940643310547 0.34535825252532959 0.145486116409301758
-0.366575300693511963 -0.479321956634521484 0.667563140392303467
-0.878617644309997559 -0.773606598377227783 -0.028981601819396019
0.717433393001556396 -0.859508097171783447 -0.126570567488670349
0.265504956245422363 -0.250647664070129395 -0.836315393447875977
0.134920597076416016 -0.458243638277053833 -0.716988086700439453
-0.914275825023651123 0.720847666263580322 -0.00667407643049955368
0.18632468581199646 -0.930248677730560303 0.156745016574859619
-0.675600290298461914 0.88682633638381958 -0.115949690341949463
0.944356918334960938 0.518488407135009766 -0.0931240394711494446
0.308115661144256592 0.255058914422988892 -0.812630712985992432
-0.697993040084838867 -0.555346906185150146 -0.408938825130462646
-0.820048272609710693 -0.415335327386856079 0.309920132160186768
-0.954480826854705811 0.601175487041473389 0.00879222899675369263
-0.0486357137560844421 -0.539195239543914795 0.643938839435577393
0.594038963317871094 -0.837456226348876953 -0.233656272292137146
0.0949956402182579041 -0.276785314083099365 -0.856702446937561035
0.199378922581672668 -0.839873015880584717 0.301011592149734497
-0.85454791784286499 0.257029920816421509 -0.277694046497344971
-0.392107605934143066 0.497269332408905029 0.642988979816436768
-0.431722581386566162 -0.592566549777984619 -0.551607668399810791
-0.00664708716794848442 -0.825421452522277832 -0.321610897779464722
0.508472442626953125 0.650548398494720459 0.474091678857803345
0.292921870946884155 0.265966325998306274 0.818849921226501465
-0.552777528762817383 -0.965726196765899658 -0.0221182294189929962
-0.0508408732712268829 0.0699672102928161621 -0.97382122278213501
-0.897503435611724854 -0.204784974455833435 -0.209121376276016235
-0.75726020336151123 -0.740038156509399414 0.223681926727294922
-0.297208875417709351 -0.753565609455108643 -0.407386749982833862
-0.521806836128234863 -0.858351707458496094 0.230109572410583496
-0.0681547969579696655 0.812286674976348877 -0.339528352022171021
-0.982407689094543457 0.257804334163665771 -0.0368213541805744171
-0.739802122116088867 0.809995055198669434 -0.167515873908996582
-0.536355435848236084 -0.815319538116455078 -0.287906497716903687
-0.130434483289718628 0.592920541763305664 -0.591980159282684326
-0.780544817447662354 -0.0949718952178955078 -0.382715791463851929
0.382125020027160645 -0.592784881591796875 -0.566534161567687988
-0.637368142604827881 0.126044705510139465 -0.544357478618621826
-0.713881313800811768 -0.0554893389344215393 0.461111307144165039
0.249657809734344482 0.246285140514373779 -0.845652759075164795
0.820602357387542725 0.0796960890293121338 -0.325979113578796387
-0.0283975657075643539 -0.502378523349761963 -0.677430987358093262
-0.108558677136898041 -0.543056249618530273 0.640130281448364258
0.98664325475692749 0.384529143571853638 -0.00896522682160139084
-0.360488265752792358 0.290682762861251831 -0.772037684917449951
0.0926005393266677856 0.0834875032305717468 -0.962396442890167236
0.00113840261474251747 0.216353505849838257 -0.897954404354095459
-0.896479189395904541 0.741299688816070557 0.0427697598934173584
0.663524389266967773 0.693737328052520752 -0.343738973140716553
-0.558122158050537109 -0.548201918601989746 0.528254806995391846
0.878724992275238037 0.401250123977661133 -0.226645603775978088
0.350704073905944824 -0.365021407604217529 -0.747787952423095703
-0.437022566795349121 0.849441111087799072 -0.266431838274002075
0.137973174452781677 -0.546937346458435059 -0.639558911323547363
0.890772044658660889 0.766773343086242676 -0.00937253702431917191
0.803330481052398682 -0.0876284539699554443 -0.351086944341659546
0.767443954944610596 0.759669959545135498 0.197240680456161499
0.621648430824279785 -0.868294656276702881 -0.177810952067375183
0.113035112619400024 -0.363174110651016235 0.794880330562591553
-0.103397153317928314 -0.79279637336730957 0.364937901496887207
0.0561478137969970703 0.879107117652893066 -0.242366626858711243
0.308686375617980957 -0.669048309326171875 -0.504848003387451172
0.542359232902526855 0.673340678215026855 0.434225469827651978
0.991542220115661621 -0.200387075543403625 -0.0127860959619283676
0.546449661254882812 -0.655185043811798096 -0.452407270669937134
-0.404042243957519531 0.658091187477111816 -0.499813258647918701
0.872734010219573975 0.780271291732788086 0.0340927839279174805
-0.772284507751464844 0.0575140379369258881 -0.394282311201095581
-0.197373732924461365 -0.932691037654876709 -0.152311697602272034
0.308221220970153809 0.0430371537804603577 -0.835342526435852051
-0.0149546917527914047 -0.562705397605895996 -0.621849894523620605
0.807447850704193115 0.0496147647500038147 -0.345717161893844604
-0.943794429302215576 0.418925821781158447 -0.123742431402206421
-0.701212823390960693 0.0673586055636405945 -0.474654287099838257
0.615712761878967285 0.925016283988952637 -0.081004023551940918
-0.280806303024291992 -0.724149227142333984 -0.4438762366771698
-0.761289894580841064 -0.890337049961090088 -0.0170902498066425323
-0.840085029602050781 0.508466780185699463 -0.262779355049133301
-0.963403046131134033 -0.0534662269055843353 -0.0934542194008827209
-0.893636763095855713 -0.46808016300201416 -0.191628560423851013
-0.298116445541381836 0.988457202911376953 -0.0188450589776039124
0.113726846873760223 0.218321353197097778 0.893367171287536621
-0.814891457557678223 -0.845819652080535889 -0.0281279515475034714
0.815975308418273926 0.653534293174743652 -0.224845319986343384
-0.90110856294631958 -0.137417808175086975 -0.20889793336391449
-0.000772497267462313175 -0.408397674560546875 -0.760352253913879395
0.98902428150177002 -0.0678102672100067139 -0.025333380326628685
0.631087720394134521 -0.42281341552734375 0.524500072002410889
0.563830077648162842 -0.856600403785705566 0.218447357416152954
-0.462194293737411499 -0.596513092517852783 -0.537225127220153809
-0.864798009395599365 -0.787513792514801025 -0.0408705733716487885
-0.186573907732963562 0.604920148849487305 -0.580816447734832764
0.0374458655714988708 0.512002766132354736 -0.668227910995483398
0.886026620864868164 -0.768006742000579834 -0.0235877577215433121
-0.956192255020141602 -0.216047883033752441 -0.107801809906959534
0.511347532272338867 0.718156814575195312 -0.406649857759475708
0.555741846561431885 -0.511891961097717285 -0.545522451400756836
0.36225464940071106 0.843500375747680664 -0.287849873304367065
0.915807485580444336 -0.696166038513183594 -0.0406710095703601837
0.576801717281341553 0.571959316730499268 -0.498239398002624512
0.862583577632904053 0.415117740631103516 -0.252541214227676392
-0.322378247976303101 0.829298317432403564 -0.306764990091323853
-0.0329109691083431244 -0.973853051662445068 -0.0725156143307685852
-0.579672455787658691 0.827225804328918457 0.249508440494537354
0.857762813568115234 0.731694817543029785 -0.111696094274520874
0.571943938732147217 -0.256710916757583618 -0.608924388885498047
0.858288168907165527 0.388925999402999878 -0.260658323764801025
0.184902340173721313 0.898579001426696777 0.209973275661468506
0.36940467357635498 0.753218531608581543 -0.399631142616271973
0.910291612148284912 0.252845793962478638 -0.193017289042472839
0.530545473098754883 -0.205379083752632141 -0.64802396297454834
0.76421278715133667 -0.549514055252075195 0.343233019113540649
-0.581356644630432129 0.233929499983787537 -0.600100040435791016
-0.00638819485902786255 0.289280176162719727 -0.850051581859588623
0.459450006484985352 0.435781180858612061 -0.651827514171600342
-0.518421292304992676 -0.3913421630859375 -0.630036234855651855
0.137573942542076111 0.589392006397247314 -0.595341384410858154
0.649071395397186279 0.484494864940643311 -0.482073277235031128
-0.0887031927704811096 -0.2373056560754776 -0.885256826877593994
-0.353680700063705444 -0.928534388542175293 -0.149067893624305725
0.9811859130859375 -0.315929561853408813 -0.0452554970979690552
-0.812691032886505127 0.55580592155456543 -0.279212772846221924
-0.297791332006454468 -0.906339049339294434 0.196496203541755676
0.0729140490293502808 -0.922289848327636719 -0.170185163617134094
-0.551759660243988037 0.838972151279449463 -0.247870147228240967
-0.317533880472183228 0.286307841539382935 0.796746671199798584
0.258605897426605225 0.736801087856292725 -0.430858224630355835
-0.406708747148513794 0.632837891578674316 -0.52238011360168457
-0.238582834601402283 0.446433007717132568 -0.721696853637695312
-0.408239215612411499 -0.663089990615844727 -0.493664681911468506
-0.147763386368751526 0.630592584609985352 -0.552601099014282227
0.134175896644592285 0.0119095770642161369 0.946384072303771973
0.176070630550384521 0.125752866268157959 -0.917367756366729736
-0.914894282817840576 0.33885568380355835 0.180212989449501038
-0.765623271465301514 0.317007005214691162 -0.394812554121017456
0.765716731548309326 0.0699245408177375793 0.398951679468154907
-0.711641252040863037 -0.919199645519256592 -0.00652504805475473404
0.341535329818725586 -0.491108208894729614 -0.665091574192047119
-0.816404938697814941 0.42160525918006897 0.31385117769241333
0.44606095552444458 -0.719366967678070068 0.422966539859771729
-0.658182799816131592 -0.359900951385498047 0.510666847229003906
-0.416068881750106812 -0.916926741600036621 0.17033134400844574
0.436875909566879272 0.968841254711151123 -0.0524264015257358551
-0.0840269103646278381 0.0851383358240127563 -0.961770832538604736
0.567852914333343506 -0.407586544752120972 -0.584373056888580322
0.801466763019561768 0.535040915012359619 -0.301847875118255615
-0.9308815598487854 0.0160630922764539719 0.159463882446289062
0.458576738834381104 0.863261938095092773 -0.243019744753837585
-0.00697848852723836899 0.283060759305953979 0.854569613933563232
-0.280740290880203247 -0.862993955612182617 -0.262926727533340454
-0.825513005256652832 -0.451797187328338623 0.29635956883430481
-0.314672708511352539 -0.552711665630340576 -0.619761765003204346
-0.729284226894378662 -0.893292844295501709 0.0583029203116893768
-0.924814403057098389 -0.30385667085647583 -0.161190077662467957
-0.715329289436340332 -0.057740774005651474 0.45955359935760498
-0.162777349352836609 -0.0114056607708334923 -0.929015636444091797
-0.860919594764709473 0.220289319753646851 -0.266962558031082153
-0.894353508949279785 0.406843781471252441 0.204379677772521973
-0.267039477825164795 0.506060123443603516 -0.665794909000396729
-0.634525895118713379 0.585745632648468018 -0.44698721170425415
0.229620262980461121 0.990038514137268066 0.0146286133676767349
0.760085523128509521 0.89262157678604126 -0.0165177639573812485
0.610667228698730469 0.668852567672729492 0.402509540319442749
-0.57398909330368042 -0.679937243461608887 -0.413634330034255981
-0.186636015772819519 0.69122391939163208 0.485677242279052734
0.317776083946228027 -0.764743208885192871 -0.391229718923568726
-0.348806411027908325 -0.681927800178527832 -0.484156191349029541
-0.0305011924356222153 0.481311947107315063 -0.696682572364807129
-0.450921624898910522 -0.797252953052520752 0.336652636528015137
-0.0818841829895973206 -0.219786912202835083 0.894405245780944824
-0.0396200157701969147 -0.714143633842468262 0.461087197065353394
-0.928507626056671143 -0.479979246854782104 -0.133798420429229736
-0.376154810190200806 -0.293774008750915527 -0.761395275592803955
-0.550754427909851074 0.377120703458786011 0.604308366775512695
0.537403404712677002 0.494602322578430176 -0.567854464054107666
-0.611336290836334229 -0.585140705108642578 -0.46705278754234314
0.894066333770751953 0.604846358299255371 0.147381648421287537
