ply
format ascii 1.0
element vertex 738
property float x
property float y
property float z
end_header
0.541460275650024414 0.268103092908859253 0.348258018493652344
0.0132878590375185013 0.285979956388473511 -0.842199504375457764
0.0750495344400405884 0.349098831415176392 0.746344387531280518
-0.130324289202690125 -0.77090764045715332 -0.210124537348747253
-0.874963045120239258 -0.0614834390580654144 -0.149400711059570312
0.562052309513092041 -0.428822338581085205 -0.0277001447975635529
-0.168230757117271423 -0.287102997303009033 0.721165001392364502
-0.205727547407150269 0.338615953922271729 -0.639776408672332764
-0.585158348083496094 -0.408326417207717896 -0.0246237721294164658
-0.724269330501556396 -0.270753592252731323 -0.0208594519644975662
-0.515733897686004639 -0.102030389010906219 -0.570262789726257324
-0.301111161708831787 -0.496395617723464966 0.362684845924377441
0.775321722030639648 0.165619134902954102 -0.141187697649002075
0.174298644065856934 0.0368382073938846588 -0.903456211090087891
-0.306682884693145752 0.550562798976898193 -0.278495490550994873
0.323253452777862549 0.351660192012786865 -0.506290078163146973
-0.257950782775878906 0.520899832248687744 -0.383761763572692871
-0.815985679626464844 -0.176819920539855957 0.0114555368199944496
-0.0833121240139007568 -0.756771743297576904 -0.302224308252334595
0.452774554491043091 -0.116023153066635132 -0.618516027927398682
0.75211566686630249 0.0209647826850414276 -0.391166001558303833
0.32584574818611145 -0.480561017990112305 -0.348401963710784912
-0.00422324333339929581 -0.748041152954101562 -0.418404936790466309
-0.00826474372297525406 0.0748813524842262268 0.969259500503540039
0.106987565755844116 -0.702046334743499756 0.348891586065292358
-0.460317611694335938 -0.167871922254562378 -0.558592855930328369
-0.0971555411815643311 -0.361144453287124634 -0.717265486717224121
0.944295525550842285 -0.0078958636149764061 0.119503580033779144
0.703707039356231689 -0.0715211853384971619 -0.388410001993179321
0.432479649782180786 -0.285650312900543213 -0.46167793869972229
0.299064427614212036 -0.230980828404426575 -0.652972280979156494
-0.841235935688018799 0.122139334678649902 0.0962739959359169006
-0.346874713897705078 -0.157223701477050781 -0.676918625831604004
-0.278274983167648315 0.500672638416290283 -0.383637309074401855
-0.462013185024261475 0.0498977228999137878 -0.670928776264190674
-0.135357379913330078 0.480199128389358521 -0.572734177112579346
0.520994901657104492 -0.413639068603515625 -0.152712851762771606
-0.341797500848770142 -0.519927382469177246 -0.275063693523406982
-0.543610572814941406 -0.256676733493804932 -0.356254428625106812
-0.0100937420502305031 0.370438933372497559 -0.784480929374694824
0.058622267097234726 0.684355080127716064 0.427934110164642334
0.297670871019363403 0.546491086483001709 -0.296585768461227417
0.274225354194641113 -0.704952657222747803 -0.0632053613662719727
0.302005797624588013 0.292252868413925171 0.590978682041168213
0.515304982662200928 -0.210046887397766113 0.44902452826499939
0.0969337299466133118 -0.84666287899017334 -0.136334583163261414
-0.374875813722610474 -0.106453411281108856 0.700175940990447998
0.612644374370574951 -0.174285173416137695 -0.373394966125488281
0.29727780818939209 -0.680837452411651611 -0.0622375831007957458
0.641555845737457275 -0.0607311129570007324 0.476623743772506714
0.00298348837532103062 -0.197977766394615173 -0.91016852855682373
0.711569547653198242 -0.179718151688575745 -0.231427282094955444
0.443266779184341431 -0.51607900857925415 0.104643374681472778
-0.0526789650321006775 0.318655997514724731 0.788986444473266602
-0.348237186670303345 0.568255186080932617 -0.185040384531021118
-0.56545180082321167 0.0683465301990509033 0.552065908908843994
0.205107375979423523 -0.243158847093582153 -0.728446245193481445
0.181806698441505432 -0.390569627285003662 -0.613904893398284912
0.110704317688941956 -0.640814781188964844 -0.418833285570144653
0.613250494003295898 0.230156987905502319 0.298630565404891968
-0.291498869657516479 -0.658182680606842041 0.124716565012931824
0.718940079212188721 0.136817231774330139 0.280104309320449829
-0.144644826650619507 0.824813008308410645 -0.083424888551235199
0.493209540843963623 -0.179412156343460083 0.512120902538299561
-0.513022243976593018 0.476195424795150757 -0.0327297672629356384
-0.60443192720413208 0.173352152109146118 0.386284768581390381
0.247739449143409729 -0.628440558910369873 0.249467894434928894
0.312617629766464233 -0.373106628656387329 -0.49418872594833374
0.184776023030281067 0.406391888856887817 -0.596562087535858154
-0.902921378612518311 0.0793671831488609314 -0.052024252712726593
0.409334242343902588 0.57260286808013916 0.0577201023697853088
-0.743992090225219727 0.116414919495582581 -0.277229875326156616
-0.749220848083496094 0.22745145857334137 0.0686553940176963806
0.80289989709854126 -0.0251504108309745789 -0.318862468004226685
-0.0919019132852554321 -0.536470592021942139 0.557405710220336914
-0.205004855990409851 -0.713057160377502441 0.186640053987503052
0.436733454465866089 -0.211675882339477539 -0.534989118576049805
-0.106128223240375519 -0.259168475866317749 0.793861806392669678
-0.320203661918640137 -0.484656929969787598 -0.350385993719100952
-0.0250490494072437286 -0.534040153026580811 0.62559056282043457
0.0346538610756397247 -0.0914553254842758179 -0.94872128963470459
0.628575444221496582 -0.1554231196641922 -0.377155929803848267
-0.396412014961242676 0.50284045934677124 0.214856550097465515
0.76389610767364502 -0.0404759533703327179 0.354469865560531616
-0.281799972057342529 -0.636320710182189941 -0.182363957166671753
-0.641253471374511719 0.0373164787888526917 -0.502197206020355225
0.789448857307434082 -0.12010897696018219 -0.196438953280448914
0.251609951257705688 -0.737621903419494629 0.035494338721036911
0.973435103893280029 0.020310012623667717 -0.018986700102686882
-0.369098931550979614 -0.0528657585382461548 -0.748670637607574463
-0.315600484609603882 -0.678850352764129639 -0.0222595036029815674
0.205479919910430908 -0.432524621486663818 -0.547605931758880615
-0.608963072299957275 0.036480925977230072 -0.539278268814086914
0.495526820421218872 0.468009203672409058 -0.0979173034429550171
-0.133624330163002014 -0.691522955894470215 -0.324354320764541626
0.0322647653520107269 -0.467438191175460815 -0.680975258350372314
-0.288516104221343994 0.254603743553161621 0.641306757926940918
-0.847925961017608643 0.0103629520162940025 0.276306629180908203
-0.260745108127593994 -0.292286813259124756 -0.635057151317596436
-0.311421692371368408 0.131950974464416504 -0.732962548732757568
0.21171019971370697 -0.316734433174133301 -0.656638503074645996
-0.0318679995834827423 0.332156836986541748 -0.797189235687255859
-0.889548838138580322 -0.0839327126741409302 0.0752827003598213196
0.21289527416229248 0.32380029559135437 0.647629201412200928
0.122224308550357819 -0.270401149988174438 -0.772913157939910889
-0.248905211687088013 0.743588447570800781 0.0135538214817643166
0.139396831393241882 -0.658705472946166992 -0.360270142555236816
0.413396745920181274 -0.106189228594303131 -0.66429513692855835
-0.365469127893447876 -0.624785125255584717 0.0286173559725284576
0.816233634948730469 -0.14956386387348175 -0.0957649350166320801
0.820525527000427246 -0.0631471797823905945 -0.238987281918525696
0.00335282087326049805 0.126863971352577209 0.948261678218841553
-0.0612892955541610718 -0.791993916034698486 -0.288250535726547241
0.0978018566966056824 -0.461709111928939819 -0.628259479999542236
0.51810908317565918 0.466847360134124756 0.0514487288892269135
0.0659185647964477539 0.0113552408292889595 -0.973874151706695557
-0.297850757837295532 0.569821536540985107 -0.264079153537750244
-0.268533140420913696 0.329109787940979004 -0.590586304664611816
0.404051601886749268 -0.353180766105651855 -0.414142906665802002
0.553587794303894043 -0.221343457698822021 -0.388791024684906006
0.498098254203796387 0.0787654221057891846 0.60809791088104248
-0.129694759845733643 -0.66274791955947876 -0.366320580244064331
0.166199490427970886 -0.83200371265411377 -0.00545416306704282761
-0.389034897089004517 -0.50188833475112915 -0.231931164860725403
0.520468831062316895 0.374069869518280029 0.221927747130393982
0.511883556842803955 -0.455509811639785767 0.0879281312227249146
-0.456748872995376587 -0.123824611306190491 -0.606339693069458008
0.171615257859230042 -0.454393208026885986 -0.561034321784973145
0.226492121815681458 0.754776656627655029 -0.0545199289917945862
-0.220629855990409851 0.779331088066101074 -0.000118565403681714088
0.189571812748908997 0.226318567991256714 -0.75392073392868042
-0.182384416460990906 0.26364433765411377 0.728677928447723389
-0.578535139560699463 0.263916939496994019 -0.302148997783660889
0.410555988550186157 0.501178741455078125 -0.194558680057525635
-0.755800306797027588 0.105938613414764404 -0.272282868623733521
-0.0815045386552810669 0.342183589935302734 -0.749576032161712646
0.328652381896972656 0.580917775630950928 -0.198514223098754883
-0.0507413595914840698 -0.149380922317504883 -0.907604873180389404
0.422537714242935181 0.265101760625839233 -0.492044836282730103
-0.374744385480880737 0.547349393367767334 0.180592015385627747
0.107916578650474548 0.643187224864959717 -0.419366180896759033
-0.605741739273071289 0.302767723798751831 -0.198162198066711426
-0.139899685978889465 0.511031568050384521 -0.533135831356048584
0.2329721599817276 0.656115114688873291 0.230105578899383545
0.815177321434020996 0.0646677389740943909 -0.245278880000114441
-0.45282319188117981 0.372102916240692139 -0.323182165622711182
0.102812819182872772 0.700599193572998047 0.355618685483932495
-0.032140783965587616 -0.204352617263793945 0.884613275527954102
0.10592331737279892 0.558085381984710693 -0.518497049808502197
-0.827397406101226807 -0.0991041436791419983 0.17286275327205658
-0.0560271255671977997 -0.457434356212615967 0.670494914054870605
-0.0279456358402967453 -0.675348758697509766 -0.474520832300186157
-0.45849454402923584 -0.220333471894264221 -0.501908361911773682
-0.278329908847808838 -0.643238723278045654 -0.176696404814720154
-0.0811592116951942444 0.791146278381347656 -0.257671982049942017
0.372545123100280762 0.152551755309104919 -0.659531950950622559
-0.352180600166320801 -0.599330365657806396 -0.12734636664390564
-0.90896451473236084 -0.013076326809823513 -0.175725385546684265
-0.589082896709442139 -0.328050792217254639 0.188032686710357666
0.0503651872277259827 0.876683175563812256 0.17172694206237793
-0.357172310352325439 -0.53252023458480835 -0.229092240333557129
0.355753302574157715 0.541294336318969727 -0.217002376914024353
0.305992960929870605 -0.186463445425033569 -0.687743604183197021
0.0702643543481826782 -0.835841715335845947 -0.202112749218940735
-0.687944650650024414 0.119265094399452209 -0.347677737474441528
-0.0548117049038410187 -0.863814771175384521 -0.181964710354804993
-0.0891611948609352112 0.398614227771759033 -0.691789448261260986
-0.422917753458023071 0.0234164521098136902 0.728431284427642822
0.137297689914703369 -0.70338594913482666 -0.301395028829574585
0.590596497058868408 -0.345484077930450439 -0.150069326162338257
-0.0825154408812522888 0.449340224266052246 -0.653690218925476074
-0.674494326114654541 0.114174596965312958 0.37326011061668396
0.223982393741607666 0.744424760341644287 0.085822470486164093
-0.411054074764251709 -0.0234127715229988098 -0.741181731224060059
-0.709419310092926025 -0.251097381114959717 -0.105414986610412598
-0.00586820347234606743 -0.549441933631896973 -0.629655241966247559
0.049951847642660141 -0.700226426124572754 0.419317573308944702
0.108665183186531067 -0.804440677165985107 -0.192053049802780151
0.418153703212738037 0.338071465492248535 -0.412794530391693115
0.0311868675053119659 -0.279359728097915649 -0.834360063076019287
0.274673283100128174 0.71789848804473877 0.013028404675424099
-0.224331498146057129 -0.648418068885803223 0.254613995552062988
0.713946700096130371 0.256615638732910156 -0.080721832811832428
0.648791253566741943 -0.325132578611373901 -0.0791545435786247253
-0.0323189347982406616 0.618339061737060547 -0.532629847526550293
-0.53744959831237793 0.390104413032531738 -0.166858062148094177
0.457834571599960327 0.313655972480773926 0.393815547227859497
-0.554134249687194824 -0.373557746410369873 -0.166631191968917847
0.800518989562988281 0.165416985750198364 0.090955294668674469
-0.546932637691497803 0.0867050811648368835 -0.552494168281555176
0.0713344588875770569 0.568911314010620117 -0.545097112655639648
0.759765028953552246 0.0743846073746681213 -0.312802553176879883
0.655503571033477783 -0.330130696296691895 0.0500408560037612915
-0.724185824394226074 0.226526066660881042 0.122576572000980377
-0.780489444732666016 0.168120816349983215 -0.132247090339660645
0.544143140316009521 0.439755022525787354 0.0536468327045440674
-0.441467165946960449 -0.266260892152786255 0.470112979412078857
-0.367182135581970215 -0.0456651076674461365 0.755469024181365967
0.187296673655509949 0.766518533229827881 -0.117661274969577789
0.521489441394805908 0.270741671323776245 -0.366592049598693848
-0.201943039894104004 0.353932380676269531 -0.632073819637298584
0.43011811375617981 0.0916036218404769897 -0.660654067993164062
0.182464599609375 0.0480042509734630585 0.888455510139465332
0.661754310131072998 0.219004049897193909 -0.245985656976699829
0.133539438247680664 0.152595251798629761 0.852953672409057617
-0.157506689429283142 -0.450148969888687134 0.577794134616851807
-0.303324848413467407 -0.643187940120697021 -0.135694786906242371
0.957279741764068604 0.022096630185842514 -0.062603287398815155
-0.311404675245285034 0.225324362516403198 -0.649478137493133545
0.570067346096038818 -0.0420384332537651062 -0.576596915721893311
0.172783076763153076 0.343509405851364136 -0.667141735553741455
0.290404349565505981 0.488852769136428833 -0.386326402425765991
0.0141897620633244514 -0.747688353061676025 0.40531766414642334
0.230410784482955933 -0.635460495948791504 -0.268247991800308228
0.54742664098739624 0.410474598407745361 0.107643790543079376
0.0579964108765125275 -0.475705325603485107 -0.652094662189483643
-0.679541826248168945 0.194277152419090271 -0.2551841139793396
-0.865655958652496338 -0.0635128766298294067 0.167322635650634766
-0.707320451736450195 -0.130104169249534607 -0.308600157499313354
-0.0394556298851966858 -0.0852366611361503601 -0.951222777366638184
-0.40075412392616272 -0.588899672031402588 -0.0314061343669891357
0.42523491382598877 -0.122721217572689056 -0.636442303657531738
-0.0300886798650026321 -0.400673776865005493 -0.744261205196380615
0.0593252032995223999 0.150278642773628235 -0.904521763324737549
0.0704536736011505127 -0.316973328590393066 -0.778522074222564697
0.0128203602507710457 0.775400757789611816 -0.371737629175186157
0.631385445594787598 0.271251559257507324 0.209779411554336548
-0.793617010116577148 -0.0368298031389713287 -0.315548956394195557
-0.0204017031937837601 0.550018787384033203 0.614438951015472412
0.707923710346221924 -0.129865959286689758 0.307057946920394897
0.183296635746955872 -0.595497310161590576 -0.386966854333877563
0.338561296463012695 -0.0855360403656959534 -0.746827363967895508
-0.0608854517340660095 -0.132460653781890869 0.912131190299987793
0.109217502176761627 -0.856097698211669922 -0.0966462939977645874
-0.0212103482335805893 -0.87521207332611084 0.218912795186042786
-0.117393195629119873 -0.626391351222991943 0.426968216896057129
0.234005555510520935 0.739777266979217529 -0.0795824825763702393
-0.162918642163276672 0.315470010042190552 -0.699902594089508057
-0.0270032007247209549 0.80179131031036377 -0.319674193859100342
-0.210986196994781494 -0.752755820751190186 0.0955122113227844238
0.0732858777046203613 -0.839215338230133057 0.194981932640075684
0.713681340217590332 -0.140594542026519775 -0.282601684331893921
0.210868701338768005 0.478469014167785645 0.492118626832962036
-0.127497002482414246 0.396476119756698608 -0.660503268241882324
-0.565982997417449951 0.313059180974960327 -0.246598601341247559
-0.116277523338794708 -0.575238049030303955 -0.48976290225982666
-0.273699671030044556 -0.207321390509605408 -0.698216795921325684
0.0132214603945612907 0.437023580074310303 0.725273668766021729
-0.0778446793556213379 -0.219037517905235291 -0.844844162464141846
-0.123708330094814301 0.772736132144927979 -0.217993885278701782
0.00718817813321948051 -0.578649520874023438 0.599266171455383301
-0.250967890024185181 -0.0498961769044399261 0.843559741973876953
0.374293506145477295 -0.0165219437330961227 -0.77427297830581665
-0.233903765678405762 -0.206698477268218994 -0.732561886310577393
0.102222293615341187 -0.785360753536224365 0.232362061738967896
-0.0235802177339792252 0.11037725955247879 -0.945865154266357422
-0.440340101718902588 -0.410110890865325928 0.288064450025558472
0.193107590079307556 0.430046349763870239 -0.561486542224884033
-0.455916494131088257 0.161018624901771545 -0.571190953254699707
-0.239944025874137878 -0.740685760974884033 0.0604355111718177795
0.360835850238800049 0.167145177721977234 -0.654877364635467529
0.696893930435180664 0.180962830781936646 -0.249997586011886597
-0.140632212162017822 0.328025490045547485 -0.709626972675323486
-0.325201094150543213 -0.531895339488983154 -0.282671570777893066
-0.682954311370849609 0.193546324968338013 -0.251872599124908447
0.54171144962310791 -0.141131535172462463 0.49989020824432373
0.554433465003967285 0.389113783836364746 0.137457847595214844
-0.0788949131965637207 -0.915628969669342041 -0.0220807697623968124
-0.24798998236656189 -0.103882625699043274 -0.803530395030975342
0.0799568220973014832 -0.817918121814727783 0.216922998428344727
-0.0783355832099914551 0.416178852319717407 0.689141571521759033
0.0129605736583471298 -0.528876841068267822 -0.642028987407684326
0.119878262281417847 -0.871087372303009033 0.0238322429358959198
-0.617904484272003174 -0.0820502191781997681 -0.480908721685409546
-0.0542484261095523834 -0.0981837436556816101 -0.935163557529449463
-0.678173184394836426 0.00442591030150651932 -0.494640856981277466
0.668875813484191895 0.281701147556304932 0.122856713831424713
0.373899966478347778 -0.391203075647354126 -0.405332475900650024
0.784736752510070801 0.0629801452159881592 -0.291670471429824829
0.376768559217453003 0.525885403156280518 -0.207787036895751953
-0.751487016677856445 0.158648595213890076 -0.197480916976928711
-0.129008889198303223 -0.846258819103240967 0.0715728104114532471
0.247970312833786011 -0.116959936916828156 0.794157683849334717
0.372859269380569458 0.58561784029006958 -0.110297948122024536
-0.513843655586242676 -0.0449642948806285858 -0.628997087478637695
0.275714606046676636 0.071603730320930481 -0.80880129337310791
-0.740694522857666016 -0.205230101943016052 0.132519856095314026
-0.680900216102600098 0.02278907410800457 -0.474078714847564697
-0.084777049720287323 0.0142056280747056007 -0.962692916393280029
-0.319488614797592163 0.60809934139251709 0.170606225728988647
-0.0474674440920352936 0.902486503124237061 0.124150849878787994
-0.123382173478603363 0.868000626564025879 0.0210262425243854523
0.484177321195602417 -0.455168217420578003 -0.144102960824966431
-0.518452763557434082 0.0441580452024936676 -0.622917532920837402
0.26895633339881897 0.510026097297668457 0.384850829839706421
0.00947102997452020645 -0.945152401924133301 -0.116184301674365997
0.12831580638885498 0.813610553741455078 0.140824601054191589
0.664773225784301758 -0.334513634443283081 -0.00216471333988010883
-0.281488746404647827 0.0533592738211154938 -0.81632077693939209
0.688152849674224854 -0.0615994669497013092 -0.422515988349914551
-0.106190167367458344 0.0984964445233345032 -0.904965519905090332
0.439321637153625488 0.184877321124076843 0.561513066291809082
0.299852341413497925 0.263456761837005615 -0.624274551868438721
0.27152523398399353 0.628504514694213867 0.213690608739852905
-0.172840341925621033 0.757397234439849854 0.165102794766426086
0.585333049297332764 0.389064639806747437 -0.0777161493897438049
-0.16611163318157196 -0.823688387870788574 -0.0309620741754770279
-0.221362754702568054 0.340863436460494995 0.622503340244293213
-0.610141456127166748 -0.268367648124694824 -0.247474819421768188
0.502778768539428711 -0.084977567195892334 0.597377955913543701
0.671641290187835693 0.184759765863418579 0.279138714075088501
0.417851895093917847 -0.312451928853988647 -0.446056574583053589
0.00897584855556488037 0.198825135827064514 0.902912318706512451
0.559938490390777588 -0.0403242036700248718 -0.585503578186035156
-0.218733415007591248 0.456050008535385132 -0.506435871124267578
0.268202215433120728 -0.180984914302825928 0.726127803325653076
-0.388774782419204712 0.503827333450317383 -0.229521408677101135
-0.911281228065490723 0.0788160338997840881 0.0296732857823371887
0.20653611421585083 0.578719139099121094 -0.375543385744094849
-0.10070694237947464 -0.881254374980926514 -0.054756607860326767
-0.144773781299591064 -0.839499831199645996 -0.0477377064526081085
0.593002438545227051 0.0735601633787155151 0.519371092319488525
-0.29151993989944458 0.0908168107271194458 0.780103504657745361
0.115299977362155914 -0.359655112028121948 -0.703815102577209473
-0.624680936336517334 0.205761045217514038 0.318080246448516846
0.164917737245559692 -0.441830635070800781 -0.578698933124542236
-0.181285619735717773 -0.655279099941253662 0.308895468711853027
0.342751026153564453 0.31184154748916626 -0.529037415981292725
-0.176257520914077759 0.319511085748672485 -0.684606254100799561
0.692093789577484131 0.236510768532752991 -0.165131181478500366
-0.245930120348930359 0.127717480063438416 -0.787171006202697754
0.361371070146560669 0.466667294502258301 -0.318879008293151855
0.331313818693161011 0.246636673808097839 0.607028365135192871
-0.149050980806350708 -0.211057722568511963 0.798050642013549805
0.457707703113555908 -0.0333323143422603607 0.692335367202758789
-0.763912498950958252 0.176412671804428101 -0.142312824726104736
-0.439262717962265015 -0.0423065908253192902 -0.69715350866317749
-0.102042682468891144 0.440608322620391846 -0.64133840799331665
-0.281203657388687134 -0.168648988008499146 0.72559046745300293
-0.477937370538711548 -0.510384857654571533 0.041612677276134491
-0.593732833862304688 0.132531166076660156 -0.451240450143814087
-0.250660330057144165 0.614039301872253418 -0.270173937082290649
-0.276005178689956665 0.32870212197303772 0.580695688724517822
0.332128942012786865 0.387234419584274292 -0.460095226764678955
-0.496020078659057617 0.164810210466384888 -0.521957278251647949
0.147682696580886841 -0.628945529460906982 -0.38996124267578125
0.245890751481056213 -0.57674705982208252 -0.326346069574356079
0.275698840618133545 -0.673876404762268066 -0.130660980939865112
-0.520787537097930908 0.424739927053451538 0.133344829082489014
-0.0520674102008342743 -0.808053731918334961 -0.274519771337509155
0.26366877555847168 -0.523993849754333496 -0.374704539775848389
-0.752236068248748779 -0.123187147080898285 -0.252547174692153931
-0.421423375606536865 0.346437841653823853 -0.397863239049911499
0.349661797285079956 0.346295148134231567 0.484198153018951416
-0.773293137550354004 0.0142587311565876007 -0.372596383094787598
-0.256148964166641235 -0.145223096013069153 -0.766341924667358398
-0.145355373620986938 -0.7507515549659729 -0.218548640608787537
-0.446860015392303467 -0.339429557323455811 -0.376603007316589355
-0.923732280731201172 0.0166734028607606888 -0.145733296871185303
-0.82132565975189209 0.0410789847373962402 -0.271362453699111938
0.260366559028625488 0.428818792104721069 -0.492207735776901245
0.391127735376358032 -0.555184543132781982 0.131714746356010437
0.297530382871627808 0.344016313552856445 0.544440388679504395
0.290790438652038574 -0.643454253673553467 -0.155860245227813721
0.762861907482147217 0.155370533466339111 0.186384394764900208
0.494753092527389526 -0.0456480085849761963 0.643982410430908203
0.776319205760955811 0.0898329094052314758 0.264510989189147949
-0.785699725151062012 -0.0587759986519813538 -0.299552261829376221
0.495029240846633911 -0.390288829803466797 0.23575979471206665
0.589340925216674805 0.0666686967015266418 -0.527451157569885254
0.0559148341417312622 0.637123227119445801 -0.486001700162887573
0.717364609241485596 0.108726620674133301 -0.323143094778060913
0.347459942102432251 -0.111363992094993591 0.718346953392028809
0.573307275772094727 0.152713730931282043 -0.449080765247344971
-0.46755179762840271 0.0904908105731010437 -0.629800081253051758
0.461225152015686035 -0.512221157550811768 -0.0806040987372398376
-0.564525485038757324 0.231994971632957458 0.363865017890930176
-0.0254091247916221619 0.692514717578887939 -0.461942404508590698
-0.197937354445457458 -0.269297868013381958 0.711555600166320801
-0.0913172587752342224 -0.497359663248062134 -0.598861038684844971
-0.192349731922149658 0.29638439416885376 0.694197177886962891
0.0168058685958385468 0.377407371997833252 0.770514309406280518
-0.106947042047977448 0.28692626953125 -0.772950410842895508
-0.011858498677611351 0.905294656753540039 -0.18465714156627655
-0.699901282787322998 -0.0315721891820430756 0.441699475049972534
-0.0446588434278964996 -0.728802323341369629 -0.394340217113494873
0.221586093306541443 -0.577219009399414062 -0.359298378229141235
-0.0256278999149799347 -0.37225005030632019 0.767555415630340576
-0.0355038009583950043 -0.871771335601806641 0.202821686863899231
-0.789375007152557373 -0.0899613425135612488 -0.246115028858184814
0.507049679756164551 -0.278595328330993652 0.376878440380096436
0.532311379909515381 0.386229395866394043 -0.182121321558952332
-0.0012753454502671957 -0.373229533433914185 0.784652352333068848
-0.207774102687835693 0.0195141062140464783 -0.892229974269866943
-0.572844862937927246 0.317544937133789062 -0.227946147322654724
-0.160159111022949219 -0.782871127128601074 0.138531655073165894
-0.0514541007578372955 0.826656937599182129 -0.248129144310951233
-0.382418990135192871 0.389894634485244751 0.392830640077590942
0.240599691867828369 -0.70080268383026123 -0.144095003604888916
-0.719982326030731201 -0.264024436473846436 -0.0485475808382034302
-0.433177292346954346 -0.343992382287979126 -0.389212608337402344
0.498227953910827637 -0.345590800046920776 -0.297060221433639526
-0.556681692600250244 -0.437556028366088867 0.00182245078030973673
0.52745211124420166 0.446350306272506714 -0.0727923810482025146
-0.207813560962677002 0.691976606845855713 0.214049994945526123
0.136620834469795227 -0.776469528675079346 -0.190632402896881104
-0.613570749759674072 -0.262974262237548828 0.248920336365699768
0.0362462960183620453 0.780174911022186279 -0.334941476583480835
-0.672830104827880859 -0.0503100603818893433 -0.45230555534362793
-0.800816178321838379 -0.0114123215898871422 -0.340738534927368164
-0.54853355884552002 0.0593570619821548462 -0.581128716468811035
0.315545469522476196 0.679186642169952393 -0.0215711407363414764
-0.297706961631774902 -0.410129010677337646 -0.47263982892036438
0.0336963385343551636 0.958531856536865234 0.0153394555673003197
-0.104364901781082153 0.120011448860168457 -0.893579781055450439
-0.464821428060531616 0.225991502404212952 0.490353405475616455
0.0312395039945840836 -0.246637552976608276 0.858220100402832031
0.218738466501235962 -0.598313212394714355 0.338167279958724976
0.23695237934589386 -0.200791031122207642 -0.735032856464385986
0.617307662963867188 0.0329054296016693115 -0.533096611499786377
0.68979877233505249 -0.259467482566833496 -0.125974014401435852
-0.624588549137115479 -0.258665174245834351 -0.239675983786582947
0.312358260154724121 -0.255076676607131958 0.617377161979675293
-0.108134083449840546 0.821207344532012939 -0.163920029997825623
0.256241708993911743 0.12770487368106842 0.778803706169128418
-0.179808720946311951 0.116972275078296661 -0.844920217990875244
0.590071976184844971 0.0571556203067302704 -0.536228954792022705
-0.586327314376831055 -0.247127115726470947 0.313561230897903442
0.0311412960290908813 0.255849748849868774 -0.850732684135437012
-0.0325023606419563293 -0.520190000534057617 -0.635413408279418945
-0.692641377449035645 0.134299054741859436 0.32333296537399292
0.808664381504058838 0.16735762357711792 -0.0727854073047637939
0.524428427219390869 -0.378795713186264038 0.208898603916168213
0.241665467619895935 0.51444399356842041 0.412220358848571777
-0.365087062120437622 0.203516468405723572 0.616227090358734131
0.403588443994522095 -0.334176689386367798 0.434170991182327271
0.354072988033294678 0.324627846479415894 0.504846632480621338
0.40951836109161377 0.0748576521873474121 -0.694727599620819092
0.0280793383717536926 0.689463913440704346 -0.462430775165557861
0.00617414386942982674 0.864125311374664307 -0.258728682994842529
0.460510432720184326 -0.431094378232955933 -0.230988815426826477
0.808968782424926758 -0.0731141269207000732 0.240612953901290894
-0.814663887023925781 -0.00894249137490987778 -0.326331615447998047
-0.271313667297363281 -0.595594584941864014 -0.26513555645942688
0.396666824817657471 -0.178992077708244324 -0.610875368118286133
0.151307180523872375 -0.334565788507461548 -0.693738937377929688
-0.214806213974952698 -0.421119391918182373 -0.549933135509490967
0.000220482295844703913 0.793656051158905029 -0.363964438438415527
0.0552999824285507202 0.156139343976974487 0.900591909885406494
-0.0177138987928628922 -0.359390854835510254 -0.784573674201965332
0.297829866409301758 -0.442512065172195435 -0.433049976825714111
0.083372063934803009 0.635045707225799561 -0.457591772079467773
-0.134496957063674927 -0.577348113059997559 -0.464949250221252441
-0.0997477248311042786 -0.417924225330352783 0.666351199150085449
0.518534302711486816 0.441543519496917725 0.10312303900718689
-0.495929032564163208 0.192058756947517395 -0.491654962301254272
0.446590512990951538 0.0537655279040336609 -0.68091583251953125
0.0418905504047870636 0.333179295063018799 -0.786102533340454102
-0.909104466438293457 -0.0647175312042236328 0.074575573205947876
-0.594727933406829834 0.149847403168678284 -0.42831110954284668
-0.675810813903808594 0.295504301786422729 -0.0788795500993728638
-0.091852337121963501 -0.0198095124214887619 -0.958757758140563965
-0.263458728790283203 -0.494077950716018677 -0.411111593246459961
0.461712449789047241 0.19091111421585083 -0.531241476535797119
-0.421156138181686401 0.496786385774612427 -0.18321460485458374
0.270498484373092651 0.3243694007396698 -0.593147397041320801
0.147072881460189819 0.368999063968658447 0.667925834655761719
0.193328306078910828 -0.194751828908920288 -0.776328027248382568
0.297803670167922974 -0.600422799587249756 0.216395720839500427
-0.392402172088623047 -0.586901664733886719 0.0631895586848258972
0.732704758644104004 -0.0201097670942544937 -0.417171001434326172
-0.163081094622612 -0.646014153957366943 -0.344952166080474854
-0.0443982891738414764 -0.756572484970092773 -0.355377376079559326
0.584550082683563232 0.0356180556118488312 -0.564619183540344238
-0.709394752979278564 -0.173757091164588928 0.23900941014289856
0.58258289098739624 -0.292903393507003784 -0.252443552017211914
0.111973956227302551 0.482892602682113647 -0.591165125370025635
-0.233952134847640991 0.280720829963684082 0.669302642345428467
-0.159420609474182129 -0.51071089506149292 -0.511643171310424805
-0.405153572559356689 0.441571652889251709 -0.296665698289871216
-0.289300441741943359 0.596641778945922852 0.234823510050773621
-0.839065194129943848 0.147225648164749146 -0.0422294214367866516
-0.881843924522399902 0.00179665896575897932 -0.230638161301612854
0.0548829473555088043 -0.177246466279029846 -0.888865053653717041
0.566014468669891357 0.0458409488201141357 -0.576877176761627197
0.693205177783966064 0.265087217092514038 -0.110750056803226471
0.0504860356450080872 -0.384197741746902466 0.73783797025680542
0.06516304612159729 0.362106502056121826 0.743824303150177002
0.305305719375610352 -0.502874076366424561 0.349913626909255981
-0.565031945705413818 -0.420117765665054321 -0.0450222156941890717
0.28974643349647522 -0.0665033534169197083 -0.800241827964782715
0.250205546617507935 -0.557790935039520264 -0.346589922904968262
-0.458450824022293091 0.113792434334754944 -0.61490100622177124
0.519737362861633301 -0.359807193279266357 -0.245772823691368103
-0.049603048712015152 -0.276710391044616699 -0.822732746601104736
0.604912817478179932 -0.0424975305795669556 -0.537077128887176514
0.243797272443771362 0.562341451644897461 -0.348745912313461304
-0.0125730531290173531 0.11215200275182724 0.950711488723754883
0.795011758804321289 -0.0833251327276229858 -0.247757881879806519
-0.957423686981201172 0.00968422181904315948 -0.0831150561571121216
0.832338273525238037 -0.0310586187988519669 -0.269990533590316772
0.353761732578277588 0.159953668713569641 -0.669369161128997803
-0.256541401147842407 -0.053347170352935791 -0.834817409515380859
0.398967087268829346 0.0377568863332271576 -0.735913991928100586
-0.0595834888517856598 -0.130596727132797241 0.914150238037109375
0.346536368131637573 -0.155063837766647339 -0.679840505123138428
-0.04389166459441185 -0.0758620128035545349 -0.954078614711761475
-0.339459538459777832 -0.372639954090118408 -0.468166649341583252
0.0779562368988990784 0.782571852207183838 0.272947609424591064
-0.415772289037704468 -0.489246636629104614 -0.206831067800521851
-0.451084822416305542 0.00770106585696339607 0.71837770938873291
0.557443916797637939 0.0540226548910140991 0.574043631553649902
0.21922340989112854 -0.77071380615234375 0.0307495947927236557
-0.341834723949432373 0.359045326709747314 -0.479937851428985596
0.60960853099822998 0.176553070545196533 0.376260340213775635
-0.288504958152770996 0.194787472486495972 -0.696120560169219971
0.879995346069335938 0.0594558343291282654 0.145965680480003357
-0.384393841028213501 -0.0759710371494293213 -0.715480804443359375
-0.160310998558998108 -0.221922203898429871 -0.783011138439178467
-0.655424296855926514 -0.224585175514221191 -0.24500863254070282
0.143548667430877686 0.645339846611022949 -0.373009622097015381
0.0734638869762420654 -0.404940009117126465 -0.700632154941558838
0.514607787132263184 -0.122922211885452271 0.548393428325653076
0.0578827410936355591 -0.480931252241134644 -0.647676050662994385
-0.0619332902133464813 -0.0611498355865478516 0.951443970203399658
-0.147323206067085266 -0.602707803249359131 0.419493764638900757
0.565442681312561035 0.201213210821151733 0.39960065484046936
-0.731808900833129883 0.255757123231887817 -0.0391087830066680908
-0.562599122524261475 -0.380265563726425171 -0.137672096490859985
-0.178896784782409668 0.52976149320602417 -0.471777051687240601
0.184871107339859009 -0.528915882110595703 -0.462775468826293945
-0.317556649446487427 0.0860395804047584534 0.762938380241394043
0.333993345499038696 -0.478426754474639893 -0.34068569540977478
0.338939756155014038 0.413325846195220947 0.416819870471954346
-0.481432229280471802 0.0874123126268386841 -0.618466854095458984
0.113876752555370331 -0.815432846546173096 0.167030215263366699
-0.372635245323181152 0.54931110143661499 -0.176075562834739685
-0.888548016548156738 -0.101317107677459717 -0.0307646170258522034
-0.121524542570114136 0.330668181180953979 -0.72254413366317749
0.217750310897827148 0.678857088088989258 -0.217726051807403564
-0.268185406923294067 -0.387174546718597412 -0.527696609497070312
-0.135183051228523254 0.163456663489341736 -0.843523740768432617
-0.502029776573181152 0.319366306066513062 0.331650227308273315
0.574807226657867432 0.400342255830764771 -0.0754340067505836487
-0.405263006687164307 -0.323951095342636108 -0.447454869747161865
-0.6795806884765625 -0.121275581419467926 0.358676880598068237
-0.135749176144599915 0.739313900470733643 0.251143485307693481
0.599970340728759766 -0.137089788913726807 -0.436723589897155762
0.701875746250152588 -0.0330252014100551605 -0.439140558242797852
0.41158100962638855 -0.391583561897277832 0.355914801359176636
-0.0455398783087730408 -0.788360238075256348 -0.313122719526290894
-0.498031914234161377 0.303559601306915283 -0.354580879211425781
-0.0174694452434778214 -0.591952681541442871 0.576055705547332764
0.923754394054412842 -0.0692470744252204895 0.0101380664855241776
-0.786420226097106934 -0.152210608124732971 -0.14540901780128479
0.475472122430801392 -0.128042161464691162 -0.582092106342315674
-0.116305135190486908 -0.27374798059463501 0.773873209953308105
-0.580623328685760498 0.0863654389977455139 -0.515495955944061279
0.56105494499206543 0.235015958547592163 -0.363078862428665161
-0.745658457279205322 0.00658750953152775764 -0.4171409010887146
-0.282282739877700806 -0.175290942192077637 -0.717893242835998535
0.501734912395477295 -0.459697574377059937 -0.103065371513366699
0.181250900030136108 -0.537459611892700195 -0.457264065742492676
-0.448085427284240723 0.386405467987060547 -0.312364667654037476
-0.0794755816459655762 -0.360136866569519043 -0.73341745138168335
-0.712602078914642334 0.00242733815684914589 -0.46138465404510498
0.610434651374816895 0.144626006484031677 -0.416573911905288696
-0.0221264492720365524 0.140011772513389587 0.932034492492675781
0.26006317138671875 -0.669313192367553711 -0.162320509552955627
-0.235018834471702576 0.00891987048089504242 -0.88226771354675293
0.445012032985687256 0.188737645745277405 0.552113771438598633
-0.066080041229724884 -0.744816839694976807 -0.342640280723571777
-0.210755467414855957 -0.615489482879638672 -0.321358650922775269
-0.21770399808883667 -0.762572050094604492 -0.0569494292140007019
-0.238830164074897766 -0.55205613374710083 -0.368317663669586182
0.151935175061225891 -0.367187350988388062 0.664923608303070068
0.328803151845932007 -0.282476276159286499 0.574227809906005859
-0.333826333284378052 0.378395110368728638 -0.464527904987335205
0.656410753726959229 -0.231595218181610107 -0.231864452362060547
0.751704514026641846 0.0822462141513824463 -0.310704261064529419
-0.298733502626419067 0.266803145408630371 0.619245350360870361
-0.29927101731300354 -0.478598356246948242 -0.38502088189125061
-0.423718839883804321 -0.240016251802444458 -0.518909633159637451
-0.358253359794616699 -0.605959951877593994 -0.0962598174810409546
-0.0824727937579154968 -0.644160151481628418 0.447491645812988281
-0.617302000522613525 -0.0399992465972900391 0.528935670852661133
0.145768418908119202 -0.663963019847869873 -0.344135820865631104
-0.0809892341494560242 -0.159450367093086243 -0.883088946342468262
-0.397176772356033325 0.306471526622772217 -0.474124610424041748
0.272143065929412842 -0.356399059295654297 0.55723881721496582
-0.353644281625747681 0.622047901153564453 0.070691034197807312
0.0314859002828598022 0.254819035530090332 0.852845072746276855
0.848790287971496582 -0.0208384245634078979 -0.262071847915649414
-0.305135101079940796 0.659488439559936523 -0.0979101955890655518
0.193221256136894226 -0.661313772201538086 0.281937897205352783
0.0678725391626358032 0.315249770879745483 -0.780052781105041504
-0.343342304229736328 0.213210955262184143 -0.631362676620483398
0.601380646228790283 0.24040539562702179 0.301062881946563721
-0.834318697452545166 0.15773405134677887 0.016519470140337944
-0.246911138296127319 0.0106580834835767746 -0.874379634857177734
0.644046545028686523 0.329592466354370117 -0.0800191387534141541
-0.0355046316981315613 -0.335354655981063843 -0.789265871047973633
0.130595505237579346 -0.0512437671422958374 0.919469833374023438
0.149495631456375122 0.24791659414768219 -0.769316911697387695
-0.298387587070465088 -0.578806638717651367 -0.2509135901927948
0.453367471694946289 0.324898988008499146 0.385707587003707886
-0.849453091621398926 0.0114262644201517105 0.270813971757888794
-0.396086633205413818 0.286927342414855957 -0.498682588338851929
0.00507763493806123734 -0.597090542316436768 -0.585967838764190674
-0.0762846246361732483 0.744610190391540527 0.33240211009979248
0.00119269895367324352 -0.819266200065612793 -0.329358726739883423
0.419225633144378662 -0.537433147430419922 -0.11246500164270401
-0.782654643058776855 -0.0181407667696475983 -0.356546521186828613
-0.437708139419555664 -0.556829333305358887 -0.0220474991947412491
0.150628730654716492 0.627692759037017822 -0.387620061635971069
0.520089447498321533 -0.471545130014419556 0.0193327013403177261
0.217341214418411255 0.141217052936553955 0.799302518367767334
0.410746604204177856 -0.00220925384201109409 0.753899335861206055
0.256515741348266602 -0.420672833919525146 -0.503743529319763184
-0.594483911991119385 -0.385712265968322754 0.0613360665738582611
0.141385570168495178 0.0474526658654212952 -0.916412532329559326
0.773676633834838867 -0.19156685471534729 -0.0967773720622062683
-0.170606032013893127 0.313458442687988281 -0.694996893405914307
-0.372342884540557861 0.482750535011291504 -0.285927712917327881
0.730951428413391113 0.164600640535354614 -0.219460770487785339
-0.458669871091842651 -0.512239634990692139 0.0806249603629112244
-0.0805285647511482239 -0.625558793544769287 0.472076237201690674
0.450995832681655884 0.356961160898208618 -0.34664452075958252
-0.124362483620643616 -0.157934784889221191 -0.855801701545715332
-0.406379193067550659 0.308748126029968262 0.461259126663208008
-0.262009322643280029 0.213731512427330017 -0.703089892864227295
0.191988632082939148 -0.246375545859336853 0.73486638069152832
0.696316838264465332 0.0101466840133070946 -0.470973283052444458
-0.163117140531539917 -0.0539158731698989868 -0.897826135158538818
0.445594727993011475 0.265445441007614136 0.466149777173995972
0.0132079347968101501 -0.517801403999328613 -0.652059733867645264
0.72254335880279541 0.275058925151824951 -0.00727834459394216537
0.230472281575202942 -0.477926790714263916 -0.468806654214859009
0.628431379795074463 0.310427457094192505 0.147195979952812195
-0.355399429798126221 -0.491571962833404541 0.293284237384796143
-0.435779213905334473 0.367297589778900146 0.356019794940948486
0.12416163831949234 -0.478837519884109497 0.582376778125762939
-0.157812729477882385 -0.733086764812469482 0.227386981248855591
-0.13459816575050354 0.00352785829454660416 -0.94345468282699585
-0.293538182973861694 0.110629551112651825 -0.764052808284759521
-0.7284088134765625 -0.0139447879046201706 -0.430594414472579956
0.205337494611740112 -0.427308797836303711 -0.551527321338653564
-0.52881699800491333 -0.033604692667722702 -0.625205576419830322
0.146000713109970093 -0.00760162528604269028 -0.934560894966125488
0.0361733287572860718 0.306000560522079468 -0.810816943645477295
0.104956448078155518 0.198384776711463928 0.841979920864105225
-0.0400835871696472168 0.89293748140335083 -0.157871678471565247
0.80727851390838623 -0.0860225483775138855 0.223784372210502625
-0.832338154315948486 -0.104698807001113892 -0.151270583271980286
-0.0708426237106323242 0.0706075280904769897 -0.940819919109344482
0.47977718710899353 -0.177857100963592529 0.528607845306396484
-0.154243260622024536 0.800818979740142822 -0.118655294179916382
0.137400358915328979 -0.472429484128952026 -0.575465917587280273
0.0769781544804573059 -0.257779806852340698 -0.817531585693359375
0.0690713152289390564 0.475549697875976562 0.639829397201538086
-0.392439603805541992 -0.145158380270004272 -0.646001875400543213
0.0250333566218614578 0.925619065761566162 -0.123440936207771301
0.206808969378471375 0.684533596038818359 -0.226380005478858948
-0.374942362308502197 -0.0360527336597442627 -0.758151829242706299
0.00430249562487006187 -0.809468448162078857 -0.336841464042663574
0.465925276279449463 -0.448832064867019653 0.191597476601600647
-0.293423593044281006 0.17285647988319397 -0.711821258068084717
-0.0372077822685241699 -0.14234645664691925 -0.9194985032081604
-0.188831478357315063 0.133599713444709778 0.828471899032592773
-0.413464397192001343 0.581031978130340576 -0.0221480019390583038
-0.115975126624107361 0.0733178108930587769 0.914716124534606934
0.160155847668647766 0.0524310916662216187 -0.900397121906280518
-0.303573489189147949 -0.651080071926116943 -0.116129301488399506
-0.891259610652923584 -0.0969519913196563721 -0.0375287309288978577
0.496898919343948364 0.301767200231552124 -0.35833469033241272
-0.0213498864322900772 0.197372660040855408 -0.898183703422546387
0.658621311187744141 -0.119759410619735718 -0.384364724159240723
-0.00493492372334003448 -0.713275432586669922 -0.459389537572860718
-0.491634756326675415 0.381803423166275024 0.253581017255783081
0.349428445100784302 -0.646440386772155762 -0.00914923474192619324
-0.339818179607391357 0.380558043718338013 0.454978346824645996
-0.479408770799636841 0.0124056544154882431 -0.688255548477172852
-0.683399081230163574 -0.056972455233335495 0.431052207946777344
-0.243338838219642639 -0.38407626748085022 -0.55945974588394165
0.409230917692184448 0.209285199642181396 -0.569421231746673584
0.408792614936828613 -0.493230581283569336 0.210700154304504395
-0.654052495956420898 0.00517791090533137321 -0.521261394023895264
-0.176298424601554871 -0.140739157795906067 0.832826733589172363
0.711510300636291504 0.27959027886390686 0.022924419492483139
-0.295795261859893799 -0.512053191661834717 -0.346551984548568726
0.276274770498275757 -0.686682820320129395 0.0971415787935256958
-0.0310092680156230927 -0.506557166576385498 -0.646030962467193604
-0.0713917315006256104 -0.533865153789520264 -0.580263793468475342
0.117253035306930542 0.471869409084320068 0.59603351354598999
0.716307282447814941 0.178938433527946472 0.220867201685905457
-0.203385472297668457 0.0367018580436706543 -0.883333802223205566
0.125368699431419373 -0.805890560150146484 0.162980690598487854
-0.488751322031021118 0.168407738208770752 0.529075562953948975
0.279087036848068237 0.117226995527744293 -0.770141959190368652
0.132191210985183716 0.809196949005126953 0.141942426562309265
0.791776180267333984 0.0174973681569099426 -0.34482419490814209
-0.688977718353271484 0.00814030971378087997 0.481233298778533936
-0.354422330856323242 0.0668428540229797363 0.748672306537628174
0.606679975986480713 0.15242321789264679 -0.41204872727394104
-0.583842873573303223 0.367347538471221924 -0.122457794845104218
-0.36974826455116272 0.293718546628952026 0.522867798805236816
-0.269778698682785034 0.53051292896270752 0.359352469444274902
0.273330628871917725 0.558471739292144775 -0.315814554691314697
0.142827793955802917 0.338064491748809814 0.700528740882873535
-0.0671201497316360474 0.117954038083553314 -0.918351173400878906
0.181272402405738831 0.710496842861175537 0.226082265377044678
0.533938229084014893 0.249623402953147888 0.379371464252471924
-0.0615203045308589935 -0.680823445320129395 -0.430607050657272339
0.0635058283805847168 -0.605764806270599365 -0.51260685920715332
0.350436121225357056 0.0770351886749267578 -0.746733784675598145
-0.72956162691116333 -0.0390682816505432129 -0.396876901388168335
-0.111537612974643707 0.837512016296386719 0.126029089093208313
-0.560925304889678955 -0.0276674162596464157 -0.59893876314163208
-0.944133579730987549 -0.0452019013464450836 -0.0347783453762531281
-0.0498430393636226654 0.946995079517364502 -0.0156690236181020737
-0.0482064671814441681 0.931639552116394043 -0.061177622526884079
-0.627158820629119873 0.154639914631843567 0.381480902433395386
-0.144469097256660461 -0.358793973922729492 0.680531620979309082
-0.403139233589172363 -0.5437660813331604 -0.135049581527709961
0.539202213287353516 0.448673814535140991 0.0446144714951515198
0.0119201745837926865 0.555180132389068604 -0.618774116039276123
0.383979678153991699 -0.388443559408187866 -0.392009317874908447
0.700245976448059082 -0.26157417893409729 0.0995040088891983032
0.616474628448486328 -0.328401803970336914 -0.133995801210403442
-0.805586814880371094 0.0808909311890602112 0.234020128846168518
-0.265797555446624756 -0.643262863159179688 -0.197256550192832947
-0.159869670867919922 0.338681638240814209 0.685168683528900146
0.537565231323242188 0.400612443685531616 0.148610800504684448
-0.784759879112243652 -0.196863740682601929 -0.0557817742228507996
-0.771643102169036865 -0.00133734906557947397 -0.395004838705062866
0.0211896710097789764 -0.252848386764526367 -0.859735846519470215
0.157830193638801575 0.0888639539480209351 0.878107547760009766
-0.386983096599578857 0.520430564880371094 -0.199963361024856567
