ply
format ascii 1.0
element vertex 739
property float x
property float y
property float z
end_header
-0.160399734973907471 0.915058672428131104 -0.0157853364944458008
0.077340051531791687 -0.0156201450154185295 -0.915823101997375488
0.168002814054489136 -0.18909868597984314 -0.699360072612762451
0.367668181657791138 -0.540977299213409424 -0.228693142533302307
0.562153458595275879 -0.475485712289810181 -0.124448753893375397
-0.24067966639995575 -0.269019961357116699 0.569984018802642822
0.122012056410312653 -0.174980685114860535 0.748812496662139893
-0.388385236263275146 0.184278830885887146 -0.506460964679718018
-0.113739393651485443 -0.708916127681732178 0.242972433567047119
-0.292589634656906128 -0.413715869188308716 -0.401351690292358398
-0.606471478939056396 -0.0600186847150325775 -0.370752811431884766
0.372495442628860474 -0.558576703071594238 -0.209953293204307556
0.379271596670150757 -0.077940814197063446 0.586343646049499512
0.598014175891876221 0.262159556150436401 -0.255679666996002197
0.610006928443908691 -0.0708573386073112488 0.362083405256271362
-0.0393684022128582001 0.240193590521812439 -0.743035554885864258
0.587571680545806885 0.0893610343337059021 -0.375479727983474731
0.540226280689239502 -0.224674567580223083 -0.336390942335128784
-0.174241974949836731 -0.474686712026596069 -0.434238612651824951
0.83162301778793335 0.0576585717499256134 -0.14889545738697052
0.412644267082214355 -0.512282133102416992 -0.219551384449005127
-0.125102832913398743 -0.893501877784729004 -0.0549858622252941132
-0.254404306411743164 -0.846834838390350342 -0.0254533160477876663
-0.839760482311248779 0.300711303949356079 -0.00216785422526299953
0.590368211269378662 0.204825639724731445 -0.302417159080505371
-0.815191030502319336 0.117427505552768707 0.138412028551101685
0.376954734325408936 0.449599891901016235 0.301763623952865601
-0.847883462905883789 0.231354698538780212 0.0387260876595973969
-0.655011653900146484 0.219503417611122131 0.2336416095495224
-0.252405345439910889 0.784680843353271484 -0.0857839137315750122
0.205967172980308533 0.00326860882341861725 -0.792956054210662842
0.206983968615531921 0.268525928258895874 -0.598138272762298584
0.227240338921546936 -0.253184109926223755 -0.595486462116241455
0.754099369049072266 0.04126758873462677 0.232305675745010376
0.114418685436248779 -0.216655254364013672 -0.716167926788330078
-0.290636152029037476 0.323326975107192993 -0.482069283723831177
0.207550212740898132 -0.202471926808357239 -0.654085636138916016
0.49889025092124939 0.256205707788467407 -0.351942718029022217
-0.0291400942951440811 -0.0216738507151603699 -0.957066237926483154
0.692105770111083984 0.0690489187836647034 -0.281637668609619141
-0.375509738922119141 -0.529317498207092285 -0.235393792390823364
0.33264651894569397 -0.530604779720306396 -0.266643255949020386
-0.288222253322601318 0.0143935671076178551 -0.706935644149780273
-0.542017579078674316 0.359526753425598145 -0.236229315400123596
-0.686703681945800781 0.282624363899230957 -0.158270522952079773
0.264572232961654663 0.0122718429192900658 -0.732124924659729004
-0.0413224957883358002 -0.297611236572265625 -0.685407280921936035
0.186259299516677856 -0.72663569450378418 0.184831619262695312
0.298819303512573242 -0.189200162887573242 0.585994482040405273
0.416617214679718018 0.61530005931854248 -0.125940725207328796
-0.461723893880844116 0.0679766684770584106 -0.510311603546142578
0.487970709800720215 -0.4923686683177948 -0.173579901456832886
-0.274943351745605469 0.716933667659759521 -0.135375738143920898
-0.197578012943267822 -0.654190778732299805 -0.248396337032318115
-0.564858913421630859 -0.600704789161682129 0.0163240395486354828
-0.157620906829833984 0.00789032969623804092 -0.84013521671295166
0.0404583662748336792 0.480842888355255127 0.50490039587020874
-0.334046930074691772 0.246641591191291809 -0.508661866188049316
-0.584997177124023438 0.197977736592292786 -0.314157485961914062
-0.30412021279335022 -0.254685163497924805 -0.527879476547241211
-0.124433174729347229 -0.142667755484580994 -0.77451556921005249
-0.50956416130065918 0.661173343658447266 -0.0105837909504771233
0.0868388786911964417 0.228777647018432617 -0.724672794342041016
-0.452571004629135132 0.102180436253547668 -0.50053095817565918
-0.366644710302352905 0.556422293186187744 0.216567158699035645
0.518731236457824707 -0.656770050525665283 -0.00726190488785505295
-0.527850210666656494 -0.198073893785476685 -0.367103934288024902
0.59714430570602417 0.573428094387054443 -0.0154256317764520645
-0.170258268713951111 0.676678180694580078 -0.242538124322891235
-0.172410115599632263 0.896511435508728027 -0.027979828417301178
0.36213386058807373 0.630210161209106445 0.152649194002151489
-0.421242058277130127 -0.0175622124224901199 -0.572972357273101807
-0.44937172532081604 0.624422788619995117 -0.0903190672397613525
-0.255583435297012329 -0.855332255363464355 0.0164069291204214096
0.292234122753143311 -0.121812745928764343 0.640741646289825439
-0.583629190921783447 0.533224105834960938 0.0573782287538051605
-0.782464444637298584 -0.199697941541671753 -0.121577039361000061
-0.267602413892745972 -0.781065762042999268 -0.0803229659795761108
-0.156611174345016479 -0.611565768718719482 -0.314022243022918701
-0.492297619581222534 0.451329201459884644 -0.20556621253490448
-0.289112716913223267 0.582987010478973389 -0.250169932842254639
0.323280811309814453 0.204695925116539001 -0.55097353458404541
0.0390575118362903595 0.011759316548705101 0.955093681812286377
0.629684209823608398 -0.4907379150390625 0.0524508990347385406
-0.325715363025665283 -0.306605905294418335 -0.466512978076934814
-0.113011926412582397 0.170688703656196594 0.759428501129150391
0.685418069362640381 0.0117004616186022758 -0.309048235416412354
0.76302260160446167 -0.164548426866531372 -0.161249712109565735
0.0899657905101776123 0.919591546058654785 0.047101438045501709
0.864765703678131104 0.253452003002166748 0.00575109198689460754
0.00212150649167597294 -0.30997854471206665 -0.6887473464012146
-0.306261152029037476 0.188339859247207642 0.578724265098571777
-0.210521742701530457 -0.391648262739181519 0.484807699918746948
-0.113928139209747314 0.235766664147377014 -0.698979079723358154
0.879863142967224121 -0.0075339428149163723 -0.116404794156551361
-0.333245992660522461 0.75539928674697876 -0.0590928047895431519
-0.112593837082386017 0.131429672241210938 -0.79398268461227417
0.962119519710540771 0.0601130351424217224 -0.0184856876730918884
0.204860925674438477 0.539784848690032959 -0.350438058376312256
0.458825230598449707 -0.331177741289138794 -0.331646710634231567
0.0240380074828863144 0.76920318603515625 0.22499510645866394
0.803040683269500732 -0.231653168797492981 -0.0815507173538208008
0.0943565890192985535 -0.490620404481887817 -0.468054890632629395
-0.0321113206446170807 -0.0606482699513435364 -0.920599877834320068
-0.0366133302450180054 -0.972878992557525635 0.0170301739126443863
0.296857655048370361 -0.090572945773601532 0.657321691513061523
-0.181585341691970825 -0.644796550273895264 0.26729235053062439
-0.674247562885284424 0.366340219974517822 0.109637022018432617
0.547076642513275146 0.463065564632415771 -0.14766751229763031
-0.147368296980857849 0.909953832626342773 -0.0304222758859395981
-0.111757427453994751 0.243148297071456909 -0.694511651992797852
-0.518423974514007568 -0.313492059707641602 0.290924876928329468
0.1782570481300354 -0.0760347098112106323 -0.780302882194519043
-0.434586822986602783 0.341241240501403809 0.344012230634689331
0.331057727336883545 -0.333436191082000732 -0.43932950496673584
0.106411442160606384 -0.429885566234588623 0.520240306854248047
0.32643967866897583 -0.00795200932770967484 -0.670940637588500977
0.0525805577635765076 -0.312581539154052734 -0.665731132030487061
-0.175037786364555359 -0.624316871166229248 0.289685457944869995
0.399264603853225708 -0.394322335720062256 0.332134127616882324
-0.169074907898902893 -0.829142630100250244 0.0950975790619850159
0.42754712700843811 0.111619554460048676 0.518540680408477783
0.0466402657330036163 0.175131216645240784 0.802373588085174561
-0.0650157630443572998 -0.602889835834503174 -0.372094541788101196
-0.297307848930358887 0.0139945661649107933 -0.698081851005554199
0.210820049047470093 -0.634077072143554688 0.257915198802947998
-0.517699480056762695 0.221042945981025696 -0.359979689121246338
0.506835758686065674 -0.269225180149078369 -0.336991161108016968
0.492125570774078369 -0.449356764554977417 0.205930039286613464
-0.301320254802703857 -0.308735936880111694 -0.48522639274597168
0.063032098114490509 0.647018253803253174 -0.330633282661437988
0.64366447925567627 0.17000243067741394 -0.273855328559875488
0.470185935497283936 0.530824124813079834 -0.155007496476173401
0.284795582294464111 -0.514812052249908447 -0.317554235458374023
-0.247954472899436951 0.34246903657913208 0.499798029661178589
0.55356144905090332 -0.391604155302047729 -0.199868351221084595
-0.890999734401702881 0.0801878347992897034 -0.0794988721609115601
0.553331196308135986 0.264274388551712036 -0.296580374240875244
-0.0732817798852920532 0.443561136722564697 -0.526484012603759766
-0.562795877456665039 -0.14770093560218811 -0.367487341165542603
-0.192517295479774475 0.357442647218704224 0.528949141502380371
0.139220774173736572 -0.628564774990081787 -0.307093292474746704
-0.0971783548593521118 0.683593094348907471 -0.27625158429145813
-0.66342395544052124 -0.140704959630966187 0.272815078496932983
-0.721334099769592285 0.121192015707492828 0.226427346467971802
0.525109052658081055 -0.415346980094909668 0.204895034432411194
-0.256720632314682007 -0.0360175222158432007 -0.728511393070220947
0.255812197923660278 -0.29163852334022522 -0.5378570556640625
-0.786310851573944092 0.153832748532295227 0.147361263632774353
-0.482063859701156616 0.293506741523742676 -0.33913654088973999
-0.318237215280532837 -0.554477572441101074 0.254756629467010498
0.593900382518768311 0.126992702484130859 -0.349094301462173462
0.398240268230438232 0.161381393671035767 0.514791667461395264
-0.355032205581665039 0.331660747528076172 0.422182083129882812
0.45715630054473877 -0.340333163738250732 0.325285047292709351
-0.00812328793108463287 0.86337888240814209 -0.134789347648620605
-0.740234911441802979 -0.351843863725662231 -0.058900102972984314
0.324438542127609253 0.807873189449310303 0.0144840618595480919
-0.137934967875480652 -0.745445430278778076 -0.194524973630905151
-0.0138958944007754326 0.429139822721481323 -0.566318392753601074
0.141846045851707458 0.280495941638946533 -0.637953579425811768
0.0797722265124320984 0.809760451316833496 0.159988164901733398
0.0626276880502700806 0.829976141452789307 0.149398595094680786
0.238799974322319031 0.126765981316566467 -0.686813533306121826
-0.523576080799102783 -0.650871872901916504 0.000841377477627247572
0.197001874446868896 0.68173372745513916 -0.220477104187011719
0.191877067089080811 0.25018012523651123 0.626629352569580078
0.0859362408518791199 -0.570722103118896484 -0.39372718334197998
0.0485236644744873047 0.328967541456222534 -0.651598870754241943
0.12668098509311676 0.195191308856010437 -0.726788043975830078
-0.383376926183700562 0.67895805835723877 0.0921243950724601746
-0.827674388885498047 -0.27072557806968689 -0.0332407504320144653
-0.122459620237350464 -0.656944870948791504 0.289694786071777344
-0.959179878234863281 -0.0468863658607006073 0.0253741703927516937
0.129059940576553345 0.201837494969367981 -0.718919813632965088
-0.0960866808891296387 0.950261592864990234 0.0151319075375795364
-0.456055343151092529 0.30909574031829834 -0.350930660963058472
0.308727145195007324 0.40867161750793457 0.393281310796737671
0.0990666449069976807 0.588928520679473877 0.368679732084274292
-0.459014236927032471 -0.345022350549697876 -0.320962518453598022
-0.799919664859771729 0.119176849722862244 0.152217879891395569
-0.337635159492492676 0.287930667400360107 0.472273200750350952
-0.3266182541847229 0.461315929889678955 -0.334104686975479126
-0.499500095844268799 -0.281072348356246948 0.33410981297492981
0.126379847526550293 0.0794543549418449402 0.82484138011932373
-0.856580257415771484 -0.0525777824223041534 -0.125038683414459229
-0.147842243313789368 -0.401905030012130737 -0.519634068012237549
0.0750626400113105774 -0.261303603649139404 -0.702236831188201904
0.942703485488891602 0.106564916670322418 -0.0168767552822828293
-0.772157073020935059 0.01048322394490242 -0.222012251615524292
-0.281154274940490723 0.161229044198989868 -0.622121870517730713
-0.357199907302856445 -0.345889359712600708 -0.407007366418838501
-0.546384632587432861 0.173458650708198547 -0.366501212120056152
0.377260655164718628 -0.162580415606498718 0.532468795776367188
-0.046652037650346756 -0.268723487854003906 -0.711040198802947998
0.0669342055916786194 0.00108089123386889696 -0.932857811450958252
0.178295448422431946 -0.308350920677185059 0.584583103656768799
0.110550135374069214 -0.396818459033966064 -0.549757957458496094
0.231730133295059204 -0.561043858528137207 -0.312875688076019287
-0.0843237414956092834 0.131064757704734802 0.816821873188018799
-0.616321325302124023 -0.0288882441818714142 -0.374094247817993164
-0.451633036136627197 0.344215035438537598 -0.326859205961227417
-0.169718921184539795 0.710065662860870361 -0.211556479334831238
0.672033786773681641 -0.255039513111114502 -0.190972581505775452
-0.106385685503482819 -0.0301309730857610703 -0.87892526388168335
0.631704747676849365 0.519209742546081543 -0.0280936695635318756
0.791563868522644043 -0.202196002006530762 -0.111257776618003845
0.531753838062286377 -0.151460900902748108 -0.394240438938140869
-0.205776453018188477 -0.179908648133277893 -0.674862384796142578
0.276647418737411499 -0.118389397859573364 -0.657757997512817383
-0.385242044925689697 -0.0533814728260040283 -0.592955410480499268
0.637513220310211182 0.352419883012771606 -0.153162971138954163
0.978439092636108398 0.00503087276592850685 0.0169103760272264481
-0.515655457973480225 0.460089653730392456 -0.177901327610015869
-0.0834089592099189758 -0.688778579235076904 -0.279789924621582031
0.534121930599212646 -0.253471940755844116 -0.322236239910125732
0.244837939739227295 0.843692600727081299 0.0343803055584430695
0.512358129024505615 0.229944750666618347 -0.35894361138343811
0.5311431884765625 -0.0984366759657859802 -0.425447911024093628
-0.389190763235092163 -0.0413299091160297394 -0.595356285572052002
0.320124387741088867 0.707345962524414062 -0.112957179546356201
-0.702125370502471924 -0.467360079288482666 -0.00927452649921178818
-0.809365630149841309 -0.140080064535140991 -0.131638765335083008
0.321295589208602905 -0.572932064533233643 -0.235539361834526062
0.638855993747711182 -0.0133219938725233078 -0.357977330684661865
0.153169035911560059 0.523952066898345947 -0.399639099836349487
0.437407225370407104 0.21216195821762085 -0.441889703273773193
-0.52601921558380127 -0.453632086515426636 0.172606334090232849
-0.203947484493255615 -0.893966972827911377 -0.0137937413528561592
0.0310663022100925446 -0.531733691692352295 0.45785069465637207
-0.303496003150939941 0.0388655737042427063 -0.680895864963531494
-0.220631390810012817 0.219147130846977234 0.62895500659942627
-0.128606975078582764 -0.328467428684234619 -0.60193556547164917
-0.554987549781799316 -0.503976225852966309 -0.10617171972990036
-0.374017536640167236 0.193466708064079285 -0.514538586139678955
0.339982450008392334 0.799989700317382812 -0.0131438495591282845
-0.200391665101051331 -0.559991836547851562 -0.334627240896224976
-0.084174521267414093 0.0846296921372413635 0.857887148857116699
0.048772912472486496 -0.720094621181488037 -0.264837563037872314
0.414168745279312134 -0.224815905094146729 -0.454396486282348633
0.590191781520843506 -0.103296332061290741 -0.366240352392196655
0.640989601612091064 -0.497897058725357056 0.0369268059730529785
-0.230240806937217712 -0.739270508289337158 -0.143692448735237122
-0.272938400506973267 0.0238225404173135757 0.719137728214263916
-0.198294356465339661 -0.040530867874622345 0.783467471599578857
0.0771056786179542542 -0.796729862689971924 0.174840062856674194
-0.037326473742723465 -0.0173963867127895355 0.95279461145401001
0.247858598828315735 -0.187825784087181091 -0.632178604602813721
-0.430333435535430908 0.561865687370300293 -0.161285102367401123
-0.680876255035400391 -0.490900486707687378 -0.00861298572272062302
0.575843632221221924 0.247942566871643066 -0.286680668592453003
0.365257740020751953 -0.4212208092212677 -0.336062252521514893
-0.369196474552154541 -0.646930396556854248 -0.132343336939811707
-0.668428778648376465 -0.0729254931211471558 -0.304327487945556641
0.54460984468460083 0.274537861347198486 -0.298014521598815918
0.0712734907865524292 0.646919608116149902 0.327552139759063721
-0.469199806451797485 -0.301419436931610107 -0.346798598766326904
-0.761732578277587891 -0.300447046756744385 -0.0771852210164070129
-0.565063178539276123 0.113472849130630493 -0.385401695966720581
0.745373189449310303 0.0423761233687400818 -0.240666687488555908
-0.709282517433166504 0.339796274900436401 0.0963251441717147827
0.374186962842941284 0.409142762422561646 -0.338844358921051025
0.303793251514434814 -0.757188618183135986 -0.0779515206813812256
0.0471132285892963409 0.887720406055450439 0.0961184501647949219
-0.219095185399055481 -0.328489392995834351 0.534879207611083984
-0.208783373236656189 -0.147943824529647827 -0.697965085506439209
0.491200149059295654 -0.36246877908706665 -0.276964157819747925
0.0101842228323221207 0.297662317752838135 -0.699701547622680664
0.00366637762635946274 0.291446119546890259 -0.706912457942962646
-0.496517568826675415 -0.295250147581100464 -0.325915753841400146
0.397630602121353149 0.686722338199615479 -0.0744235292077064514
-0.206578701734542847 0.887736380100250244 0.014777044765651226
0.140201449394226074 0.339114189147949219 -0.583808600902557373
0.433575630187988281 -0.215449899435043335 0.443262726068496704
-0.284525871276855469 -0.135087683796882629 -0.638908088207244873
0.301245898008346558 -0.832506954669952393 -0.00848291255533695221
0.659305870532989502 -0.20148022472858429 0.240203395485877991
-0.347140252590179443 -0.509931623935699463 0.274236053228378296
-0.312387019395828247 -0.519972324371337891 -0.290473759174346924
0.378093063831329346 -0.724474847316741943 -0.0557892210781574249
0.667210042476654053 -0.092679247260093689 -0.296844244003295898
-0.397571146488189697 -0.390788376331329346 0.336596637964248657
-0.188179060816764832 0.243448793888092041 -0.635449349880218506
0.360975593328475952 0.458533704280853271 -0.307936578989028931
0.155019760131835938 0.705487668514251709 -0.225262850522994995
-0.257723033428192139 0.2197408527135849 0.597404778003692627
-0.109221599996089935 -0.658690035343170166 -0.294699519872665405
-0.64385068416595459 -0.405338078737258911 -0.107564851641654968
0.482125610113143921 0.151018857955932617 0.441420495510101318
-0.300654590129852295 0.33615410327911377 -0.462465137243270874
0.0755026191473007202 0.689455330371856689 -0.281426757574081421
0.537213981151580811 -0.300832033157348633 0.284991741180419922
-0.211523458361625671 0.824403941631317139 -0.0748618468642234802
-0.786505281925201416 -0.132238999009132385 -0.157531186938285828
0.297022819519042969 -0.452141016721725464 0.364477932453155518
-0.245923727750778198 -0.792577564716339111 -0.0830770209431648254
-0.20261654257774353 -0.620396673679351807 0.276039004325866699
-0.210703864693641663 0.03176068514585495 0.776181876659393311
-0.16891711950302124 -0.227710828185081482 -0.664956152439117432
-0.396168231964111328 -0.0960448458790779114 0.558558821678161621
0.517214834690093994 0.234477847814559937 0.351259201765060425
0.656680583953857422 0.153229460120201111 -0.272095084190368652
0.720451772212982178 0.446189969778060913 -0.00723178079351782799
0.332820624113082886 -0.80530846118927002 0.00864568538963794708
0.40371289849281311 0.151626735925674438 -0.515779674053192139
0.601716220378875732 -0.144353196024894714 -0.330495715141296387
-0.0638114511966705322 0.371908068656921387 0.601517677307128906
-0.739560902118682861 -0.146102666854858398 -0.197149232029914856
0.0585000626742839813 0.293860495090484619 -0.68037945032119751
-0.0273247137665748596 0.18540993332862854 0.80337601900100708
0.594072997570037842 0.225416868925094604 -0.285899966955184937
-0.820991814136505127 -0.00373132945969700813 -0.17391715943813324
0.44968646764755249 0.493281006813049316 -0.205880656838417053
-0.364741206169128418 -0.740218698978424072 0.050233352929353714
-0.438887894153594971 0.232652023434638977 -0.424636423587799072
-0.473159700632095337 0.402455061674118042 -0.261692911386489868
-0.877323925495147705 0.110883951187133789 -0.0806278213858604431
0.532605528831481934 -0.323978930711746216 -0.270735591650009155
-0.316182911396026611 0.715938806533813477 -0.107988014817237854
0.0211535543203353882 -0.706469476222991943 -0.288605332374572754
0.00993141904473304749 0.675628602504730225 -0.32162126898765564
0.213544771075248718 0.0581744611263275146 -0.757957041263580322
0.773951292037963867 0.208848357200622559 -0.126259297132492065
-0.729072511196136475 -0.226895198225975037 0.157382264733314514
0.318502098321914673 -0.390082865953445435 0.40110507607460022
0.435479342937469482 0.60470879077911377 -0.12121957540512085
0.865048050880432129 -0.184291958808898926 -0.0504337623715400696
-0.620737373828887939 0.111737065017223358 0.330307215452194214
-0.163662731647491455 0.636252999305725098 0.284718543291091919
0.227989718317985535 0.606966078281402588 0.273381650447845459
-0.44493064284324646 -0.0289629902690649033 -0.545527935028076172
-0.0660306811332702637 0.812784910202026367 0.163984924554824829
0.3281058669090271 0.123728401958942413 -0.606159329414367676
-0.585929393768310547 0.569852650165557861 -0.0249386318027973175
-0.185187831521034241 -0.390028059482574463 -0.505929529666900635
-0.566590547561645508 -0.502174556255340576 0.0993606895208358765
-0.384028047323226929 -0.443374902009963989 -0.301498323678970337
0.47853165864944458 -0.519849717617034912 -0.157355621457099915
0.4685860276222229 0.177304670214653015 -0.437130212783813477
-0.108799755573272705 0.0281035918742418289 -0.877662718296051025
-0.639652013778686523 0.276116698980331421 0.206961005926132202
0.309664487838745117 0.681540966033935547 -0.146096691489219666
0.73884892463684082 -0.16203346848487854 -0.187645256519317627
0.106856480240821838 -0.892076730728149414 -0.066185489296913147
-0.736203432083129883 -0.361605912446975708 -0.0565188638865947723
0.219871640205383301 0.728515625 0.160795778036117554
0.0321921482682228088 0.109641864895820618 -0.874282598495483398
-0.620445668697357178 0.0504902899265289307 -0.361188769340515137
0.936279892921447754 0.0110804997384548187 -0.0600698180496692657
-0.248180940747261047 -0.111021079123020172 0.689726114273071289
0.343426436185836792 0.229792222380638123 0.51321178674697876
0.220433920621871948 0.894388139247894287 -0.00143788522109389305
0.163921698927879333 0.861374974250793457 -0.0669553056359291077
-0.541156649589538574 0.540834486484527588 0.0892027616500854492
0.391106605529785156 -0.714199721813201904 -0.0560493543744087219
-0.364267468452453613 -0.763008654117584229 -0.0319123044610023499
-0.610034823417663574 -0.124484360218048096 -0.333967447280883789
-0.733831524848937988 0.22797703742980957 -0.151087656617164612
-0.504050314426422119 -0.10090482234954834 -0.451965034008026123
0.318576782941818237 -0.257443338632583618 0.51440584659576416
0.0477275140583515167 0.140758991241455078 -0.834661722183227539
-0.726013243198394775 0.392904281616210938 0.0420121662318706512
0.174931183457374573 0.671816825866699219 0.244648098945617676
-0.510698437690734863 0.152780503034591675 -0.412415832281112671
0.0120169911533594131 -0.328178048133850098 -0.667880892753601074
0.283690094947814941 0.483207643032073975 0.345832169055938721
0.0166382342576980591 0.934594511985778809 -0.0588898621499538422
-0.259637624025344849 -0.317249000072479248 -0.512438774108886719
0.737064540386199951 -0.231651589274406433 -0.144839450716972351
-0.0195413045585155487 -0.180421754717826843 0.812083065509796143
0.528673112392425537 -0.0548755936324596405 0.45128554105758667
0.710424721240997314 0.0515562817454338074 0.271835923194885254
-0.325938880443572998 0.79013746976852417 0.0307865813374519348
0.568770289421081543 -0.343283981084823608 0.223352178931236267
0.131362631916999817 0.859964311122894287 -0.0848903805017471313
0.381411284208297729 0.37736976146697998 -0.359819769859313965
-0.358449697494506836 0.449194550514221191 0.317071259021759033
-0.640760064125061035 0.195791110396385193 0.261588692665100098
-0.522015690803527832 -0.350352317094802856 -0.261046469211578369
-0.399088740348815918 -0.625361740589141846 -0.128510311245918274
-0.768970787525177002 -0.135315045714378357 0.173916548490524292
-0.397786706686019897 -0.259713023900985718 0.441272914409637451
-0.592178225517272949 0.0673791393637657166 -0.382195740938186646
-0.561919569969177246 0.585142433643341064 -0.0320311076939105988
-0.409342497587203979 0.000860282278154045343 0.590374112129211426
-0.0346786081790924072 -0.914597034454345703 -0.07410440593957901
0.349538624286651611 0.243477791547775269 -0.49789091944694519
-0.00359251745976507664 0.990134119987487793 -0.00664083519950509071
-0.419443517923355103 0.355043232440948486 0.34697529673576355
-0.446464985609054565 0.449943840503692627 -0.243648171424865723
0.0680252239108085632 0.773676753044128418 -0.202196002006530762
-0.0161694306880235672 -0.956113576889038086 0.037220783531665802
0.0726266279816627502 0.577230751514434814 0.394218027591705322
-0.175167173147201538 0.919613003730773926 -0.00397133082151412964
-0.102908812463283539 0.902665078639984131 0.0597601272165775299
0.00386463804170489311 -0.951487541198730469 0.0418790578842163086
-0.354728132486343384 0.649717092514038086 0.141072198748588562
0.805714845657348633 -0.183639004826545715 -0.108477160334587097
0.0252470672130584717 -0.0999695882201194763 -0.888042747974395752
-0.191334113478660583 -0.802466750144958496 -0.107150107622146606
-0.529668509960174561 0.482793211936950684 -0.147476434707641602
0.640941381454467773 -0.342083901166915894 -0.160276532173156738
0.0887058451771736145 -0.410998493432998657 -0.548431873321533203
-0.195597201585769653 -0.0108195645734667778 -0.800838470458984375
0.0655916705727577209 0.144831985235214233 0.818341076374053955
0.28671187162399292 0.553008139133453369 -0.279484003782272339
-0.254834860563278198 0.847849190235137939 0.02420848049223423
0.236025795340538025 0.222698360681533813 -0.614114582538604736
-0.813988089561462402 0.115719743072986603 -0.138676151633262634
-0.302057236433029175 -0.600135207176208496 0.224821284413337708
-0.301600009202957153 0.308892935514450073 -0.485847681760787964
0.837361574172973633 0.301853567361831665 -0.00282469205558300018
0.339612603187561035 0.204034984111785889 -0.537424862384796143
-0.152779802680015564 -0.82648015022277832 -0.106027565896511078
-0.187659740447998047 0.060099530965089798 -0.781681478023529053
0.308226138353347778 0.244547545909881592 -0.532676517963409424
0.823665797710418701 -0.0638290047645568848 -0.153833866119384766
0.408964306116104126 0.333252191543579102 -0.373074859380722046
-0.507375657558441162 0.308578073978424072 -0.306206822395324707
-0.191650509834289551 -0.62684398889541626 -0.278174757957458496
0.68077927827835083 0.386314749717712402 -0.0891363844275474548
-0.270678251981735229 -0.536634683609008789 -0.307050913572311401
-0.317329823970794678 -0.250334352254867554 -0.520055472850799561
-0.186962470412254333 0.859361112117767334 -0.057234887033700943
-0.315714836120605469 -0.0674181431531906128 -0.653345644474029541
0.146828994154930115 0.287679314613342285 -0.626902759075164795
0.69327843189239502 -0.266232848167419434 -0.163258299231529236
-0.295499980449676514 0.332746714353561401 0.469891756772994995
-0.450566947460174561 0.314748495817184448 -0.350831687450408936
-0.239934548735618591 0.201963454484939575 0.627079904079437256
-0.767830610275268555 -0.119961008429527283 -0.182366713881492615
-0.276811540126800537 -0.101951129734516144 -0.669275164604187012
-0.751488983631134033 -0.172408461570739746 0.169285506010055542
0.14510636031627655 -0.377206653356552124 -0.544791102409362793
0.489664316177368164 -0.42149960994720459 -0.23154313862323761
-0.796970665454864502 -0.210086077451705933 -0.103670001029968262
0.206850051879882812 -0.420856654644012451 -0.460078805685043335
0.320003002882003784 -0.171994075179100037 -0.578650176525115967
-0.744410395622253418 -0.265182048082351685 -0.115677721798419952
0.265916258096694946 0.455882340669631958 -0.384109050035476685
0.00972666125744581223 -0.147471770644187927 0.849147200584411621
0.367016226053237915 0.519175052642822266 -0.251007407903671265
0.505548715591430664 -0.202972292900085449 -0.383802413940429688
0.295041561126708984 0.689367115497589111 -0.148322641849517822
0.145412862300872803 0.909834086894989014 0.028736557811498642
0.00239007244817912579 -0.473416656255722046 -0.526131093502044678
0.0319471806287765503 -0.367253780364990234 0.62090224027633667
-0.109708040952682495 -0.640330493450164795 -0.31401333212852478
-0.0932880863547325134 -0.589144051074981689 -0.371403217315673828
0.199429288506507874 -0.887662172317504883 -0.0227874107658863068
-0.411619752645492554 -0.491445273160934448 -0.237115636467933655
-0.109644018113613129 0.0425643511116504669 -0.867353379726409912
0.18286016583442688 0.782512962818145752 0.133875474333763123
0.150360018014907837 -0.215217322111129761 -0.690836131572723389
-0.527393341064453125 -0.290049761533737183 -0.301031649112701416
0.0366883538663387299 0.865413963794708252 0.123783834278583527
0.282894790172576904 -0.189646363258361816 0.599721014499664307
-0.0981285795569419861 -0.0482273921370506287 -0.874221384525299072
-0.404170244932174683 -0.536582648754119873 -0.205364450812339783
0.126175925135612488 -0.610585510730743408 0.332034021615982056
0.220083653926849365 -0.273613065481185913 0.582604885101318359
-0.356813251972198486 -0.119005762040615082 0.582910060882568359
0.391503870487213135 0.32176700234413147 -0.398661047220230103
-0.618890762329101562 0.425717860460281372 0.113556534051895142
0.143974453210830688 0.747591197490692139 0.189317971467971802
0.544568359851837158 -0.629935801029205322 0.00316648231819272041
-0.53010404109954834 0.514992654323577881 -0.118589267134666443
-0.928039431571960449 0.0300217121839523315 0.0620703883469104767
-0.592686653137207031 -0.371786236763000488 -0.179186731576919556
-0.379215627908706665 -0.682627856731414795 -0.0918397381901741028
-0.0291729923337697983 0.154016003012657166 -0.833238661289215088
-0.575861811637878418 -0.277212023735046387 -0.266285479068756104
0.202801927924156189 -0.777974069118499756 -0.124999254941940308
0.350305944681167603 0.363780736923217773 0.398237109184265137
0.522456347942352295 0.527823030948638916 0.113810047507286072
0.192907959222793579 -0.493742614984512329 -0.402189910411834717
-0.434642642736434937 0.217583343386650085 0.439469039440155029
-0.798180043697357178 -0.312546432018280029 0.033554665744304657
0.312503397464752197 -0.601254940032958984 0.217378139495849609
0.760280609130859375 0.116414718329906464 -0.191534951329231262
-0.214650332927703857 0.543013274669647217 -0.340885072946548462
0.531724095344543457 -0.644100189208984375 -0.00025266996817663312
-0.0796958506107330322 0.0112275322899222374 -0.915694713592529297
0.443313419818878174 0.0705412030220031738 -0.52669978141784668
0.245402202010154724 0.212156891822814941 -0.614167094230651855
0.83033299446105957 0.263553142547607422 0.0349720045924186707
0.200307771563529968 -0.824782907962799072 0.0808291956782341003
-0.372978270053863525 -0.17182476818561554 -0.530305325984954834
0.347298920154571533 0.0124559197574853897 -0.648856699466705322
-0.238601788878440857 -0.19748280942440033 0.63151174783706665
0.386032581329345703 0.569654464721679688 0.189315721392631531
0.168587177991867065 0.332184493541717529 -0.569892644882202148
-0.263398349285125732 -0.238781660795211792 0.577084481716156006
0.351728349924087524 0.387108892202377319 -0.377813547849655151
0.114827126264572144 -0.412539571523666382 -0.530854403972625732
-0.00472570210695266724 -0.227915212512016296 -0.770495831966400146
-0.330625772476196289 0.689286470413208008 -0.121928811073303223
0.395752698183059692 -0.579560756683349609 0.172236919403076172
-0.261657297611236572 -0.339942336082458496 -0.490937858819961548
0.0383335500955581665 0.428721010684967041 -0.557734906673431396
-0.63875967264175415 0.347641587257385254 0.156078174710273743
0.0377583466470241547 0.974541246891021729 0.0110961263999342918
0.395660489797592163 -0.239244058728218079 -0.459973186254501343
-0.0240576155483722687 0.768842458724975586 0.223329246044158936
-0.824828743934631348 -0.00262585817836225033 -0.171009361743927002
0.932204961776733398 -0.0627662390470504761 0.0468469783663749695
0.0643488839268684387 0.707529008388519287 -0.269718825817108154
0.207116559147834778 -0.343971371650695801 -0.530272841453552246
-0.1831827312707901 -0.486524701118469238 0.415530860424041748
0.650109827518463135 -0.369832992553710938 -0.128495737910270691
-0.693961083889007568 -0.315541476011276245 -0.128074675798416138
-0.645828843116760254 0.142429351806640625 -0.289168834686279297
-0.535463035106658936 -0.215065941214561462 -0.348831802606582642
0.284364879131317139 -0.772079527378082275 -0.0791960582137107849
0.713798761367797852 -0.180794864892959595 0.199677631258964539
-0.231361806392669678 0.735464632511138916 0.147204309701919556
0.297226756811141968 0.726543307304382324 -0.112305447459220886
0.120680034160614014 0.810804367065429688 0.138815045356750488
-0.233651697635650635 0.542354226112365723 -0.327744185924530029
-0.232341423630714417 -0.451672494411468506 -0.413582831621170044
0.618730068206787109 0.225101932883262634 0.263252943754196167
-0.585140049457550049 0.419551104307174683 -0.149609774351119995
-0.23742954432964325 -0.406683295965194702 -0.450415253639221191
0.403455436229705811 0.201744094491004944 -0.479853212833404541
0.684681892395019531 0.174801647663116455 -0.23144039511680603
0.175822362303733826 0.066204659640789032 -0.789007365703582764
-0.116451598703861237 0.237768232822418213 0.695420384407043457
-0.323844969272613525 -0.709663689136505127 -0.10761752724647522
0.824245274066925049 -0.0176510289311408997 0.169939875602722168
0.378328949213027954 0.499923884868621826 0.256592482328414917
0.0684227794408798218 0.154360517859458923 -0.807490289211273193
-0.562316954135894775 -0.425649821758270264 0.164295047521591187
0.433954626321792603 0.119516871869564056 -0.508443176746368408
0.0529222041368484497 0.749918878078460693 0.231354102492332458
-0.840631246566772461 0.00954960193485021591 -0.153299540281295776
0.848143100738525391 -0.0414541177451610565 -0.138200521469116211
-0.033068828284740448 -0.784813165664672852 -0.205480486154556274
-0.356382220983505249 0.774740636348724365 -0.0241722036153078079
-0.0253185350447893143 0.572554886341094971 -0.41941457986831665
-0.208844751119613647 0.442878812551498413 -0.438373655080795288
-0.15948168933391571 -0.276463508605957031 -0.627821087837219238
-0.615330815315246582 0.393949151039123535 -0.144334331154823303
0.301479160785675049 0.318136543035507202 -0.477852165699005127
-0.771395027637481689 -0.391370952129364014 -0.00194300280418246984
0.751236915588378906 0.312940627336502075 -0.0766023024916648865
0.378262698650360107 -0.514751672744750977 0.243663698434829712
0.108364671468734741 -0.25475582480430603 -0.685704529285430908
-0.20939481258392334 0.107035323977470398 -0.728472054004669189
0.114350132644176483 0.418549299240112305 -0.525344192981719971
-0.396717250347137451 0.447182357311248779 -0.289542317390441895
-0.290863305330276489 0.129810333251953125 -0.636312723159790039
-0.790451645851135254 0.138609364628791809 -0.14918459951877594
-0.350350409746170044 -0.258217662572860718 -0.485061377286911011
-0.344277411699295044 -0.464743614196777344 -0.315321803092956543
0.0926140099763870239 -0.734927117824554443 -0.227929219603538513
0.453516662120819092 -0.257867664098739624 -0.393294453620910645
0.46687886118888855 -0.38435816764831543 -0.280665397644042969
0.336323589086532593 -0.0528293922543525696 -0.641726374626159668
0.549642682075500488 0.004693630151450634 0.448811084032058716
0.361783981323242188 0.593123078346252441 -0.186970800161361694
0.0123270079493522644 -0.718058466911315918 -0.278366029262542725
-0.394247591495513916 0.414677619934082031 -0.318420946598052979
0.101835764944553375 0.347185492515563965 -0.6031838059425354
-0.380515486001968384 0.608274102210998535 -0.158276185393333435
-0.253504395484924316 -0.560209035873413086 -0.298796474933624268
-0.525993704795837402 -0.0395247936248779297 0.460985511541366577
0.4836578369140625 -0.375688612461090088 -0.273178279399871826
0.706140398979187012 -0.0900080874562263489 0.258109122514724731
0.752628087997436523 0.0394319966435432434 0.23438166081905365
0.340695977210998535 -0.48849719762802124 -0.29676741361618042
0.107598118484020233 -0.658223927021026611 -0.295984178781509399
0.0839589089155197144 -0.611271202564239502 -0.355219751596450806
-0.748767852783203125 -0.325581818819046021 -0.0724566727876663208
-0.0297698881477117538 0.152627408504486084 -0.834029555320739746
-0.491334050893783569 -0.634974420070648193 -0.0487296693027019501
0.526791036128997803 -0.355341404676437378 0.251038283109664917
0.131630793213844299 -0.658717036247253418 -0.283286601305007935
-0.144886419177055359 -0.753957211971282959 0.182608172297477722
0.695065319538116455 0.0897987857460975647 0.268812835216522217
-0.535575330257415771 -0.250935554504394531 -0.322672754526138306
-0.264491230249404907 0.146536886692047119 -0.649221479892730713
0.718184590339660645 0.214008808135986328 -0.175580903887748718
0.36475372314453125 0.32507660984992981 -0.418775737285614014
-0.146767333149909973 -0.471343129873275757 -0.454390406608581543
0.498047918081283569 0.385366648435592651 0.254862755537033081
-0.521262168884277344 0.287749290466308594 -0.309511870145797729
-0.27053341269493103 -0.566449999809265137 -0.279232919216156006
-0.480448335409164429 -0.496248006820678711 -0.177294597029685974
0.0482648275792598724 -0.231041505932807922 0.747551560401916504
0.210119053721427917 -0.859298229217529297 0.0415565632283687592
0.585807204246520996 -0.4371357262134552 -0.13456428050994873
-0.511852264404296875 -0.176346451044082642 -0.397653847932815552
0.00127453391905874014 0.790632724761962891 -0.203855320811271667
-0.0491387806832790375 -0.711795032024383545 -0.270914435386657715
-0.13947102427482605 -0.19664338231086731 -0.71511077880859375
-0.193746373057365417 0.469370216131210327 -0.424842208623886108
-0.241246521472930908 -0.47739332914352417 -0.383232176303863525
0.496575146913528442 -0.367395788431167603 -0.268290966749191284
0.877651810646057129 -0.0367177762091159821 -0.110499292612075806
0.541500568389892578 0.348902195692062378 -0.245395421981811523
0.50488734245300293 -0.130652487277984619 -0.433833807706832886
-0.109604544937610626 -0.672007322311401367 -0.283484518527984619
0.618733823299407959 -0.199318245053291321 -0.280907601118087769
0.45204848051071167 -0.451159238815307617 0.238501429557800293
0.238112851977348328 -0.847307741641998291 0.0350311174988746643
0.0274904537945985794 -0.133613348007202148 -0.854221045970916748
0.395053654909133911 -0.297812998294830322 -0.413887202739715576
-0.456627696752548218 -0.412284612655639648 0.266536116600036621
0.1687898188829422 0.303505420684814453 -0.597040832042694092
0.210382804274559021 0.0915374308824539185 -0.738740265369415283
0.181138217449188232 0.910795748233795166 -0.00945339072495698929
-0.0091635584831237793 0.646420300006866455 0.349665373563766479
0.0991023927927017212 0.244917243719100952 -0.701568961143493652
-0.828596293926239014 0.225001886487007141 0.0617887787520885468
0.178802117705345154 -0.675839662551879883 0.238529592752456665
-0.0711774080991744995 0.603330612182617188 -0.368642598390579224
0.30329558253288269 0.206460580229759216 -0.567659378051757812
-0.119776815176010132 0.772460579872131348 -0.177464917302131653
-0.143928036093711853 0.739715337753295898 0.197132661938667297
-0.684441864490509033 0.228203654289245605 -0.197585552930831909
0.895484805107116699 -0.00141069851815700531 -0.104050442576408386
0.149965167045593262 0.260437905788421631 -0.649666190147399902
-0.43398621678352356 0.246756359934806824 0.418986707925796509
-0.333558350801467896 -0.671432852745056152 0.135979056358337402
-0.224850758910179138 0.173657894134521484 -0.66384124755859375
-0.301061779260635376 0.45264887809753418 -0.360418438911437988
0.363255918025970459 0.779644489288330078 -0.0172148458659648895
0.275869756937026978 -0.474893480539321899 -0.359267443418502808
-0.471835672855377197 0.468743056058883667 -0.206424936652183533
0.743579566478729248 -0.391158849000930786 -0.0273735169321298599
-0.748081743717193604 0.262328207492828369 -0.11633802205324173
0.204124465584754944 -0.795211493968963623 -0.10756981372833252
-0.444153189659118652 -0.69140625 0.0342079885303974152
-0.800679683685302734 0.0224898401647806168 0.191911399364471436
-0.888636648654937744 -0.0707209259271621704 0.0880654975771903992
0.833784639835357666 -0.00509113771840929985 -0.16237252950668335
0.737081289291381836 -0.383886367082595825 -0.0388033166527748108
0.0101836416870355606 0.582792520523071289 0.413144499063491821
0.349808961153030396 0.330324351787567139 -0.427875012159347534
0.128606259822845459 0.318954348564147949 -0.610844314098358154
0.301381587982177734 -0.492763370275497437 -0.323455363512039185
-0.0582529716193675995 0.938533365726470947 0.0415667816996574402
-0.592951357364654541 -0.23382413387298584 -0.280862271785736084
0.111065007746219635 -0.369486838579177856 -0.574671566486358643
0.574200749397277832 -0.0575372800230979919 0.40440097451210022
-0.107875615358352661 0.8077583909034729 -0.149696812033653259
0.573534071445465088 0.299040913581848145 -0.253953456878662109
-0.653456032276153564 0.253444105386734009 -0.211105838418006897
0.473553091287612915 -0.138027310371398926 -0.457481533288955688
0.801989316940307617 0.244281932711601257 0.0755679085850715637
0.047274123877286911 -0.241515442728996277 0.737722337245941162
-0.250445127487182617 0.774095356464385986 0.0981417223811149597
0.896659970283508301 0.119383126497268677 0.0550539195537567139
0.284776359796524048 -0.019246002659201622 -0.708883345127105713
-0.0530803203582763672 -0.261740595102310181 0.714231491088867188
0.411853551864624023 -0.636014044284820557 -0.109033480286598206
0.880168914794921875 -0.152922436594963074 0.054285246878862381
-0.811485350131988525 0.181894615292549133 -0.103900887072086334
-0.382812708616256714 -0.668181419372558594 -0.104977130889892578
-0.591868579387664795 0.407762259244918823 0.152612850069999695
-0.733084738254547119 -0.433383911848068237 -0.00617355620488524437
0.379142433404922485 -0.585261225700378418 -0.181319147348403931
0.528715372085571289 -0.536383867263793945 -0.101290509104728699
0.226998105645179749 0.858883380889892578 0.0319443047046661377
-0.422428160905838013 0.117359422147274017 0.519739329814910889
0.278745085000991821 0.16486029326915741 -0.622214734554290771
0.199009940028190613 -0.289037138223648071 0.585906028747558594
0.382816135883331299 0.123195499181747437 0.555164754390716553
-0.889044225215911865 -0.145611703395843506 -0.0499826595187187195
-0.427192926406860352 0.450163364410400391 0.260779142379760742
0.417476415634155273 0.0413343347609043121 0.567772030830383301
0.10186091810464859 -0.0917111858725547791 -0.836745560169219971
-0.454392135143280029 -0.307949930429458618 -0.354317992925643921
0.41024896502494812 0.196994096040725708 -0.477905154228210449
0.46595841646194458 0.481106996536254883 -0.201850190758705139
0.610082864761352539 -0.0924749225378036499 -0.351123571395874023
-0.38067251443862915 0.27786603569984436 0.442069023847579956
0.678549826145172119 0.30934944748878479 -0.146848559379577637
0.0940769612789154053 -0.304147064685821533 -0.648130714893341064
0.206787124276161194 -0.050777144730091095 -0.769034683704376221
0.373873651027679443 0.712453067302703857 0.0698622763156890869
-0.511338353157043457 0.255051076412200928 -0.341738134622573853
0.299158692359924316 0.165161773562431335 0.602777063846588135
0.32806628942489624 0.718660175800323486 -0.0962232127785682678
0.149925649166107178 0.559211313724517822 -0.368816733360290527
-0.0406690388917922974 0.773522555828094482 -0.212536558508872986
0.168637409806251526 -0.456832706928253174 0.453398257493972778
-0.419705003499984741 0.139521494507789612 0.50823664665222168
-0.165696531534194946 0.457147836685180664 -0.455044567584991455
-0.885284721851348877 0.175892427563667297 -0.035734374076128006
-0.0620811097323894501 0.150503873825073242 -0.815735042095184326
-0.570723116397857666 -0.126916080713272095 0.370365500450134277
0.155566573143005371 -0.595152378082275391 0.330507397651672363
0.0034638803917914629 0.109399497509002686 -0.889755368232727051
-0.43306693434715271 0.393067747354507446 0.302689164876937866
0.514062106609344482 0.427777469158172607 -0.205921977758407593
0.14334338903427124 0.702648937702178955 0.233996137976646423
0.525735199451446533 -0.307441562414169312 -0.288876235485076904
-0.33952757716178894 -0.0349778085947036743 0.647743642330169678
-0.920478224754333496 -0.170645579695701599 -0.00321676558814942837
0.0238363984972238541 0.673789680004119873 0.318335771560668945
-0.427368998527526855 -0.409954100847244263 0.293641507625579834
0.697246313095092773 0.321038216352462769 -0.12105291336774826
-0.215995267033576965 -0.381157219409942627 -0.489981263875961304
0.773129642009735107 -0.223638653755187988 -0.11536785215139389
0.640773594379425049 0.128776505589485168 -0.30147138237953186
-0.00950525607913732529 0.125487551093101501 0.871090829372406006
0.601336896419525146 -0.260008692741394043 0.254152119159698486
0.0603418201208114624 0.374438703060150146 -0.599999010562896729
0.538895130157470703 0.134535536170005798 0.396790027618408203
-0.400294035673141479 0.751431822776794434 -0.0143428882583975792
-0.313536733388900757 0.774163722991943359 -0.0553393848240375519
-0.146440804004669189 0.735791206359863281 -0.199727103114128113
-0.119595445692539215 0.47074088454246521 0.472409307956695557
0.549384891986846924 0.372841596603393555 0.218912854790687561
0.565644025802612305 0.544393420219421387 -0.0635697096586227417
0.389285683631896973 -0.144377455115318298 0.534473299980163574
0.020532459020614624 0.0778304040431976318 -0.91234135627746582
-0.0601740293204784393 0.0143646411597728729 -0.933181524276733398
0.209167569875717163 -0.0606860220432281494 0.760964870452880859
-0.200814321637153625 -0.197071850299835205 0.664316117763519287
0.171913951635360718 0.39742627739906311 0.507505178451538086
0.681622803211212158 -0.0185003243386745453 -0.312282592058181763
-0.0184614434838294983 -0.921351373195648193 -0.0722253322601318359
0.327864497900009155 -0.653098523616790771 -0.157758817076683044
0.129178270697593689 0.416257590055465698 0.518424272537231445
-0.219678774476051331 0.367764592170715332 -0.499150574207305908
-0.31659349799156189 0.0987503528594970703 -0.633968591690063477
-0.340924650430679321 -0.751116454601287842 0.0591585747897624969
0.123853258788585663 -0.906356930732727051 -0.0444611497223377228
0.62700575590133667 0.247958928346633911 0.239985764026641846
0.546868503093719482 0.516073167324066162 0.105842150747776031
-0.231251329183578491 -0.636589944362640381 -0.240795105695724487
0.681297898292541504 -0.362986087799072266 -0.107908621430397034
-0.17049892246723175 -0.490529119968414307 -0.420704424381256104
-0.194211900234222412 0.0948001518845558167 -0.751288950443267822
-0.372797966003417969 0.583552896976470947 0.187841176986694336
0.277222663164138794 -0.130344688892364502 -0.649092495441436768
-0.100313574075698853 0.149037927389144897 0.788729965686798096
