ply
format ascii 1.0
element vertex 739
property float x
property float y
property float z
end_header
-0.851252555847167969 0.739203751087188721 0.148747444152832031
-0.407717615365982056 -0.676784873008728027 -0.323215126991271973
-0.236234158277511597 -0.113177113234996796 -0.763765871524810791
-0.287986695766448975 -0.108858004212379456 0.712013304233551025
-0.54184257984161377 0.579563498497009277 0.42043653130531311
0.827250063419342041 -0.993002891540527344 -0.0069970935583114624
-0.271681845188140869 -0.615014016628265381 0.384985983371734619
-0.389925062656402588 0.0923442244529724121 -0.610074937343597412
0.0693232566118240356 0.435710400342941284 -0.564289629459381104
-0.565052270889282227 -0.542072594165802002 -0.434947699308395386
0.785878360271453857 0.343360364437103271 -0.214121639728546143
-0.844061076641082764 0.450823366641998291 -0.155938923358917236
-0.585614562034606934 0.0921348407864570618 0.414385467767715454
0.827520251274108887 0.162169083952903748 -0.172479748725891113
0.349263638257980347 0.469258546829223633 -0.530741453170776367
0.230590894818305969 0.547338008880615234 -0.452661991119384766
0.528155148029327393 0.622285306453704834 -0.377714693546295166
0.494413316249847412 -0.343770027160644531 -0.505586683750152588
-0.665322422981262207 0.266321390867233276 0.334677577018737793
0.125307202339172363 0.511185228824615479 -0.488814800977706909
-0.900262355804443359 0.681114673614501953 0.0997376441955566406
0.264461338520050049 -0.102664552628993988 -0.735538661479949951
-0.20011274516582489 -0.0153996860608458519 -0.799887239933013916
-0.517934978008270264 0.982080161571502686 -0.0179198235273361206
0.414687156677246094 -0.941930592060089111 -0.0580694004893302917
0.511443078517913818 -0.82755887508392334 -0.17244112491607666
0.812101066112518311 -0.584077000617980957 -0.187898904085159302
-0.542962312698364258 -0.753883957862854004 0.24611605703830719
0.201661363244056702 0.525240898132324219 -0.474759101867675781
0.296077936887741089 0.0180706065148115158 0.703922033309936523
0.889144062995910645 0.466699570417404175 0.110855959355831146
0.0690824612975120544 0.474889963865280151 -0.525110065937042236
-0.356505990028381348 0.886617064476013184 0.113382928073406219
0.892347395420074463 -0.408561646938323975 0.107652626931667328
-0.888474106788635254 -0.328311800956726074 -0.111525923013687134
0.405650079250335693 -0.748490631580352783 -0.251509398221969604
0.726999282836914062 -0.0187477190047502518 0.273000717163085938
0.491687625646591187 -0.715076029300689697 -0.284923970699310303
-0.893414676189422607 0.951827824115753174 -0.0481721572577953339
-0.663232624530792236 -0.925862133502960205 -0.0741378366947174072
0.557293176651000977 0.595546960830688477 -0.404453009366989136
0.340039908885955811 -0.205891206860542297 0.659960091114044189
0.689241766929626465 0.645066797733306885 0.310758233070373535
-0.441310137510299683 0.0217259377241134644 -0.558689892292022705
-0.0795074626803398132 0.26168900728225708 0.73831099271774292
-0.45402902364730835 -0.934031903743743896 -0.0659680813550949097
0.772211372852325439 0.0280869752168655396 0.227788656949996948
-0.516070187091827393 -0.701511919498443604 -0.298488080501556396
-0.538643956184387207 -0.579211652278900146 0.420788347721099854
-0.144377514719963074 -0.0773431509733200073 0.855622470378875732
0.322785794734954834 -0.195705294609069824 -0.677214205265045166
0.815954327583312988 0.879944980144500732 -0.120055042207241058
0.157957553863525391 0.794357597827911377 -0.205642402172088623
0.118201009929180145 0.658509194850921631 -0.341490775346755981
0.908360898494720459 0.211624413728713989 0.0916390717029571533
-0.00427365861833095551 -0.302452772855758667 -0.697547256946563721
-0.184166967868804932 0.769559204578399658 0.230440780520439148
-0.566178679466247559 -0.302040219306945801 -0.433821320533752441
-0.316600769758224487 -0.421798527240753174 0.578201472759246826
0.168876126408576965 0.310274213552474976 -0.689725756645202637
0.693327844142913818 -0.746437370777130127 -0.253562629222869873
0.113077066838741302 0.199721887707710266 0.800278127193450928
-0.938629090785980225 -0.595049262046813965 -0.0613709092140197754
-0.376882195472717285 -0.725882112979888916 -0.274117916822433472
0.933611631393432617 -0.0812460035085678101 0.0663883686065673828
0.430210262537002563 -0.124939382076263428 0.569789707660675049
0.332428574562072754 -0.379543811082839966 -0.620456218719482422
0.279700040817260742 0.717956840991973877 0.282043159008026123
0.671700596809387207 -0.43012884259223938 -0.328299403190612793
0.393749892711639404 -0.914816737174987793 -0.0851832926273345947
-0.510709285736083984 0.686051011085510254 -0.313948959112167358
-0.720047950744628906 -0.674278318881988525 0.279952079057693481
-0.956077098846435547 0.227677255868911743 -0.0439229048788547516
-0.347519367933273315 0.917327284812927246 -0.0826726853847503662
-0.373647332191467285 -0.15614686906337738 -0.626352667808532715
-0.6466866135597229 0.895635902881622314 0.104364089667797089
0.633903563022613525 -0.520157873630523682 0.366096436977386475
-0.814952850341796875 -0.144105508923530579 -0.185047119855880737
0.424557209014892578 -0.885669350624084473 -0.114330664277076721
-0.913980066776275635 0.107094511389732361 0.086019955575466156
-0.106209166347980499 0.23903810977935791 -0.76096189022064209
0.779551267623901367 -0.458348780870437622 -0.220448717474937439
-0.338975399732589722 -0.788818657398223877 -0.211181327700614929
-0.497578442096710205 -0.0462853722274303436 -0.502421557903289795
0.693363785743713379 -0.235576406121253967 -0.306636184453964233
-0.631632149219512939 0.940852940082550049 -0.0591470561921596527
-0.534593343734741211 0.851997196674346924 -0.148002788424491882
0.788606047630310059 -0.285215288400650024 0.211393952369689941
-0.0891492366790771484 -0.21704334020614624 -0.78295665979385376
0.017861340194940567 0.701844632625579834 -0.298155367374420166
0.943579912185668945 -0.9496268630027771 0.0503731556236743927
0.287766396999359131 0.293798714876174927 -0.706201314926147461
-0.573505282402038574 0.986501395702362061 0.0115854609757661819
0.100317023694515228 -0.37112659215927124 0.62887340784072876
-0.0584068074822425842 -0.794159173965454102 -0.205840855836868286
0.299520999193191528 0.757494091987609863 -0.242505893111228943
0.269504666328430176 -0.611906051635742188 -0.388093948364257812
0.244071498513221741 -0.141766458749771118 -0.755928516387939453
-0.421694457530975342 0.959022700786590576 0.04097728431224823
-0.764638721942901611 0.961191713809967041 -0.0388082936406135559
0.310067564249038696 0.927371859550476074 -0.0726281479001045227
0.0372148267924785614 0.659127295017242432 -0.340872734785079956
-0.992617905139923096 -0.442144304513931274 0.00136887258850038052
0.114440791308879852 -0.357654601335525513 -0.6423453688621521
-0.671196997165679932 0.104375936090946198 -0.328803002834320068
-0.458181262016296387 -0.653250515460968018 0.346749484539031982
0.988043904304504395 0.744331002235412598 -0.0119560714811086655
-0.207500144839286804 0.72344738245010376 -0.27655261754989624
-0.73137199878692627 -0.863652467727661133 -0.136347532272338867
0.0602799095213413239 0.780701041221618652 0.219298988580703735
-0.12158869206905365 -0.417523622512817383 0.582476377487182617
-0.417658865451812744 -0.521569728851318359 -0.478430271148681641
0.566573202610015869 0.160335347056388855 -0.433426827192306519
0.466694265604019165 -0.661521613597869873 -0.338478386402130127
0.208847343921661377 -0.421172261238098145 -0.578827738761901855
0.595217883586883545 0.559595167636871338 -0.404782116413116455
0.158766642212867737 0.172302350401878357 0.827697634696960449
0.246736183762550354 0.208216741681098938 -0.75326383113861084
0.923956632614135742 0.739443063735961914 -0.0760433897376060486
-0.788743078708648682 -0.693697333335876465 -0.211256936192512512
-0.629786849021911621 0.179623439908027649 -0.370213180780410767
-0.773229002952575684 -0.345736652612686157 -0.226770997047424316
0.929048657417297363 -0.767609655857086182 0.0709513276815414429
-0.695627331733703613 -0.25803789496421814 -0.304372698068618774
-0.461702823638916016 -0.264871001243591309 -0.538297176361083984
0.215265780687332153 -0.894899606704711914 -0.105100385844707489
0.994370639324188232 -0.583404779434204102 -0.00562933878973126411
0.583225071430206299 -0.721181631088256836 0.278818368911743164
0.38357919454574585 0.600446045398712158 -0.399553984403610229
-0.129762843251228333 0.604269981384277344 -0.395729988813400269
0.538890480995178223 -0.616448819637298584 0.383551180362701416
-0.569198131561279297 0.0703176930546760559 0.430801898241043091
0.804880857467651367 0.14795801043510437 -0.195119112730026245
-0.93427431583404541 -0.446821630001068115 0.065725669264793396
0.600068151950836182 0.69987720251083374 -0.30012279748916626
0.285594373941421509 0.777812838554382324 -0.222187191247940063
-0.846243381500244141 0.2076750248670578 -0.153756603598594666
-0.966338515281677246 0.994055330753326416 -0.00103210529778152704
-0.458443284034729004 0.461496055126190186 -0.538503944873809814
0.546593546867370605 0.851439833641052246 -0.148560166358947754
0.928633689880371094 0.469867438077926636 0.0713663250207901001
0.0463605150580406189 0.0123440995812416077 0.953639507293701172
0.37380683422088623 0.878669083118438721 -0.121330909430980682
0.718141317367553711 0.0731840655207633972 0.281858682632446289
0.592956185340881348 -0.49902796745300293 -0.40704384446144104
-0.229833945631980896 0.492874890565872192 -0.50712507963180542
-0.600016474723815918 -0.758511900901794434 0.241488128900527954
0.350019633769989014 0.444345206022262573 -0.555654823780059814
0.620737612247467041 0.803080618381500244 -0.196919366717338562
0.678696572780609131 0.0142637519165873528 -0.321303427219390869
0.304030090570449829 -0.761034667491912842 -0.238965347409248352
-0.06052442267537117 -0.0794090405106544495 -0.92059093713760376
0.943728446960449219 -0.240683391690254211 -0.0562715455889701843
0.553850233554840088 -0.782067596912384033 -0.217932417988777161
-0.477770209312438965 -0.671129882335662842 0.328870117664337158
0.389852285385131836 -0.927598237991333008 0.072401776909828186
-0.8545493483543396 0.5968361496925354 -0.1454506516456604
-0.182048067450523376 0.547751307487487793 0.452248722314834595
0.723039150238037109 0.575353860855102539 0.276960879564285278
0.470361679792404175 0.747758388519287109 0.252241611480712891
0.304168373346328735 0.493169546127319336 -0.506830453872680664
0.34039837121963501 -0.441103458404541016 -0.558896541595458984
0.603075385093688965 -0.895970642566680908 0.104029379785060883
-0.731056511402130127 0.789166450500488281 -0.210833579301834106
0.805224716663360596 -0.415418803691864014 -0.194775283336639404
0.493024766445159912 -0.792567849159240723 -0.20743212103843689
-0.858853399753570557 0.184067428112030029 -0.141146630048751831
0.24488772451877594 0.56552433967590332 -0.43447566032409668
0.301710635423660278 0.731618165969848633 0.268381804227828979
0.540185093879699707 -0.519285321235656738 -0.459814935922622681
0.370258539915084839 -0.263365775346755981 -0.629741430282592773
-0.2741527259349823 0.426122963428497314 0.573877036571502686
-0.66375356912612915 0.78171616792678833 0.21828383207321167
0.39842340350151062 0.560760080814361572 -0.439239948987960815
0.90731048583984375 0.906815111637115479 -0.0926895290613174438
-0.81527101993560791 0.372707456350326538 0.18472898006439209
0.29377785325050354 0.951748013496398926 -0.0482519790530204773
-0.348645150661468506 -0.207999616861343384 -0.651354849338531494
0.798283517360687256 -0.688474416732788086 -0.201716482639312744
0.360966235399246216 0.996776223182678223 -0.00322380405850708485
0.149951249361038208 0.912056386470794678 -0.087943635880947113
-0.320551395416259766 -0.471878916025161743 -0.528121113777160645
0.965134382247924805 0.544057726860046387 -0.0348656177520751953
0.704768657684326172 0.78404313325881958 -0.21595686674118042
0.0279139168560504913 0.401110619306564331 -0.598889410495758057
0.637965619564056396 -0.524328708648681641 -0.362034380435943604
0.526745021343231201 -0.109251178801059723 -0.473255008459091187
0.0136544685810804367 0.861643791198730469 -0.138356208801269531
-0.871032118797302246 -0.977469563484191895 0.0225304439663887024
0.438217431306838989 -0.353981584310531616 0.561782538890838623
-0.99152296781539917 0.487810462713241577 -0.00847700517624616623
0.750840842723846436 0.958478271961212158 0.041521754115819931
-0.505208611488342285 -0.925093889236450195 -0.0749060884118080139
-0.822763681411743164 0.885093450546264648 -0.114906534552574158
0.872702658176422119 0.80363011360168457 0.127297341823577881
-0.120454072952270508 -0.30967026948928833 -0.69032973051071167
-0.00667518842965364456 0.965828955173492432 -0.0341710373759269714
0.950738251209259033 0.158337026834487915 -0.0492617376148700714
0.685311853885650635 0.305018454790115356 0.314688146114349365
0.857926726341247559 -0.764727354049682617 -0.142073273658752441
-0.140492334961891174 -0.265550374984741211 0.734449625015258789
-0.18637964129447937 -0.743176102638244629 -0.256823867559432983
-0.664006888866424561 0.0328374840319156647 -0.335993081331253052
0.133457690477371216 0.244741931557655334 -0.755258083343505859
-0.193442583084106445 0.147655889391899109 -0.806557416915893555
-0.356576532125473022 -0.628642082214355469 -0.371357917785644531
-0.0217088256031274796 0.105133876204490662 -0.894866108894348145
-0.072812005877494812 -0.320752531290054321 -0.679247438907623291
-0.238925144076347351 0.83499753475189209 -0.16500246524810791
-0.954269647598266602 0.724325597286224365 -0.0457303263247013092
-0.830735623836517334 -0.578098118305206299 -0.16926439106464386
0.150672867894172668 -0.267898708581924438 -0.732101261615753174
-0.969578385353088379 0.447074621915817261 0.0304215885698795319
-0.962155282497406006 0.667292237281799316 -0.0378447435796260834
0.219055235385894775 0.125572875142097473 -0.780944764614105225
-0.747816205024719238 -0.197158351540565491 -0.252183824777603149
0.105387859046459198 -0.0325045026838779449 0.894612133502960205
0.528456687927246094 0.136455073952674866 -0.471543341875076294
-0.0386035218834877014 0.674171030521392822 -0.325828999280929565
-0.434884488582611084 0.852742612361907959 -0.147257372736930847
0.272177904844284058 0.303918004035949707 -0.696081995964050293
0.228682979941368103 0.232653379440307617 -0.767346620559692383
0.496981412172317505 -0.0875309035181999207 -0.503018617630004883
-0.00670304987579584122 -0.19955781102180481 0.800442218780517578
-0.0498540624976158142 -0.67687755823135376 -0.32312244176864624
0.585855185985565186 0.894471526145935059 -0.105528481304645538
-0.297299861907958984 -0.214300215244293213 -0.702700138092041016
0.352708250284194946 0.4647846519947052 -0.535215377807617188
0.627637863159179688 0.85584026575088501 0.144159704446792603
-0.150163069367408752 -0.493777990341186523 -0.506222009658813477
0.173394173383712769 0.889518439769744873 0.110481537878513336
0.0937533155083656311 -0.464914113283157349 -0.535085856914520264
-0.339314728975296021 -0.621455550193786621 -0.378544449806213379
0.209270432591438293 0.594754874706268311 0.405245155096054077
0.868655562400817871 0.816393613815307617 0.131344437599182129
0.343422859907150269 0.328018516302108765 0.656577110290527344
0.83434218168258667 0.411533921957015991 -0.165657848119735718
0.265457630157470703 0.6320151686668396 -0.367984801530838013
0.509669899940490723 0.580629885196685791 0.419370114803314209
-0.732486605644226074 0.138289406895637512 -0.267513364553451538
0.167193681001663208 0.736959218978881836 -0.263040810823440552
0.26440092921257019 -0.509859383106231689 -0.490140587091445923
0.401015430688858032 -0.552359402179718018 -0.447640597820281982
0.516574978828430176 0.900382876396179199 0.0996171385049819946
0.713381767272949219 -0.554111361503601074 -0.286618262529373169
-0.667359769344329834 0.161556541919708252 -0.332640260457992554
0.530303776264190674 -0.13277396559715271 0.469696253538131714
0.632417678833007812 0.711803615093231201 -0.288196384906768799
0.634432017803192139 -0.10671650618314743 -0.365567952394485474
0.481377243995666504 0.00612213043496012688 0.518622756004333496
-0.294562488794326782 0.281497150659561157 -0.705437541007995605
-0.181569084525108337 -0.131281003355979919 -0.818430900573730469
0.64474034309387207 0.497799336910247803 -0.355259627103805542
-0.500443518161773682 -0.286267966032028198 -0.499556452035903931
0.367494642734527588 0.392477244138717651 0.607522726058959961
0.524581193923950195 0.619780957698822021 0.380219012498855591
0.190395265817642212 -0.64119112491607666 0.35880887508392334
-0.489625722169876099 -0.0547890402376651764 -0.510374248027801514
0.147858738899230957 0.668653786182403564 -0.331346243619918823
0.780796289443969727 -0.17107585072517395 -0.219203710556030273
0.0470791682600975037 -0.596469521522521973 -0.403530478477478027
-0.828002095222473145 -0.950312197208404541 -0.0496877990663051605
0.183550521731376648 0.964362978935241699 -0.0356370136141777039
0.0301828142255544662 -0.587859809398651123 -0.412140160799026489
0.814489960670471191 0.93337559700012207 -0.0666243955492973328
-0.613561868667602539 -0.572479128837585449 -0.386438131332397461
0.318216651678085327 -0.605661571025848389 -0.394338399171829224
-0.294237762689590454 0.439209043979644775 -0.560790956020355225
0.676941633224487305 -0.0564343221485614777 -0.323058366775512695
-0.71021270751953125 -0.220578059554100037 0.289787322282791138
0.22273486852645874 0.599588274955749512 -0.400411754846572876
0.0689695253968238831 -0.540242791175842285 -0.459757179021835327
0.628036558628082275 -0.925525009632110596 -0.0744750127196311951
-0.210618078708648682 -0.988119602203369141 -0.0118803717195987701
0.160943120718002319 -0.381767809391021729 -0.618232190608978271
0.124262236058712006 -0.599629521369934082 -0.40037044882774353
0.474522590637207031 -0.527302384376525879 -0.472697645425796509
-0.787104249000549316 0.984429895877838135 -0.015570078045129776
-0.245015889406204224 -0.00470183836296200752 -0.754984140396118164
0.850231945514678955 -0.982058405876159668 -0.0179416220635175705
0.0430163033306598663 -0.192051514983177185 -0.807948470115661621
0.384543418884277344 -0.207561001181602478 -0.615456581115722656
-0.304388076066970825 -0.0301665328443050385 0.695611894130706787
-0.119481109082698822 0.921678781509399414 0.0783212035894393921
-0.165873140096664429 0.890437602996826172 -0.109562411904335022
0.159763455390930176 0.726690471172332764 -0.273309528827667236
-0.736568987369537354 0.765275120735168457 -0.234724849462509155
0.89051353931427002 -0.839844822883605957 -0.10948646068572998
0.702935934066772461 -0.508928120136260986 -0.297064065933227539
0.0906951949000358582 0.490635961294174194 -0.509364068508148193
0.646696805953979492 -0.160132661461830139 -0.353303223848342896
0.215775787830352783 0.511075437068939209 -0.488924533128738403
-0.254748731851577759 0.939228236675262451 -0.060771748423576355
0.93956226110458374 -0.646723747253417969 -0.0604377612471580505
-0.772585213184356689 0.114255689084529877 -0.227414816617965698
0.126597538590431213 -0.564190506935119629 0.435809463262557983
0.333892852067947388 0.364753156900405884 -0.635246872901916504
-0.240402862429618835 -0.0902879610657691956 0.759597122669219971
-0.852343976497650146 -0.879178404808044434 0.12082161009311676
0.771086037158966064 0.0391661860048770905 -0.228913977742195129
-0.728389918804168701 0.834629476070404053 -0.165370553731918335
-0.358617961406707764 -0.816565871238708496 -0.183434143662452698
0.0130449617281556129 -0.514414310455322266 -0.485585689544677734
-0.195455342531204224 -0.25189778208732605 -0.748102247714996338
-0.860355079174041748 -0.300103455781936646 -0.139644920825958252
-0.961368322372436523 0.995620787143707275 -0.00364698749035596848
-0.113458313047885895 0.557176172733306885 -0.442823857069015503
-0.677345991134643555 0.404644936323165894 0.322653979063034058
-0.216787084937095642 0.125124081969261169 -0.783212900161743164
0.17842651903629303 0.713682413101196289 -0.286317586898803711
0.677371740341186523 0.736156165599822998 0.263843834400177002
0.0636970996856689453 -0.27957451343536377 -0.72042548656463623
-0.95965576171875 -0.967339634895324707 -0.032660365104675293
-0.4817790687084198 0.243905484676361084 0.518220901489257812
-0.69287031888961792 -0.0172157585620880127 -0.307129651308059692
-0.639133810997009277 -0.729078590869903564 -0.270921409130096436
-0.886714279651641846 -0.617532134056091309 -0.113285727798938751
0.718559741973876953 0.82955324649810791 0.17044675350189209
-0.211447373032569885 0.834508955478668213 -0.165491059422492981
-0.207398563623428345 -0.379285097122192383 0.620714902877807617
-0.38162800669670105 -0.590859889984130859 -0.409140080213546753
-0.947349488735198975 0.0855230018496513367 -0.0526504851877689362
-0.78967517614364624 -0.745289862155914307 -0.210324838757514954
0.461669057607650757 -0.975324451923370361 -0.0246755462139844894
0.361890614032745361 0.510548651218414307 -0.489451318979263306
-0.00959475897252559662 -0.402879118919372559 -0.597120881080627441
-0.46627277135848999 0.76493990421295166 -0.235060125589370728
-0.537570297718048096 -0.991633415222167969 -0.0083665754646062851
-0.105044007301330566 -0.511915504932403564 -0.488084465265274048
-0.446143239736557007 -0.0273825060576200485 0.553856730461120605
-0.80537492036819458 -0.804900109767913818 0.19462507963180542
-0.97285759449005127 -0.716878116130828857 -0.0271424315869808197
-0.464388132095336914 0.225416630506515503 -0.535611867904663086
-0.38566356897354126 -0.83672940731048584 -0.163270622491836548
-0.51228487491607666 -0.790944576263427734 -0.209055408835411072
0.651357173919677734 -0.878760755062103271 0.121239259839057922
-0.686311841011047363 -0.273246169090270996 -0.313688129186630249
-0.578947484493255615 -0.942631900310516357 0.0573681183159351349
0.919876754283905029 0.651579141616821289 -0.0801232457160949707
-0.176249012351036072 0.662518143653869629 0.337481886148452759
0.0700221508741378784 0.240731284022331238 0.759268701076507568
-0.468865394592285156 -0.0295683350414037704 -0.531134605407714844
-0.450610458850860596 -0.221848443150520325 -0.549389541149139404
0.333269685506820679 0.0248389579355716705 -0.666730284690856934
0.684371471405029297 -0.988837301731109619 -0.0111627168953418732
0.982129752635955811 -0.479010671377182007 -0.0178702343255281448
-0.938859641551971436 0.243253335356712341 -0.0611403845250606537
0.675487756729125977 0.666734814643859863 -0.324512273073196411
-0.291482061147689819 -0.580345511436462402 -0.41965445876121521
-0.435322552919387817 -0.216549858450889587 -0.56467747688293457
0.0250754132866859436 -0.53120952844619751 -0.46879047155380249
-0.557480216026306152 0.819486796855926514 -0.180513203144073486
-0.898640573024749756 0.116548299789428711 -0.101359449326992035
-0.296405881643295288 0.107758156955242157 -0.7035941481590271
-0.141507238149642944 0.0518039651215076447 -0.858492791652679443
0.339005023241043091 0.960990607738494873 -0.0390094071626663208
0.0858131349086761475 0.715456783771514893 0.284543216228485107
0.000305095250951126218 -0.864648044109344482 0.135351970791816711
0.76162034273147583 0.595599174499511719 0.238379642367362976
0.457286149263381958 0.801325142383575439 0.198674872517585754
-0.382560223340988159 -0.113716989755630493 0.617439806461334229
0.859872817993164062 0.213271722197532654 0.140127182006835938
0.0572817698121070862 0.148488685488700867 -0.851511299610137939
0.984258592128753662 0.116275236010551453 0.0153317060321569443
-0.153372377157211304 0.383043766021728516 0.616956233978271484
-0.474356383085250854 0.980108022689819336 -0.0198919940739870071
0.00862821843475103378 -0.324155747890472412 -0.675844252109527588
0.00876943394541740417 0.485551595687866211 0.514448404312133789
0.127821147441864014 -0.239097699522972107 -0.760902285575866699
0.398034483194351196 -0.70035475492477417 0.299645274877548218
0.0753771066665649414 0.109956704080104828 0.890043318271636963
-0.25614088773727417 -0.778102338314056396 -0.22189764678478241
0.0848517864942550659 -0.882520318031311035 0.117479704320430756
-0.448605716228485107 0.0333572961390018463 -0.551394283771514893
-0.532066583633422852 0.204156875610351562 -0.467933386564254761
0.840057969093322754 0.552969396114349365 -0.159942016005516052
-0.283104032278060913 -0.647063851356506348 -0.35293617844581604
0.51981431245803833 -0.683072566986083984 -0.316927433013916016
-0.680568814277648926 -0.938803374767303467 -0.0611965954303741455
-0.0180624965578317642 0.458948969841003418 0.541051030158996582
-0.347292065620422363 -0.37521439790725708 -0.62478560209274292
0.755744874477386475 -0.712866485118865967 0.244255110621452332
0.463465720415115356 0.591309309005737305 -0.408690690994262695
-0.362249523401260376 -0.623038053512573242 -0.376961946487426758
0.504497170448303223 0.163727119565010071 0.49550279974937439
0.763685524463653564 0.762106239795684814 -0.236314475536346436
-0.730540812015533447 -0.614844679832458496 -0.269459187984466553
-0.387520641088485718 0.0401936769485473633 -0.61247938871383667
0.259828805923461914 -0.217584341764450073 -0.740171194076538086
0.266736596822738647 -0.814840376377105713 0.185159623622894287
0.26857459545135498 0.317179501056671143 -0.682820498943328857
0.877422451972961426 -0.357199788093566895 0.122577548027038574
0.0117369899526238441 -0.201908141374588013 -0.7980918288230896
-0.358856767416000366 -0.246474564075469971 -0.641143202781677246
-0.909011125564575195 -0.307511866092681885 0.0909888520836830139
0.254766672849655151 -0.595848202705383301 0.404151797294616699
-0.28453516960144043 0.0207117032259702682 -0.71546483039855957
-0.516018569469451904 0.747268855571746826 0.252731144428253174
-0.864063262939453125 -0.975457549095153809 -0.024542463943362236
0.431146144866943359 -0.931245148181915283 -0.0687548741698265076
-0.305365473031997681 0.44212689995765686 0.557873129844665527
-0.511068224906921387 -0.396574914455413818 -0.488931804895401001
-0.617845833301544189 -0.978019595146179199 -0.0219803899526596069
0.992429375648498535 -0.11019366979598999 -0.00757060479372739792
0.479191869497299194 0.934463024139404297 -0.065536990761756897
0.20007246732711792 0.469908803701400757 0.530091166496276855
-0.922560572624206543 -0.00159679562784731388 0.077439427375793457
-0.539274811744689941 -0.179316058754920959 -0.460725218057632446
-0.317512214183807373 0.593620121479034424 -0.406379908323287964
0.118315838277339935 0.309708774089813232 0.690291225910186768
0.0940628945827484131 0.898376345634460449 -0.101623654365539551
-0.935889005661010742 -0.0336551554501056671 -0.064110979437828064
0.894179224967956543 0.775987088680267334 -0.105820752680301666
-0.216764286160469055 0.406880795955657959 -0.593119204044342041
-0.0506076589226722717 -0.251500546932220459 0.748499453067779541
0.465582162141799927 -0.528619945049285889 0.471380054950714111
-0.0840300992131233215 -0.650431632995605469 -0.349568396806716919
-0.296969473361968994 0.362559348344802856 -0.637440681457519531
-0.667752563953399658 0.682301223278045654 -0.317698776721954346
0.0093326568603515625 -0.976419925689697266 -0.0235800854861736298
0.847376644611358643 0.283241033554077148 -0.152623340487480164
0.149093776941299438 -0.643813252449035645 -0.356186747550964355
-0.358116835355758667 0.695441126823425293 -0.304558843374252319
-0.58884817361831665 0.759448826313018799 -0.240551173686981201
-0.0340205766260623932 0.331653505563735962 0.668346524238586426
0.542787492275238037 0.150392681360244751 -0.457212477922439575
0.829809188842773438 -0.404424399137496948 -0.17019084095954895
0.168728306889533997 0.770974040031433105 -0.229025974869728088
-0.0249296613037586212 0.105656467378139496 -0.894343554973602295
0.13554103672504425 -0.978156149387359619 -0.0218438562005758286
0.930313408374786377 0.103876456618309021 0.0696866139769554138
0.711232423782348633 0.771924257278442383 -0.228075742721557617
-0.481193006038665771 0.518847227096557617 0.481152772903442383
0.278047949075698853 0.611423850059509277 -0.388576149940490723
-0.204484209418296814 0.772619664669036865 -0.227380335330963135
-0.387389421463012695 -0.767833411693572998 -0.232166573405265808
-0.188688203692436218 -0.904916048049926758 -0.0950839594006538391
0.386243194341659546 -0.433429867029190063 0.566570162773132324
0.854364573955535889 0.686926424503326416 -0.145635411143302917
-0.139114722609519958 -0.916312038898468018 -0.0836879387497901917
0.513864219188690186 0.0114827267825603485 0.486135810613632202
0.159151628613471985 0.78408968448638916 -0.21591031551361084
-0.211569875478744507 0.380696296691894531 -0.619303703308105469
0.396776735782623291 0.40861162543296814 0.591388404369354248
-0.284873783588409424 0.348471373319625854 -0.651528596878051758
0.0749286189675331116 -0.425279229879379272 -0.57472074031829834
-0.193402066826820374 -0.415285587310791016 -0.584714412689208984
-0.237352073192596436 -0.338167786598205566 0.661832213401794434
-0.815347135066986084 -0.906185567378997803 -0.0938144326210021973
-0.836677610874176025 0.729975759983062744 -0.163322418928146362
0.0894263759255409241 -0.528795301914215088 0.471204698085784912
0.164294734597206116 0.872891485691070557 0.127108529210090637
-0.87973707914352417 0.693344295024871826 -0.120262943208217621
0.765821874141693115 -0.549868524074554443 -0.234178110957145691
0.479669272899627686 0.730141520500183105 -0.269858449697494507
-0.173339679837226868 0.963539838790893555 -0.0364601872861385345
-0.380998969078063965 -0.683544576168060303 -0.316455423831939697
-0.88615947961807251 -0.41407361626625061 0.113840542733669281
0.279773354530334473 0.503493726253509521 -0.496506273746490479
-0.433659672737121582 -0.197174414992332458 -0.566340327262878418
-0.123582847416400909 -0.111198775470256805 0.876417160034179688
0.671568036079406738 -0.592234194278717041 -0.328431993722915649
0.379720479249954224 0.312972664833068848 0.620279490947723389
0.689392447471618652 0.441528469324111938 -0.310607582330703735
0.627064704895019531 -0.374672830104827881 -0.372935324907302856
-0.824211597442626953 -0.970712363719940186 -0.0292876157909631729
0.664379775524139404 -0.495294570922851562 -0.335620224475860596
-0.829482734203338623 0.0932767093181610107 -0.170517280697822571
0.65931391716003418 0.943619966506958008 -0.0563800297677516937
-0.28138887882232666 0.395700365304946899 -0.604299604892730713
0.777099490165710449 0.0831543654203414917 -0.222900524735450745
-0.898438513278961182 0.497737795114517212 0.101561456918716431
-0.323205083608627319 -0.90788567066192627 -0.0921143293380737305
0.661673128604888916 0.606372594833374023 -0.338326841592788696
-0.762430667877197266 -0.856438577175140381 -0.143561407923698425
-0.417405486106872559 0.809552609920501709 0.190447390079498291
0.241812780499458313 0.364055126905441284 -0.635944843292236328
-0.719915509223937988 -0.650039076805114746 -0.280084490776062012
0.731670558452606201 0.27769353985786438 -0.268329411745071411
0.160898655652999878 -0.804186880588531494 0.195813119411468506
0.811729490756988525 -0.14135529100894928 -0.188270479440689087
0.378511190414428711 0.931960761547088623 0.0680392608046531677
0.509611248970031738 -0.101381711661815643 -0.490388751029968262
-0.780939221382141113 0.765511155128479004 -0.219060778617858887
0.952736616134643555 0.56853175163269043 0.0472634099423885345
0.122041948139667511 -0.0746747031807899475 -0.877958059310913086
0.337348818778991699 -0.951881289482116699 0.0481186844408512115
0.3226776123046875 -0.495185881853103638 -0.504814088344573975
-0.305352061986923218 0.597881853580474854 -0.402118146419525146
0.674323022365570068 0.842628240585327148 0.157371774315834045
-0.0894895121455192566 -0.692858219146728516 -0.307141780853271484
0.739200711250305176 0.86678469181060791 -0.133215293288230896
-0.244770854711532593 -0.0964561924338340759 0.755229175090789795
0.858326315879821777 0.108755506575107574 0.141673654317855835
-0.906574368476867676 0.284868329763412476 0.093425653874874115
0.116946801543235779 0.829605042934417725 0.170394957065582275
0.421866297721862793 -0.422350764274597168 -0.577649235725402832
-0.340955615043640137 0.707121849060058594 -0.292878150939941406
-0.276442259550094604 -0.962853014469146729 -0.0371469669044017792
-0.0205250270664691925 -0.72584766149520874 0.27415233850479126
0.317418545484542847 0.842538952827453613 0.157461062073707581
-0.588948667049407959 0.353467375040054321 -0.411051303148269653
0.32150229811668396 -0.38738483190536499 -0.61261516809463501
0.170349448919296265 -0.586852014064788818 -0.413147985935211182
0.399815499782562256 -0.46934095025062561 -0.530659019947052002
0.110952302813529968 -0.938878297805786133 -0.0611217133700847626
-0.569257855415344238 -0.798645496368408203 0.201354533433914185
0.50925600528717041 -0.637324631214141846 -0.362675398588180542
0.0417176298797130585 -0.668317258358001709 -0.331682711839675903
-0.0537666082382202148 -0.171626448631286621 0.828373551368713379
-0.596221446990966797 0.353072613477706909 0.403778582811355591
-0.149954333901405334 -0.0770917236804962158 -0.850045680999755859
-0.335613667964935303 -0.0987098067998886108 0.664386332035064697
-0.892412662506103516 0.744556188583374023 0.107587352395057678
0.599463403224945068 0.886102497577667236 -0.113897480070590973
-0.143202289938926697 0.647830009460449219 -0.352169960737228394
-0.0484542772173881531 -0.508973896503448486 -0.491026133298873901
-0.0220554303377866745 -0.0622483789920806885 0.937751650810241699
0.41647753119468689 0.976404666900634766 -0.0235953088849782944
0.257664471864700317 -0.929368317127227783 -0.0706316977739334106
0.626455485820770264 0.42787286639213562 -0.373544543981552124
-0.845067322254180908 0.694177746772766113 -0.154932677745819092
-0.265725940465927124 -0.714682102203369141 -0.285317897796630859
-0.0728875249624252319 0.264818102121353149 -0.735181927680969238
-0.666560232639312744 0.664417743682861328 -0.333439797163009644
0.992470204830169678 0.994119882583618164 -0.00588014023378491402
0.600836634635925293 -0.325080662965774536 -0.399163335561752319
-0.0467777512967586517 -0.870810151100158691 -0.129189819097518921
0.218977287411689758 -0.20608876645565033 -0.781022727489471436
-0.373314946889877319 -0.287056565284729004 0.626685082912445068
0.640910327434539795 -0.742985069751739502 0.257014930248260498
0.391227990388870239 0.719403266906738281 0.280596733093261719
0.22362285852432251 0.40572163462638855 -0.594278395175933838
-0.31601715087890625 0.51379084587097168 0.48620915412902832
-0.510103523731231689 0.457852035760879517 0.489896476268768311
-0.893861174583435059 -0.0827500671148300171 -0.106138803064823151
0.370183706283569336 0.431447118520736694 0.568552851676940918
0.0772035941481590271 -0.930356979370117188 0.0696430057287216187
0.967637479305267334 0.172488376498222351 -0.032362520694732666
0.659149706363677979 -0.903323650360107422 -0.0966763719916343689
-0.496914029121398926 -0.662125885486602783 -0.337874114513397217
0.167395398020744324 -0.46988341212272644 -0.530116558074951172
-0.927701950073242188 0.597623109817504883 -0.0722980350255966187
-0.594962000846862793 0.5191650390625 0.405038028955459595
0.46347343921661377 0.192900136113166809 -0.53652656078338623
-0.734390974044799805 -0.316905230283737183 0.265609055757522583
-0.323042541742324829 -0.755717337131500244 -0.244282662868499756
-0.901184439659118652 0.170433849096298218 -0.0988155379891395569
-0.930361390113830566 -0.577461600303649902 -0.0696386322379112244
0.769699335098266602 0.190146729350090027 -0.230300679802894592
0.126410990953445435 -0.0830455794930458069 0.873589038848876953
-0.799615561962127686 -0.356847077608108521 -0.200384452939033508
-0.126813352108001709 0.946710467338562012 0.0532895177602767944
-0.930675148963928223 0.854475438594818115 0.0693248733878135681
0.00517160492017865181 -0.210210606455802917 -0.789789378643035889
0.687316596508026123 -0.638154566287994385 0.312683373689651489
-0.78872978687286377 -0.822504222393035889 -0.177495792508125305
-0.0982400327920913696 -0.176787331700325012 -0.823212683200836182
-0.212336808443069458 -0.481886744499206543 -0.518113255500793457
-0.175372213125228882 -0.591376423835754395 -0.408623605966567993
-0.0192961804568767548 0.154343873262405396 0.845656096935272217
-0.831351101398468018 0.115949146449565887 -0.168648913502693176
0.797818660736083984 -0.162178277969360352 -0.202181339263916016
0.91881948709487915 0.715061306953430176 -0.0811805054545402527
-0.425005704164505005 -0.800120830535888672 -0.199879169464111328
0.514682173728942871 0.241219654679298401 -0.485317826271057129
-0.842880368232727051 0.304188311100006104 0.157119631767272949
0.147329822182655334 0.497259587049484253 -0.502740442752838135
0.293752700090408325 0.0680454075336456299 -0.706247329711914062
0.72176659107208252 -0.734286725521087646 0.265713274478912354
-0.686560511589050293 0.874876201152801514 -0.125123783946037292
-0.95858687162399292 0.327416837215423584 0.0414131395518779755
0.0641690641641616821 -0.212835997343063354 0.787164032459259033
-0.196484953165054321 0.893419444561004639 -0.106580570340156555
0.387964904308319092 -0.955260336399078369 -0.0447396822273731232
0.363712936639785767 -0.79508364200592041 -0.204916343092918396
-0.335283279418945312 0.230129018425941467 -0.664716720581054688
0.400572866201400757 -0.511597812175750732 -0.488402217626571655
-0.871874570846557617 -0.017064213752746582 -0.128125399351119995
0.579497456550598145 0.809367120265960693 -0.1906328946352005
-0.428272128105163574 0.543220877647399902 -0.45677909255027771
-0.826478660106658936 -0.869110345840454102 0.130889624357223511
-0.166164711117744446 -0.255543768405914307 -0.744456231594085693
-0.197874367237091064 0.581524252891540527 -0.418475717306137085
-0.028646811842918396 0.429969549179077148 0.570030450820922852
-0.452075183391571045 0.571459650993347168 -0.428540319204330444
0.226895362138748169 0.72023463249206543 -0.27976536750793457
-0.483334630727767944 0.915086925029754639 -0.0849130600690841675
-0.985328853130340576 -0.0297609381377696991 0.0135439876466989517
-0.0867452770471572876 0.0383218377828598022 0.913254737854003906
0.179347306489944458 0.730008423328399658 0.269991546869277954
0.746700584888458252 0.644127190113067627 0.25329938530921936
0.327302873134613037 0.542248904705047607 -0.457751095294952393
0.972519576549530029 0.0758056715130805969 -0.0274804122745990753
0.110224880278110504 -0.281230300664901733 0.718769669532775879
0.170734182000160217 -0.20693834125995636 -0.793061673641204834
0.242247030138969421 -0.113940440118312836 0.757752954959869385
-0.614837050437927246 0.222588539123535156 -0.385162949562072754
-0.226960286498069763 0.597228348255157471 -0.402771621942520142
-0.113541118800640106 0.607862293720245361 -0.392137736082077026
-0.737204790115356445 -0.337118923664093018 -0.262795239686965942
-0.510458171367645264 0.909912168979644775 -0.0900878086686134338
0.529882252216339111 0.220260471105575562 -0.470117747783660889
0.335397899150848389 -0.850222945213317871 0.149777084589004517
-0.857899248600006104 0.777048051357269287 -0.142100781202316284
0.389894574880599976 -0.974197804927825928 -0.0258022025227546692
0.425108343362808228 0.99395596981048584 -0.000866173242684453726
-0.527879834175109863 0.626340866088867188 0.3736591637134552
0.191199705004692078 0.547262907028198242 -0.45273706316947937
0.70887678861618042 0.434221625328063965 -0.291123181581497192
0.117883093655109406 0.412387996912002563 -0.587612032890319824
0.308225721120834351 -0.284975349903106689 -0.691774308681488037
-0.0018259403295814991 -0.869713425636291504 0.130286544561386108
-0.755127966403961182 -0.824884951114654541 0.175115063786506653
-0.905585527420043945 0.727403163909912109 -0.0944144725799560547
0.737630486488342285 0.737568259239196777 -0.262369543313980103
0.878516554832458496 -0.857497513294219971 -0.121483460068702698
0.62945258617401123 0.739617288112640381 0.260382711887359619
-0.0181524548679590225 0.163383990526199341 0.836616039276123047
0.846992254257202148 0.724586784839630127 0.153007730841636658
0.755174338817596436 0.385146409273147583 -0.244825676083564758
-0.338565230369567871 -0.357548981904983521 0.642450988292694092
-0.197991713881492615 -0.252557039260864258 -0.747442960739135742
-0.273089498281478882 -0.750082969665527344 0.249917030334472656
0.17084600031375885 0.878311336040496826 -0.121688663959503174
-0.332353830337524414 -0.236382335424423218 -0.667646169662475586
-0.978777289390563965 0.974818050861358643 0.0212227329611778259
-0.894694685935974121 -0.0724407806992530823 0.105305328965187073
-0.675943851470947266 -0.785860180854797363 0.214139804244041443
0.831429064273834229 0.849222302436828613 0.150777682662010193
-0.137529268860816956 0.780308246612548828 -0.219691753387451172
0.451493054628372192 0.27576020359992981 0.548506975173950195
-0.041223086416721344 -0.854135215282440186 -0.145864814519882202
-0.434246689081192017 -0.959984719753265381 -0.0400152839720249176
-0.69566267728805542 -0.393683016300201416 0.30433732271194458
0.169088631868362427 0.651580929756164551 -0.348419040441513062
0.807341158390045166 -0.626820862293243408 -0.192658811807632446
-0.802707791328430176 -0.206929147243499756 0.197292178869247437
0.0102164745330810547 0.851784706115722656 -0.14821527898311615
0.328603953123092651 -0.853914916515350342 -0.146085068583488464
-0.492998898029327393 0.288490742444992065 -0.507001101970672607
-0.777915418148040771 -0.816532492637634277 -0.183467507362365723
0.130854293704032898 -0.989410638809204102 -0.0105893732979893684
-0.195792898535728455 0.843711793422698975 0.156288206577301025
0.854796528816223145 0.582615911960601807 0.145203500986099243
0.153425142168998718 0.900522589683532715 0.0994774028658866882
0.878874242305755615 -0.0765012577176094055 -0.121125750243663788
-0.0649021491408348083 0.639335930347442627 -0.360664099454879761
0.594685912132263184 0.816521525382995605 -0.183478459715843201
0.556412637233734131 -0.731465518474578857 -0.268534451723098755
0.502187013626098633 0.869060993194580078 -0.130938991904258728
0.601816952228546143 0.974936187267303467 -0.0250638052821159363
-0.0800572559237480164 0.37838590145111084 -0.62161409854888916
0.453201234340667725 0.436744332313537598 0.546798765659332275
0.759681522846221924 0.804508447647094727 0.195491522550582886
-0.739655494689941406 0.303479462862014771 0.260344535112380981
0.208687707781791687 -0.312443464994430542 -0.687556564807891846
-0.473688513040542603 -0.716736495494842529 0.283263504505157471
-0.576842606067657471 0.078643016517162323 -0.423157393932342529
-0.0816906467080116272 0.222947552800178528 0.777052462100982666
-0.943492352962493896 0.197455555200576782 -0.0565076321363449097
0.538740932941436768 0.956478714942932129 -0.0435212776064872742
0.312464773654937744 0.589566528797149658 0.410433471202850342
-0.546760082244873047 -0.344957590103149414 -0.453239917755126953
-0.644780397415161133 -0.511523723602294922 -0.355219572782516479
-0.755542159080505371 0.465690314769744873 -0.244457870721817017
-0.538622617721557617 -0.985383570194244385 -0.0146164260804653168
-0.858934164047241211 -0.208733364939689636 -0.141065821051597595
-0.254109114408493042 -0.872855842113494873 -0.127144172787666321
0.0768807604908943176 -0.937677741050720215 -0.0623222477734088898
-0.56405562162399292 0.110771946609020233 -0.435944408178329468
-0.0754811689257621765 -0.0816447064280509949 0.918355286121368408
0.864045679569244385 0.462601453065872192 -0.135954335331916809
-0.0142579115927219391 0.291374832391738892 -0.708625197410583496
-0.920409321784973145 0.73605811595916748 -0.0795907005667686462
0.199276894330978394 -0.0772590786218643188 -0.800723135471343994
0.669693052768707275 -0.654851555824279785 -0.330306947231292725
-0.405184477567672729 -0.688890993595123291 0.311109006404876709
-0.87259221076965332 -0.865425229072570801 -0.127407774329185486
-0.689794182777404785 -0.299769610166549683 -0.310205817222595215
0.743804931640625 0.976739406585693359 -0.0232606139034032822
-0.225139737129211426 0.835278213024139404 -0.164721772074699402
0.0866884738206863403 0.114745356142520905 -0.885254621505737305
-0.0635797306895256042 -0.911484599113464355 0.0885153934359550476
-0.19800373911857605 0.63785552978515625 -0.362144500017166138
0.644805252552032471 -0.408728212118148804 0.355194777250289917
-0.827216446399688721 -0.474043756723403931 0.172783583402633667
0.140831500291824341 0.508587241172790527 -0.491412758827209473
-0.88026505708694458 -0.840163886547088623 -0.119734972715377808
-0.31959185004234314 0.960374116897583008 -0.0396258533000946045
-0.412471681833267212 0.193198204040527344 -0.5875282883644104
-0.741523504257202148 0.752987027168273926 -0.247012987732887268
-0.222475543618202209 -0.571438074111938477 -0.428561896085739136
-0.509232938289642334 0.664300203323364258 0.335699796676635742
0.00270361173897981644 -0.952661216259002686 -0.0473387762904167175
-0.571590840816497803 -0.00206118030473589897 -0.42840912938117981
0.103923305869102478 -0.689277231693267822 0.310722768306732178
-0.331306517124176025 0.403413593769073486 0.596586406230926514
0.0991677343845367432 0.94131237268447876 0.0586876459419727325
-0.54396665096282959 0.990586161613464355 -0.00941382162272930145
-0.90139538049697876 -0.208457574248313904 -0.0986046493053436279
0.34611925482749939 -0.953746140003204346 -0.0462538376450538635
-0.898807823657989502 -0.577966392040252686 -0.101192161440849304
-0.358146607875823975 -0.991120040416717529 0.00387077569030225277
-0.91358262300491333 0.16914774477481842 -0.0864173620939254761
-0.69561612606048584 0.165321275591850281 -0.304383903741836548
-0.287693172693252563 -0.100991450250148773 -0.712306857109069824
-0.0119834011420607567 -0.0640207752585411072 -0.935979247093200684
0.392193466424942017 0.674781918525695801 0.325218051671981812
-0.979263067245483398 -0.00509423715993762016 -0.0207369066774845123
0.0877189189195632935 -0.922232866287231445 -0.0777671411633491516
0.169271349906921387 -0.0700746253132820129 -0.830728650093078613
0.778923511505126953 0.18646278977394104 -0.221076503396034241
-0.705294311046600342 -0.016882721334695816 0.294705659151077271
0.269241780042648315 0.109794288873672485 0.730758190155029297
0.744782209396362305 0.281453222036361694 0.255217820405960083
0.4743785560131073 0.410029560327529907 -0.525621473789215088
0.00584235973656177521 -0.154466912150382996 -0.845533072948455811
0.288889557123184204 0.417192786931991577 0.582807183265686035
-0.494547009468078613 0.435000985860824585 -0.505452990531921387
-0.399402260780334473 -0.652449369430541992 -0.347550660371780396
-0.472329854965209961 -0.340971618890762329 0.527670145034790039
-0.675394654273986816 -0.550325691699981689 -0.324605345726013184
0.454129070043563843 -0.675148189067840576 -0.324851810932159424
-0.114847205579280853 -0.0327926576137542725 0.885152816772460938
-0.116637460887432098 0.529688239097595215 0.470311790704727173
-0.565627396106719971 -0.357782721519470215 -0.434372603893280029
0.302747100591659546 0.793352663516998291 -0.206647351384162903
0.35843232274055481 0.749368846416473389 -0.250631153583526611
-0.109089665114879608 0.880990147590637207 0.119009874761104584
0.284133791923522949 0.198153108358383179 0.715866208076477051
0.202982768416404724 0.333192974328994751 -0.666807055473327637
0.621178209781646729 0.14974510669708252 -0.378821790218353271
-0.98189091682434082 0.801893115043640137 -0.0181090887635946274
-0.704291045665740967 -0.400700807571411133 -0.295708984136581421
0.739763140678405762 -0.432906121015548706 0.260236889123916626
-0.185019239783287048 -0.927712082862854004 -0.072287924587726593
0.68725055456161499 0.167226448655128479 -0.312749415636062622
-0.111541703343391418 0.793329358100891113 -0.206670626997947693
