ply
format ascii 1.0
element vertex 737
property float x
property float y
property float z
end_header
-0.0505911968648433685 -0.0966493412852287292 0.852759480476379395
-0.00673526059836149216 -0.839111149311065674 0.15300305187702179
0.122171327471733093 0.055141691118478775 0.822686970233917236
0.689493238925933838 -0.179087862372398376 0.131418913602828979
-0.0545403175055980682 -0.00988305825740098953 0.93557661771774292
-0.799248337745666504 -0.0168804284185171127 0.183871224522590637
0.083660028874874115 0.444209396839141846 0.472130566835403442
0.772490322589874268 0.0418063551187515259 -0.185703322291374207
0.57309114933013916 -0.37091490626335144 0.0559939518570899963
0.360673457384109497 -0.231143921613693237 0.408182621002197266
-0.185267075896263123 0.0205859746783971786 -0.794146955013275146
-0.479922682046890259 0.159634098410606384 -0.360443234443664551
-0.0354348272085189819 0.815340757369995117 -0.149224400520324707
-0.823266208171844482 0.107346758246421814 0.0693870633840560913
-0.159422412514686584 -0.717902779579162598 -0.122674800455570221
0.308100730180740356 0.367578983306884766 0.324320316314697266
0.127743273973464966 0.42055976390838623 0.451696962118148804
0.556581616401672363 -0.126684620976448059 -0.316733747720718384
0.194367185235023499 0.0176317617297172546 -0.788001060485839844
-0.415390372276306152 -0.231431320309638977 -0.353178322315216064
-0.0251653771847486496 0.563898921012878418 0.410935699939727783
-0.466216474771499634 -0.0937405973672866821 0.440042942762374878
0.136975213885307312 -0.636715114116668701 0.226309701800346375
-0.343562036752700806 -0.542616903781890869 -0.113821081817150116
-0.699874043464660645 -0.0457919090986251831 0.254334032535552979
-0.279964804649353027 -0.193042472004890442 0.526992738246917725
0.276226818561553955 -0.434964478015899658 -0.288808703422546387
-0.11903921514749527 0.558961212635040283 -0.321999549865722656
-0.584466814994812012 -0.286499381065368652 0.129033789038658142
0.373349845409393311 0.303062021732330322 0.323588132858276367
0.131891831755638123 -0.654264390468597412 -0.213843792676925659
0.404403805732727051 0.136960044503211975 -0.45863613486289978
-0.721864640712738037 -0.214354246854782104 0.0637810826301574707
0.749013185501098633 0.100686624646186829 0.150300189852714539
-0.79090648889541626 0.194615855813026428 0.0132208410650491714
-0.537446677684783936 0.236427441239356995 -0.226125910878181458
0.349223464727401733 0.0211181193590164185 0.629658401012420654
-0.286938607692718506 0.556340277194976807 0.156721115112304688
-0.0834281742572784424 -0.14097750186920166 -0.775594353675842285
-0.327410012483596802 -0.159450232982635498 0.513139784336090088
0.203086614608764648 0.388612329959869385 -0.408301055431365967
0.0740210413932800293 0.313062906265258789 -0.612916052341461182
-0.516586124897003174 -0.0673763230443000793 -0.416037529706954956
0.159701764583587646 -0.629193723201751709 -0.211104482412338257
-0.435516119003295898 -0.197517216205596924 0.36696663498878479
-0.258858233690261841 -0.375837206840515137 -0.365304559469223022
-0.558526873588562012 0.18411707878112793 -0.257356047630310059
0.138757973909378052 -0.044154580682516098 -0.817087471485137939
-0.312947928905487061 -0.105804674327373505 -0.581247389316558838
-0.796080470085144043 0.190644443035125732 -0.0132750747725367546
-0.187287434935569763 -0.464451223611831665 0.348261356353759766
0.0957017391920089722 0.600438058376312256 -0.303860217332839966
0.825379431247711182 0.0800237804651260376 0.0945967733860015869
-0.665322721004486084 -0.265374600887298584 0.069302678108215332
-0.137957915663719177 -0.289851218461990356 -0.57219088077545166
-0.12630791962146759 -0.72241133451461792 0.15128074586391449
0.183369055390357971 -0.128435567021369934 -0.688195407390594482
0.535958707332611084 -0.354452043771743774 -0.109589241445064545
-0.169041380286216736 0.337908148765563965 -0.493050485849380493
-0.574503719806671143 0.193896621465682983 0.231599628925323486
0.307738751173019409 -0.607841849327087402 -0.0844193845987319946
0.327481448650360107 -0.498912334442138672 0.173606231808662415
-0.451967686414718628 0.2802925705909729 -0.267739772796630859
-0.673673391342163086 -0.096709027886390686 -0.229617565870285034
-0.717729628086090088 -0.265504300594329834 -0.0167660936713218689
-0.222243994474411011 0.654701769351959229 -0.123054236173629761
-0.393705487251281738 0.594591379165649414 0.0085864560678601265
0.0897180065512657166 0.14123496413230896 0.769047021865844727
0.112403571605682373 0.358747631311416626 -0.528848826885223389
-0.93518906831741333 -0.0417473353445529938 -0.02306361123919487
0.180589750409126282 0.473836779594421387 -0.345573484897613525
0.427138984203338623 0.272785723209381104 -0.300075292587280273
-0.0470850206911563873 0.321369260549545288 -0.631545722484588623
0.694196105003356934 -0.190957158803939819 0.114846751093864441
0.193164929747581482 0.0626761987805366516 -0.74415886402130127
-0.103804506361484528 -0.582556366920471191 -0.313639163970947266
-0.333830088376998901 -0.636316835880279541 -0.0298531129956245422
-0.198037013411521912 -0.230830863118171692 0.571132123470306396
0.105848483741283417 -0.508535504341125488 0.385616004467010498
0.131978929042816162 0.637436211109161377 -0.230584889650344849
-0.650288820266723633 -0.0662358850240707397 -0.283475279808044434
-0.500979840755462646 0.291136175394058228 -0.207883968949317932
0.592559456825256348 -0.288199156522750854 -0.119241409003734589
0.608623147010803223 0.145978137850761414 -0.245398730039596558
0.108489483594894409 -0.54878687858581543 -0.342723667621612549
0.282092243432998657 -0.240115001797676086 -0.47779276967048645
0.395890623331069946 -0.503727257251739502 -0.100382141768932343
0.535946667194366455 -0.419990986585617065 -0.0440623685717582703
0.220631211996078491 0.372454971075057983 0.406913787126541138
0.286546796560287476 0.523637592792510986 0.189815640449523926
0.30929216742515564 0.107119403779506683 -0.58358842134475708
0.348532348871231079 0.0197238046675920486 -0.631743848323822021
-0.0498454757034778595 -0.543192684650421143 -0.406961828470230103
0.195275455713272095 -0.165318384766578674 0.639406144618988037
0.0296798925846815109 0.647865653038024902 -0.322454482316970825
-0.556541562080383301 -0.245799541473388672 0.197658896446228027
0.505401492118835449 0.263522326946258545 -0.231076166033744812
-0.500024616718292236 -0.143285065889358521 -0.356690317392349243
0.812407732009887695 0.151377007365226746 -0.0362152643501758575
0.0929041430354118347 -0.420814007520675659 -0.486281841993331909
0.418345838785171509 0.335135012865066528 -0.246519163250923157
0.576917827129364014 -0.406974911689758301 0.0159427989274263382
0.601949036121368408 0.248499125242233276 0.149551808834075928
0.716060459613800049 0.241633564233779907 -0.0423059649765491486
-0.43688163161277771 -0.481813639402389526 0.0813047140836715698
0.272793024778366089 -0.346601009368896484 -0.380605965852737427
0.267986148595809937 0.536362290382385254 0.195651546120643616
-0.575669646263122559 0.245997026562690735 -0.178333312273025513
-0.658555507659912109 0.256875157356262207 -0.0845693722367286682
-0.208986073732376099 -0.412382215261459351 0.378631711006164551
0.334157764911651611 -0.434502929449081421 -0.231339305639266968
0.655555129051208496 0.27912294864654541 -0.0653219446539878845
0.583846092224121094 0.0872558876872062683 -0.328898042440414429
-0.461924314498901367 0.219690427184104919 -0.318385273218154907
-0.259480535984039307 0.367443680763244629 0.373075753450393677
-0.139615043997764587 -0.631115615367889404 -0.229269340634346008
0.373276412487030029 0.0311692394316196442 0.595554351806640625
-0.159161850810050964 0.625032484531402588 -0.215805649757385254
-0.0936476364731788635 -0.457099735736846924 -0.449252605438232422
-0.354472041130065918 0.292281061410903931 -0.353246897459030151
-0.767071008682250977 -0.0197933055460453033 -0.213135689496994019
0.00894761178642511368 -0.531095147132873535 0.459957212209701538
0.168983817100524902 0.060808379203081131 -0.770207822322845459
0.0388535484671592712 -0.376911133527755737 -0.584235310554504395
-0.214011043310165405 0.0576379485428333282 -0.728350996971130371
-0.2851848304271698 0.122085593640804291 -0.592729568481445312
0.69748002290725708 0.27924618124961853 0.0232737995684146881
0.433883249759674072 -0.220866411924362183 0.345250338315963745
-0.564619362354278564 0.280306577682495117 -0.155074074864387512
0.537126719951629639 -0.220089524984359741 -0.242783784866333008
0.385854601860046387 -0.506241023540496826 0.107904404401779175
0.194606155157089233 -0.164788186550140381 -0.640605628490447998
-0.165529608726501465 -0.788560330867767334 0.0459100678563117981
-0.03022785484790802 -0.486721575260162354 -0.483050554990768433
-0.703583896160125732 0.0692542046308517456 -0.227161899209022522
0.354110866785049438 0.230305120348930359 -0.415584027767181396
-0.0036784694530069828 -0.493157863616943359 -0.503163695335388184
-0.101329810917377472 0.0917989611625671387 0.806871235370635986
0.127332195639610291 -0.222287386655807495 0.650380432605743408
0.083897031843662262 0.111442998051643372 -0.80465996265411377
0.636092543601989746 -0.300636708736419678 -0.0632707402110099792
-0.0323306955397129059 -0.309011340141296387 -0.658657968044281006
-0.515468001365661621 0.132221341133117676 -0.352310657501220703
-0.724192917346954346 -0.105085901916027069 0.170721173286437988
0.579138636589050293 -0.38297465443611145 0.0378867089748382568
0.225705608725547791 -0.696664154529571533 0.0776302143931388855
0.352029263973236084 0.0179377775639295578 0.630032956600189209
-0.044383317232131958 0.428795963525772095 0.526820719242095947
-0.814441323280334473 0.118408732116222382 -0.0671499371528625488
-0.033298347145318985 0.328841686248779297 -0.637859940528869629
0.587869167327880859 -0.0373201780021190643 -0.374810665845870972
0.779083788394927979 -0.168904796242713928 -0.0520114190876483917
0.225151330232620239 0.305251419544219971 0.46959725022315979
-0.47061687707901001 -0.204972878098487854 -0.32441025972366333
-0.0255264360457658768 0.52015984058380127 -0.454313755035400391
0.593747854232788086 0.00524325529113411903 -0.401008903980255127
-0.192226648330688477 -0.530790507793426514 0.27698284387588501
-0.0434868112206459045 -0.67301630973815918 0.283496886491775513
-0.491384208202362061 -0.00186090834904462099 0.504248261451721191
-0.000289118877844884992 -0.713153958320617676 0.285702049732208252
-0.44401279091835022 0.34291502833366394 -0.21307218074798584
0.171855613589286804 0.27314487099647522 -0.55499953031539917
-0.592631042003631592 0.29770660400390625 0.109662324190139771
0.409573256969451904 0.0795134752988815308 0.510913252830505371
0.879857897758483887 0.0162380058318376541 -0.103904098272323608
0.166887819766998291 0.469911932945251465 0.363200247287750244
0.126941174268722534 0.729088127613067627 -0.143970683217048645
-0.395500242710113525 -0.517180085182189941 0.0873196870088577271
-0.0268314220011234283 -0.0847376808524131775 -0.888430893421173096
0.0995520874857902527 0.242908909916877747 -0.657539010047912598
0.174829751253128052 -0.0104974554851651192 -0.814672768115997314
-0.554955720901489258 0.300871819257736206 -0.144172444939613342
0.306923776865005493 0.0867523103952407837 0.606323897838592529
0.483452588319778442 0.347341835498809814 0.169205576181411743
0.418007165193557739 -0.326708137989044189 0.255284696817398071
0.308397829532623291 0.198961228132247925 -0.492640942335128784
0.158599048852920532 -0.194284021854400635 -0.647116959095001221
-0.230454280972480774 0.107008203864097595 0.662537515163421631
-0.413743138313293457 -0.540992379188537598 0.0452644862234592438
0.689696133136749268 -0.241184279322624207 -0.0691196098923683167
-0.357452362775802612 -0.568850994110107422 0.073696628212928772
-0.118795529007911682 -0.0221641119569540024 0.859040379524230957
-0.457243144512176514 0.395650744438171387 0.147106125950813293
0.539944350719451904 0.410966247320175171 -0.0490893982350826263
-0.144178569316864014 0.492354691028594971 -0.363466739654541016
-0.0373693108558654785 -0.310752809047698975 -0.651877880096435547
0.834981560707092285 -0.0605123862624168396 -0.104506082832813263
0.0938313603401184082 -0.0191531740128993988 -0.887015461921691895
-0.195331588387489319 0.754372000694274902 0.0502963997423648834
-0.18890264630317688 -0.466207146644592285 0.344890207052230835
-0.0758622512221336365 -0.79907989501953125 -0.125057831406593323
0.173661157488822937 0.721037745475769043 0.105301082134246826
-0.222539350390434265 0.26316601037979126 0.514294624328613281
0.221494987607002258 0.742839336395263672 0.0356657058000564575
-0.69367140531539917 -0.162149280309677124 -0.144179299473762512
0.470000594854354858 -0.0493189692497253418 -0.4806804358959198
0.107749998569488525 0.0020082094706594944 0.890241801738739014
0.149737223982810974 0.36046898365020752 0.489793777465820312
0.694748759269714355 -0.219386249780654907 -0.085865020751953125
0.284956783056259155 0.110031783580780029 -0.605011403560638428
-0.00171488919295370579 -0.935518741607666016 0.0610449574887752533
0.45462760329246521 -0.525878548622131348 -0.0194938499480485916
-0.131118625402450562 0.607390165328979492 -0.261491239070892334
-0.158553078770637512 -0.00898576807230710983 -0.832461178302764893
-0.351983398199081421 0.0127252079546451569 0.635291397571563721
0.150695741176605225 -0.100726917386054993 0.748577356338500977
-0.130338504910469055 0.687463104724884033 0.182198420166969299
-0.735038995742797852 0.2196979820728302 0.0452630333602428436
0.681544959545135498 -0.00169719860423356295 -0.316757857799530029
-0.625771760940551758 0.219921499490737915 -0.154306769371032715
0.619306564331054688 0.238484010100364685 -0.142209425568580627
-0.40694427490234375 0.303112775087356567 0.289942950010299683
-0.0885995253920555115 -0.828173041343688965 -0.0832274109125137329
0.386829495429992676 -0.00840592849999666214 -0.604764580726623535
-0.00679058162495493889 0.0200740527361631393 0.97313535213470459
-0.00268295640125870705 -0.110800057649612427 -0.886516988277435303
-0.128152623772621155 -0.322392433881759644 0.549454927444458008
0.0173670966178178787 0.0944599136710166931 0.88817298412322998
-0.403444468975067139 0.307887732982635498 -0.288667798042297363
-0.0235520713031291962 0.0413876175880432129 -0.935060322284698486
-0.0259462054818868637 -0.914012730121612549 -0.0600410588085651398
-0.242209956049919128 0.569957256317138672 -0.187832757830619812
-0.228610619902610779 -0.576147139072418213 -0.195242226123809814
-0.0456154048442840576 0.778398454189300537 -0.175986155867576599
-0.0643107965588569641 0.846038103103637695 0.0896510854363441467
-0.0632095783948898315 -0.336990386247634888 -0.599800050258636475
-0.143031075596809387 0.080708034336566925 0.776260912418365479
0.0242491811513900757 -0.390375316143035889 -0.585375487804412842
0.497562974691390991 0.0421796925365924835 -0.46025732159614563
-0.250557363033294678 -0.411072492599487305 -0.338370144367218018
0.749031782150268555 -0.0597149096429347992 -0.191253304481506348
-0.574553489685058594 0.292067229747772217 0.133379295468330383
-0.627149879932403564 -0.250709980726242065 -0.122140109539031982
0.0180831346660852432 0.415715843439102173 0.56620103120803833
0.390154540538787842 -0.493892401456832886 -0.115953058004379272
-0.353186875581741333 -0.488920897245407104 -0.157892227172851562
-0.378287136554718018 -0.561900198459625244 -0.0598126761615276337
0.547240793704986572 0.431954175233840942 -0.0208050422370433807
-0.606992661952972412 0.382311522960662842 0.0069039161317050457
-0.0582769587635993958 -0.377231866121292114 -0.564491152763366699
0.146270766854286194 0.103738598525524139 -0.749990642070770264
-0.768166482448577881 0.0789483487606048584 -0.152885138988494873
0.0127962091937661171 0.390008300542831421 0.59719550609588623
-0.0251211840659379959 -0.781397759914398193 0.193481028079986572
-0.332520008087158203 -0.592020809650421143 -0.0754591897130012512
0.316725552082061768 -0.164850100874900818 -0.518424391746520996
0.111879996955394745 0.871465206146240234 0.0166548099368810654
-0.089217066764831543 -0.584082961082458496 -0.326699972152709961
-0.165533319115638733 0.82594066858291626 0.00327959610149264336
-0.257702171802520752 0.156112641096115112 -0.586185157299041748
0.0750865116715431213 -0.460797369480133057 0.464116126298904419
0.741000533103942871 -0.242880567908287048 -0.0161188766360282898
0.207060500979423523 0.465975165367126465 -0.326964318752288818
-0.362134933471679688 0.378979802131652832 -0.25888526439666748
-0.106524787843227386 -0.557188928127288818 0.336286276578903198
0.602598726749420166 0.257757961750030518 -0.139643281698226929
0.15010388195514679 0.41428104043006897 -0.435615062713623047
0.609872639179229736 -0.132137730717658997 0.257989615201950073
0.566454827785491943 -0.149626418948173523 -0.283918768167495728
-0.0229481197893619537 0.439910143613815308 0.537141740322113037
-0.0410918369889259338 0.698203146457672119 0.260705024003982544
0.39056849479675293 -0.346804231405258179 0.262627243995666504
0.504810988903045654 -0.0788172557950019836 0.416371732950210571
0.205548346042633057 -0.173250705003738403 -0.621200978755950928
-0.927128851413726807 0.0296537727117538452 -0.0432173945009708405
-0.72788470983505249 -0.0499715767800807953 0.222143709659576416
0.523146331310272217 0.292160958051681519 -0.184692695736885071
0.37719389796257019 -0.501547753810882568 0.12125832587480545
0.036325506865978241 0.902293860912322998 0.0613806582987308502
-0.265421271324157715 0.0231757182627916336 0.711403012275695801
0.111590176820755005 -0.652535438537597656 0.235874384641647339
0.0350138731300830841 -0.711544454097747803 -0.253441691398620605
-0.603822648525238037 0.343833237886428833 -0.0523441433906555176
-0.303746670484542847 -0.41370043158531189 0.282552897930145264
-0.184875398874282837 0.196241185069084167 -0.618883430957794189
0.106682874262332916 0.551510155200958252 -0.341806977987289429
0.0953317657113075256 -0.702699840068817139 0.201968416571617126
0.0232355594635009766 0.860096752643585205 -0.116667717695236206
-0.424443542957305908 0.51676410436630249 0.0587923750281333923
0.476699352264404297 -0.305884361267089844 0.217416286468505859
0.190919220447540283 -0.657982289791107178 -0.151098474860191345
0.185320213437080383 0.49741518497467041 -0.3172646164894104
-0.4027976393699646 0.293448060750961304 -0.303754299879074097
-0.800929248332977295 0.0774497166275978088 -0.121621005237102509
0.323804020881652832 0.5306282639503479 -0.145567700266838074
-0.707185685634613037 -0.208909794688224792 -0.0839045047760009766
0.466417372226715088 -0.132074758410453796 -0.40150788426399231
-0.123910941183567047 0.241400808095932007 0.634688258171081543
0.306960463523864746 -0.667544305324554443 0.0254952237010002136
0.52075427770614624 -0.0506758503615856171 -0.428569912910461426
-0.297440856695175171 0.552882909774780273 0.14967624843120575
-0.0871583521366119385 -0.574725925922393799 0.33811575174331665
0.436553299427032471 -0.554579854011535645 0.00384889240376651287
-0.0290261190384626389 0.299268037080764771 0.671705842018127441
-0.199643820524215698 -0.208479449152946472 -0.591876745223999023
0.106522046029567719 -0.371097654104232788 -0.522380292415618896
0.021178102120757103 0.366333514451980591 -0.612488389015197754
0.396939307451248169 -0.587276458740234375 -0.0157842375338077545
-0.324557602405548096 0.248363405466079712 -0.42707902193069458
0.0697455704212188721 -0.629873156547546387 0.300381273031234741
0.0045403502881526947 -0.617867827415466309 -0.376712918281555176
-0.706603705883026123 0.10115358978509903 0.19224269688129425
0.0175826419144868851 -0.496689558029174805 -0.485727816820144653
0.321976721286773682 -0.398358792066574097 -0.279664486646652222
-0.305549740791320801 0.136594280600547791 -0.557855963706970215
0.0179972723126411438 -0.889073729515075684 0.0929290130734443665
-0.0812245681881904602 0.219561219215393066 0.69921422004699707
0.237812608480453491 0.607664167881011963 0.154523223638534546
0.144796580076217651 0.621403872966766357 -0.233799517154693604
0.423653841018676758 0.45544084906578064 0.120905295014381409
-0.270606398582458496 0.302827566862106323 -0.426566034555435181
-0.176456227898597717 0.38857540488243103 -0.434968382120132446
-0.185426861047744751 -0.788670122623443604 0.0259029939770698547
0.672198235988616943 0.0902426168322563171 -0.237559124827384949
0.54702681303024292 0.13082084059715271 -0.322152316570281982
-0.248589128255844116 -0.341083049774169922 -0.410327821969985962
-0.698427557945251465 0.185029923915863037 -0.116542503237724304
-0.161096066236495972 0.25563088059425354 0.583273053169250488
0.250746846199035645 -0.0505775511264801025 -0.698675572872161865
-0.476934313774108887 0.480029791593551636 -0.0430359020829200745
-0.454255044460296631 -0.360861063003540039 -0.18488389253616333
-0.562431871891021729 0.122670374810695648 0.314897775650024414
0.391333341598510742 -0.408096551895141602 -0.200570091605186462
0.597083866596221924 0.0444337129592895508 0.358482420444488525
0.273470193147659302 -0.477984964847564697 0.248544856905937195
-0.256234258413314819 -0.18757331371307373 -0.556192398071289062
0.264266848564147949 -0.169720232486724854 -0.566012918949127197
0.130251690745353699 -0.354922503232955933 -0.514825761318206787
0.53393787145614624 0.305879920721054077 -0.160182207822799683
0.0472390502691268921 -0.919785439968109131 -0.0329754874110221863
-0.639988183975219727 0.327709048986434937 -0.03230275958776474
-0.0587747320532798767 -0.194791197776794434 -0.74643409252166748
0.403228104114532471 0.264284014701843262 0.332487881183624268
-0.270607054233551025 0.159304305911064148 -0.570088624954223633
0.041056755930185318 -0.819260776042938232 -0.139682501554489136
-0.401519715785980225 -0.202067390084266663 0.396412879228591919
0.332496702671051025 0.360954403877258301 0.306548893451690674
-0.0527354441583156586 -0.348500490188598633 0.59876406192779541
0.420924365520477295 -0.320694535970687866 -0.258381098508834839
-0.118099451065063477 0.179585009813308716 -0.70231550931930542
0.0076388590969145298 0.776831865310668945 -0.215529263019561768
-0.068516075611114502 -0.749820053577423096 -0.181663870811462402
0.400466293096542358 0.24052998423576355 -0.359003722667694092
-0.23909720778465271 0.731903135776519775 -0.0289996415376663208
-0.0197564978152513504 0.485047966241836548 -0.495195537805557251
0.538435041904449463 -0.24773290753364563 0.213832035660743713
-0.262242108583450317 -0.0446448475122451782 -0.693113029003143311
0.381125360727310181 -0.572403967380523682 -0.0464706569910049438
0.234361231327056885 -0.569729447364807129 -0.195909321308135986
-0.0141278207302093506 -0.0589646138250827789 -0.926907539367675781
0.47201046347618103 -0.0966489687561988831 -0.431340575218200684
-0.27882087230682373 -0.218876942992210388 -0.502302169799804688
-0.27001073956489563 0.262009263038635254 0.467979997396469116
0.0179734528064727783 -0.364924103021621704 -0.617102444171905518
0.397035270929336548 -0.242833882570266724 0.360130846500396729
-0.162264734506607056 -0.544521152973175049 -0.293214082717895508
0.262924551963806152 0.0722853168845176697 0.664790153503417969
0.208201870322227478 0.332764536142349243 -0.459033608436584473
-0.717460334300994873 -0.203567713499069214 0.07897195965051651
-0.296569764614105225 0.418602317571640015 -0.284827947616577148
0.273742944002151489 -0.0107478220015764236 0.715509235858917236
0.2426728755235672 -0.0683582425117492676 0.688968896865844727
-0.684364855289459229 0.0949370265007019043 0.220698133111000061
-0.12284541130065918 0.584079086780548096 -0.293075501918792725
0.239542439579963684 -0.737441480159759521 0.0230160895735025406
-0.383833974599838257 0.0185777992010116577 -0.597588241100311279
0.391351789236068726 -0.0675427690148353577 0.541105449199676514
0.345262974500656128 -0.630695641040802002 0.0240413732826709747
0.479097634553909302 -0.0236834026873111725 0.497218966484069824
-0.146012306213378906 0.348665416240692139 -0.505322277545928955
0.075715087354183197 -0.256537377834320068 -0.66774749755859375
0.432999372482299805 0.407270282506942749 0.15973035991191864
0.533613204956054688 -0.249401062726974487 0.216985732316970825
-0.265901714563369751 -0.188781902194023132 -0.545316398143768311
-0.0162710696458816528 0.848653912544250488 -0.134627535939216614
0.0925745740532875061 0.354848623275756836 -0.552576839923858643
-0.394226551055908203 -0.062472611665725708 0.543300867080688477
-0.103267565369606018 -0.00709204142913222313 -0.889640390872955322
0.0320951491594314575 0.282507061958312988 0.685397803783416748
0.125021383166313171 0.490794569253921509 -0.384184062480926514
-0.240783438086509705 -0.71522676944732666 -0.0439897961914539337
-0.414234966039657593 0.112570449709892273 -0.473194599151611328
-0.596127092838287354 0.351870507001876831 -0.0520023927092552185
-0.173753470182418823 -0.636371731758117676 0.189874783158302307
-0.118811391294002533 0.137425616383552551 -0.743762969970703125
0.178366154432296753 0.62788313627243042 -0.193750739097595215
-0.0475414842367172241 -0.77328646183013916 -0.179172053933143616
0.119110621511936188 -0.772804379463195801 -0.108084999024868011
-0.299462854862213135 -0.364466071128845215 -0.336071044206619263
-0.460160791873931885 -0.259812682867050171 -0.280026495456695557
0.654343366622924805 -0.252500414848327637 -0.0931562110781669617
0.151619911193847656 -0.30748140811920166 -0.540898680686950684
0.00267315260134637356 -0.551443517208099365 -0.445883333683013916
-0.260533928871154785 0.477840334177017212 -0.261625736951828003
-0.0845180153846740723 0.785297751426696777 -0.13018423318862915
0.550607085227966309 0.306367754936218262 -0.14302515983581543
0.818844497203826904 -0.140599042177200317 -0.0405564568936824799
0.206537306308746338 0.702812790870666504 -0.090649925172328949
0.00625519035384058952 0.76191943883895874 0.230989947915077209
-0.192320078611373901 -0.20861169695854187 -0.599068224430084229
-0.848512351512908936 0.0422827303409576416 -0.109204933047294617
-0.578108727931976318 -0.195525571703910828 -0.226365700364112854
-0.369363367557525635 0.421117484569549561 0.209519162774085999
-0.0741631537675857544 -0.881544768810272217 -0.044292103499174118
0.207215845584869385 0.340526372194290161 -0.452257812023162842
0.0250394605100154877 -0.273949861526489258 0.701010704040527344
-0.442516177892684937 -0.342261821031570435 -0.215222015976905823
-0.0977112948894500732 0.612469077110290527 0.289819628000259399
-0.346738815307617188 -0.430007070302963257 -0.223254084587097168
0.104677401483058929 -0.316009312868118286 0.579313278198242188
-0.193377256393432617 -0.600783884525299072 -0.205838873982429504
0.646536409854888916 0.237360134720802307 -0.116103455424308777
-0.717370688915252686 -0.00537495221942663193 -0.277254343032836914
0.396434426307678223 -0.515633165836334229 -0.0879324153065681458
-0.1393328458070755 0.536390364170074463 0.324276775121688843
-0.222640544176101685 0.679343521595001221 0.0980159193277359009
-0.43164747953414917 -0.468566656112670898 -0.0997858643531799316
0.149549424648284912 -0.657624483108520508 -0.192826077342033386
-0.27678978443145752 -0.089137345552444458 -0.634072840213775635
0.218155637383460999 -0.254054754972457886 -0.527789592742919922
0.0492041520774364471 -0.567290008068084717 -0.383505851030349731
0.0868250578641891479 -0.40068429708480835 -0.512490630149841309
-0.109605558216571808 0.0287959035485982895 -0.861598551273345947
0.810831665992736816 -0.100216574966907501 -0.0889517515897750854
0.024494953453540802 0.323262155055999756 0.652242898941040039
-0.380757123231887817 -0.0652132928371429443 -0.554029583930969238
0.709241151809692383 0.204187095165252686 -0.0865717232227325439
-0.531342983245849609 -0.0711758881807327271 0.397481083869934082
0.695938825607299805 0.106922447681427002 -0.197138741612434387
0.291310518980026245 0.151160597801208496 -0.557528853416442871
-0.00282737310044467449 0.915768265724182129 -0.081404365599155426
-0.0631726309657096863 0.912286221981048584 -0.0245411302894353867
-0.014079422689974308 0.105462737381458282 -0.880457818508148193
-0.0897652208805084229 0.903849363327026367 -0.000295881094643846154
-0.147642344236373901 0.351276665925979614 -0.501080989837646484
-0.490646630525588989 0.262156069278717041 -0.247197315096855164
0.101333804428577423 -0.118502147495746613 -0.780164062976837158
0.582895100116729736 -0.120305374264717102 -0.296799510717391968
-0.356426835060119629 -0.412496984004974365 -0.231076180934906006
-0.16995750367641449 0.309497267007827759 -0.520545244216918945
0.208126157522201538 -0.532434940338134766 -0.259438902139663696
0.135879069566726685 0.465045034885406494 -0.399075895547866821
0.809869170188903809 -0.0219551045447587967 -0.168175742030143738
-0.484673053026199341 0.24139249324798584 0.273934453725814819
-0.20682854950428009 -0.361403286457061768 -0.431768178939819336
0.237158685922622681 0.709762215614318848 -0.0530790798366069794
-0.43555915355682373 0.267760366201400757 -0.296680480241775513
0.767757534980773926 0.0242901500314474106 -0.207952305674552917
-0.303796708583831787 0.380505919456481934 -0.315697371959686279
0.575953781604766846 0.0916281640529632568 -0.332418054342269897
-0.306299954652786255 -0.458304047584533691 -0.235395997762680054
0.44518202543258667 -0.50246429443359375 0.0523536913096904755
0.429793655872344971 -0.235750526189804077 -0.334455817937850952
-0.758391857147216797 0.0835559740662574768 -0.158052161335945129
0.227942332625389099 -0.530124247074127197 -0.241933420300483704
-0.731193006038665771 -0.171751350164413452 -0.0970556363463401794
-0.0528952963650226593 0.422051101922988892 0.525053620338439941
-0.495648682117462158 0.312064141035079956 -0.192287161946296692
-0.26557844877243042 -0.4585915207862854 -0.27583003044128418
0.0918672233819961548 -0.191207841038703918 -0.716924965381622314
-0.6976357102394104 -0.0884996578097343445 0.213864609599113464
0.220977544784545898 0.384711772203445435 0.394310683012008667
-0.435796201229095459 0.51740187406539917 0.0468019284307956696
-0.223543599247932434 0.120930537581443787 0.655525863170623779
0.539116919040679932 -0.000649451802019029856 -0.456930309534072876
0.380838692188262939 -0.404189318418502808 -0.214972004294395447
0.0721959993243217468 0.018021855503320694 0.909782171249389648
0.876605749130249023 -0.118516162037849426 -0.002813675906509161
0.00579450372606515884 0.690633535385131836 -0.302939265966415405
0.344288825988769531 0.0549773126840591431 -0.60073387622833252
0.0798921361565589905 -0.446653127670288086 -0.473454743623733521
0.315700739622116089 -0.218834608793258667 0.465464651584625244
-0.49496796727180481 -0.346734672784805298 0.158297359943389893
0.617054104804992676 0.246309876441955566 -0.136636003851890564
0.0432280488312244415 0.857768237590789795 -0.0990037098526954651
-0.735686242580413818 0.0102632921189069748 -0.254050463438034058
-0.810990989208221436 -0.152186021208763123 0.0368230193853378296
-0.0189551394432783127 0.246589586138725281 -0.734455287456512451
0.183036983013153076 -0.0822382718324661255 -0.734724760055541992
-0.884793341159820557 -0.00463424436748027802 -0.110572390258312225
-0.454961478710174561 -0.123883597552776337 -0.421154916286468506
-0.172751739621162415 0.459502130746841431 0.367746144533157349
0.398031175136566162 0.560750365257263184 -0.0412184819579124451
-0.259248167276382446 -0.572838366031646729 -0.167913496494293213
0.406618714332580566 0.0767454579472541809 -0.51663583517074585
-0.521337985992431641 -0.361530303955078125 0.117131739854812622
-0.437887966632843018 0.556920111179351807 -0.00228948937729001045
-0.823816359043121338 -0.133369907736778259 -0.0428137518465518951
0.131352707743644714 -0.468312382698059082 -0.400334924459457397
0.202149778604507446 -0.610209405422210693 0.187640845775604248
0.231820285320281982 -0.241448462009429932 -0.526731252670288086
-0.34438970685005188 0.579821884632110596 -0.0757883787155151367
-0.315987855195999146 -0.639619827270507812 -0.0443923063576221466
-0.26573258638381958 -0.376528114080429077 -0.357739269733428955
0.470535606145858765 0.13898274302482605 -0.390481650829315186
0.709509015083312988 0.244934752583503723 -0.0455562286078929901
0.0801136568188667297 0.443129777908325195 -0.476756542921066284
0.550210535526275635 0.443109899759292603 -0.00667953211814165115
-0.50414431095123291 0.354021579027175903 0.141834139823913574
0.246128112077713013 -0.132027506828308105 -0.621844351291656494
-0.07531728595495224 0.493244379758834839 -0.431438356637954712
0.672742128372192383 0.223868966102600098 0.10338892787694931
0.856485366821289062 -0.123413428664207458 -0.0201011784374713898
0.435619115829467773 0.528658747673034668 -0.0357221253216266632
-0.386786907911300659 0.0661205276846885681 -0.547092556953430176
0.0207850728183984756 -0.882309496402740479 -0.0969054549932479858
-0.0171055980026721954 0.283969014883041382 0.698925375938415527
0.756617844104766846 -0.0727657303214073181 -0.170616403222084045
0.422984898090362549 -0.14400145411491394 -0.433013647794723511
0.0470491163432598114 -0.308731704950332642 -0.644219160079956055
0.574745357036590576 0.262845516204833984 0.162409096956253052
-0.218184158205986023 0.712453186511993408 -0.069362640380859375
0.013508625328540802 0.729035615921020508 -0.257035821676254272
-0.722649931907653809 0.200570553541183472 -0.0767794996500015259
-0.606548011302947998 0.287107706069946289 -0.106344304978847504
0.0787458866834640503 -0.762257277965545654 -0.158996835350990295
0.2124166339635849 0.338763326406478882 -0.448820054531097412
0.364439457654953003 -0.501982629299163818 -0.133577913045883179
0.828920960426330566 0.00781052839010953903 -0.160896316170692444
-0.0601919591426849365 -0.816752731800079346 -0.123055294156074524
-0.160711571574211121 0.107702888548374176 0.731585562229156494
-0.536791086196899414 0.28970000147819519 -0.173508927226066589
-0.240081533789634705 -0.388972759246826172 0.370945721864700317
-0.676923394203186035 -0.115273080766201019 -0.207803502678871155
-0.00987000204622745514 -0.469126492738723755 0.521003484725952148
0.572980523109436035 -0.321462243795394897 -0.105557210743427277
-0.346368581056594849 -0.43800508975982666 -0.215626344084739685
0.470431387424468994 -0.133084088563919067 -0.396484524011611938
-0.832207441329956055 0.119487062096595764 -0.0483054704964160919
0.412760466337203979 -0.410306870937347412 -0.176932662725448608
-0.517256081104278564 0.0476908124983310699 0.435053080320358276
0.618027687072753906 -0.277341544628143311 -0.104630790650844574
0.137408718466758728 0.475994706153869629 -0.386596560478210449
0.576521754264831543 -0.177411898970603943 -0.246066361665725708
-0.314587891101837158 0.180198565125465393 -0.505213558673858643
0.526657402515411377 0.087205447256565094 -0.386137187480926514
0.261527389287948608 -0.310874909162521362 -0.427597701549530029
0.130770072340965271 0.114586785435676575 0.754643142223358154
0.658196866512298584 -0.155807852745056152 -0.185995280742645264
0.107351712882518768 -0.853357255458831787 -0.039291035383939743
-0.159844115376472473 0.187256574630737305 0.652899324893951416
0.114778749644756317 -0.698968231678009033 0.186252996325492859
0.0392926633358001709 -0.212432131171226501 -0.748275220394134521
0.303631633520126343 0.451999425888061523 0.244368955492973328
-0.175831392407417297 -0.692267715930938721 0.131900906562805176
0.441639363765716553 0.291174083948135376 -0.267186552286148071
0.114779874682426453 -0.215841218829154968 0.669378936290740967
-0.327906817197799683 -0.00682574557140469551 -0.665267407894134521
0.225430086255073547 0.167271032929420471 -0.607298851013183594
-0.727906763553619385 0.0699255689978599548 -0.202167659997940063
0.16263696551322937 0.204660534858703613 0.632702469825744629
0.079926617443561554 0.0981784537434577942 -0.821894943714141846
0.474074453115463257 0.258342832326889038 -0.267582714557647705
0.360301792621612549 -0.0217211488634347916 0.6179770827293396
0.0140035757794976234 -0.656213819980621338 0.329782605171203613
-0.0478618666529655457 0.28808128833770752 0.664056837558746338
0.122926421463489532 0.666864931583404541 0.210208669304847717
0.171229049563407898 -0.479900270700454712 -0.348870694637298584
0.904973924160003662 -0.0805929005146026611 -0.0144331790506839752
0.196114212274551392 0.110257074236869812 0.69362872838973999
-0.216687873005867004 -0.566942095756530762 0.216370031237602234
0.0451586432754993439 0.584791660308837891 0.37004968523979187
-0.37855219841003418 -0.499125778675079346 -0.122322030365467072
-0.246797248721122742 -0.43383711576461792 -0.319365650415420532
0.539388060569763184 -0.0487190522253513336 -0.411892920732498169
-0.627286255359649658 0.343524754047393799 -0.0291889868676662445
-0.528258264064788818 -0.236646443605422974 -0.235095277428627014
-0.133575379848480225 0.764507830142974854 -0.101916782557964325
-0.773988604545593262 -0.220466151833534241 -0.00169924821238964796
0.113864168524742126 0.198603779077529907 -0.68753206729888916
0.5100821852684021 0.379927843809127808 0.109989948570728302
0.411899715662002563 -0.56414109468460083 -0.0239591803401708603
-0.0279919598251581192 0.0298192389309406281 0.942188799381256104
0.274955928325653076 0.0583240054547786713 -0.666720092296600342
-0.334310412406921387 -0.175920963287353516 -0.489768624305725098
0.255490124225616455 -0.20108206570148468 0.543427824974060059
0.518652021884918213 0.2188214510679245 -0.262526541948318481
0.230882719159126282 0.723306477069854736 -0.0458108074963092804
0.62003171443939209 -0.148466810584068298 0.231501445174217224
-0.581227600574493408 -0.373809307813644409 -0.0449630990624427795
-0.551071703433990479 0.109594248235225677 -0.339334070682525635
0.370914071798324585 0.428655713796615601 0.200430214405059814
-0.243469089269638062 0.166955173015594482 -0.589575707912445068
-0.533258259296417236 -0.436411172151565552 0.0303305909037590027
-0.800662517547607422 0.083903871476650238 0.115433640778064728
0.0226996429264545441 -0.80881798267364502 0.168482378125190735
0.464553415775299072 0.500939786434173584 -0.0345067642629146576
-0.271966904401779175 0.550554513931274414 -0.177478566765785217
0.0381407774984836578 -0.113319277763366699 0.848539948463439941
-0.726517677307128906 0.0864052176475524902 0.187077105045318604
-0.369362175464630127 0.327970325946807861 -0.302667498588562012
0.512999653816223145 0.00738508673384785652 -0.479615241289138794
0.1850605309009552 0.172964245080947876 -0.641975224018096924
0.306168735027313232 -0.115351945161819458 -0.578479349613189697
-0.416195333003997803 -0.345717847347259521 -0.238086819648742676
0.104011237621307373 -0.183421909809112549 -0.712566852569580078
-0.825675249099731445 -0.0150553826242685318 -0.159269362688064575
-0.289254218339920044 -0.257431894540786743 -0.453313887119293213
-0.311350792646408081 -0.49731135368347168 -0.191337853670120239
-0.0333429239690303802 -0.00665848748758435249 0.959998607635498047
0.362489283084869385 0.0154256643727421761 -0.622085034847259521
0.27748185396194458 0.0122904097661375999 0.710227727890014648
-0.153058573603630066 -0.465161055326461792 0.381780356168746948
0.260690897703170776 -0.0707188844680786133 -0.668590247631072998
0.18339616060256958 -0.748758554458618164 -0.0678452923893928528
-0.313931673765182495 0.0823715776205062866 -0.603696763515472412
0.754950165748596191 -0.0374400876462459564 0.20760972797870636
0.141252756118774414 -0.0948133543133735657 -0.763933897018432617
-0.234187185764312744 0.142537012696266174 -0.623275816440582275
0.42696768045425415 0.0829319655895233154 -0.490100383758544922
0.0966585204005241394 0.525218546390533447 -0.378122925758361816
-0.609568476676940918 -0.235479235649108887 -0.154952317476272583
-0.63488459587097168 0.155075833201408386 -0.210039570927619934
0.582534253597259521 -0.271514564752578735 -0.145951196551322937
-0.113039903342723846 -0.500792264938354492 0.386167854070663452
-0.184274047613143921 -0.231080695986747742 -0.584645271301269531
0.0454591065645217896 -0.865594327449798584 -0.0889465510845184326
-0.393589913845062256 0.263339877128601074 -0.34307020902633667
0.305726319551467896 -0.0664353296160697937 -0.627838373184204102
-0.000370435824152082205 -0.704419493675231934 -0.294528931379318237
-0.0744985789060592651 -0.0734769254922866821 -0.852024495601654053
0.819160282611846924 -0.0829652845859527588 -0.0978744179010391235
-0.278693675994873047 0.0404857993125915527 -0.6808205246925354
-0.345988094806671143 -0.0627446398138999939 -0.591267287731170654
-0.555182695388793945 -0.0597983896732330322 0.385018914937973022
0.497948557138442993 -0.074937090277671814 -0.427114367485046387
0.0467010773718357086 -0.920493900775909424 0.0328050293028354645
0.150299295783042908 -0.210115030407905579 0.639585673809051514
-0.459585219621658325 0.0471215434372425079 0.493293225765228271
-0.430294424295425415 0.48104405403137207 0.0886614993214607239
-0.263096839189529419 -0.517063617706298828 0.219839572906494141
-0.573584794998168945 -0.132547914981842041 -0.293867319822311401
-0.0691191107034683228 -0.358558028936386108 -0.572322845458984375
-0.282252222299575806 0.519533991813659668 -0.19821380078792572
0.150202363729476929 -0.530546009540557861 -0.319251656532287598
-0.663883626461029053 0.165048986673355103 -0.171067386865615845
-0.185478866100311279 0.637883543968200684 -0.176637604832649231
-0.0209234766662120819 -0.163803711533546448 -0.815272808074951172
0.0238047502934932709 0.169283971190452576 -0.806911289691925049
0.214505583047866821 -0.374449431896209717 -0.411044985055923462
0.0290373768657445908 -0.164666622877120972 0.806295990943908691
0.353448539972305298 -0.398526996374130249 -0.248024463653564453
-0.153131529688835144 0.189070776104927063 0.657797694206237793
-0.700669169425964355 -0.115130037069320679 -0.184200763702392578
0.673373162746429443 -0.307791680097579956 -0.0188351739197969437
-0.634407401084899902 -0.215001121163368225 -0.150591477751731873
0.255710721015930176 -0.0933975726366043091 -0.650891721248626709
-0.333537548780441284 -0.483898580074310303 -0.182563871145248413
0.369902938604354858 -0.595776021480560303 -0.0343210138380527496
0.189490973949432373 -0.547994613647460938 -0.262514412403106689
-0.144805386662483215 0.85302811861038208 -0.00216648494824767113
-0.808074116706848145 -0.00525801395997405052 -0.183419153094291687
-0.297794193029403687 0.269497931003570557 0.432707905769348145
-0.00645667361095547676 0.0238306261599063873 0.969712674617767334
-0.0730926245450973511 -0.866440117359161377 0.0604672543704509735
0.0545034743845462799 0.461413323879241943 0.484083175659179688
0.0405783727765083313 0.788162052631378174 -0.171259552240371704
0.760638594627380371 -0.0521597228944301605 0.187201708555221558
0.11493266373872757 -0.729959189891815186 0.155108168721199036
0.415382176637649536 -0.170991331338882446 0.413626521825790405
0.228991106152534485 -0.270859628915786743 -0.500149250030517578
-0.143626347184181213 -0.648323714733123779 -0.208049938082695007
0.298902690410614014 -0.2827892005443573 -0.418308138847351074
-0.0338937118649482727 -0.446807920932769775 -0.519298374652862549
-0.0101294312626123428 -0.595358073711395264 -0.394512474536895752
0.104904815554618835 -0.186306282877922058 -0.708788931369781494
0.121945574879646301 0.83185964822769165 -0.0461947731673717499
0.518718719482421875 0.210380882024765015 0.270900368690490723
0.234561145305633545 -0.182321518659591675 -0.583117365837097168
-0.352285265922546387 0.036967400461435318 0.610747337341308594
0.175339683890342712 0.179440498352050781 0.645219802856445312
0.463948041200637817 -0.480278283357620239 -0.0557736903429031372
0.295988857746124268 0.474083036184310913 0.229928106069564819
0.0523268133401870728 0.649588584899902344 0.298084616661071777
-0.347360432147979736 0.368105113506317139 -0.284534454345703125
0.583442747592926025 0.229102864861488342 0.187454387545585632
0.119069568812847137 -0.115349367260932922 -0.765581071376800537
-0.694002628326416016 -0.000604461238253861666 -0.301777094602584839
0.174869343638420105 -0.0617118440568447113 0.763418793678283691
0.600605785846710205 -0.103328533470630646 -0.296065717935562134
-0.684182941913604736 0.305176258087158203 -0.0106407850980758667
-0.015080675482749939 0.524100124835968018 -0.46081918478012085
0.667942047119140625 -0.148320436477661133 -0.183737501502037048
-0.184726104140281677 0.535358190536499023 -0.279915720224380493
0.634783685207366943 0.167663156986236572 -0.197553172707557678
0.46585509181022644 0.153183043003082275 0.380961865186691284
-0.752617180347442627 -0.00929570943117141724 0.238087087869644165
0.294365942478179932 0.226302772760391235 -0.479331284761428833
-0.325737237930297852 0.53689652681350708 -0.137366265058517456
-0.432534843683242798 0.466714948415756226 -0.100750192999839783
0.63975822925567627 0.0722293779253959656 -0.288012415170669556
-0.0563133656978607178 0.2210589200258255 -0.722627699375152588
0.16267608106136322 -0.627562940120697021 -0.209760993719100952
0.316507279872894287 -0.125776916742324829 0.557715773582458496
-0.56871110200881958 -0.424768745899200439 -0.00652016280218958855
0.101539649069309235 0.2684650719165802 0.629995286464691162
0.103959694504737854 -0.174784153699874878 0.721256136894226074
0.47354009747505188 -0.156746938824653625 0.369712948799133301
0.272362440824508667 0.601270735263824463 -0.12636682391166687
-0.0846228376030921936 -0.852501749992370605 0.0628754124045372009
0.00434559257701039314 -0.809568405151367188 -0.186086028814315796
-0.390118449926376343 0.0158395860344171524 -0.594041943550109863
0.916261434555053711 0.074977390468120575 -0.00876114983111619949
0.296942144632339478 -0.111309394240379333 -0.591748416423797607
0.481100857257843018 -0.334535479545593262 -0.184363663196563721
0.646767079830169678 0.281935602426528931 -0.0712973251938819885
-0.636470139026641846 0.312293201684951782 -0.0512366481125354767
0.566546440124511719 -0.182134956121444702 -0.251318603754043579
0.402938544750213623 0.23019486665725708 -0.366866588592529297
-0.191084414720535278 0.205229580402374268 0.603686034679412842
-0.077655009925365448 -0.858708322048187256 -0.0636366978287696838
0.267131119966506958 -0.296074092388153076 -0.436794787645339966
-0.435376167297363281 0.523822307586669922 0.0408015511929988861
-0.225021108984947205 -0.342218607664108276 0.432760298252105713
-0.066191457211971283 0.900312244892120361 0.0334962867200374603
-0.613960206508636475 -0.166655644774436951 -0.219384163618087769
0.0676981285214424133 -0.0027861881535500288 -0.929515659809112549
-0.759245336055755615 0.200453683733940125 -0.0403009653091430664
-0.276574015617370605 -0.147810429334640503 -0.575615525245666504
0.00402848375961184502 -0.0112362010404467583 -0.984735310077667236
0.162793353199958801 0.29092755913734436 -0.546279072761535645
-0.414118498563766479 0.214807823300361633 0.371073663234710693
-0.218913137912750244 -0.703546643257141113 0.0775402113795280457
0.420031875371932983 0.0472618825733661652 0.532706260681152344
0.116205982863903046 -0.203863739967346191 0.679930269718170166
0.753515481948852539 0.200527921319007874 -0.045956585556268692
-0.271834075450897217 0.431902647018432617 -0.296263277530670166
0.486448526382446289 -0.454082667827606201 -0.0594688057899475098
0.168627217411994934 0.00511005474254488945 0.826262712478637695
-0.345059722661972046 -0.123732678592205048 -0.531207621097564697
0.489976048469543457 -0.474684059619903564 -0.0353398807346820831
0.0195197835564613342 0.483208179473876953 0.49727204442024231
-0.176793307065963745 0.45761224627494812 -0.365594446659088135
0.0712662637233734131 -0.622741997241973877 -0.305991768836975098
-0.126313313841819763 -0.496004045009613037 -0.377682656049728394
0.0339226797223091125 -0.577647745609283447 -0.388429611921310425
0.111325480043888092 0.342196106910705566 0.546478390693664551
