ply
format ascii 1.0
element vertex 739
property float x
property float y
property float z
end_header
0.055632174015045166 -0.894351601600646973 -0.101726077497005463
-0.567717075347900391 -0.800831913948059082 -0.0140890283510088921
0.321203142404556274 -0.542894482612609863 0.366418123245239258
0.542689085006713867 0.712693154811859131 -0.100091554224491119
0.916503608226776123 0.0707032382488250732 0.0797075331211090088
-0.384699612855911255 -0.214205041527748108 0.557804226875305176
0.308815211057662964 -0.23395267128944397 0.611072957515716553
-0.54401695728302002 0.218165844678878784 -0.411390483379364014
0.728793799877166748 -0.651815176010131836 0.0192741286009550095
0.330987036228179932 -0.122235968708992004 0.646279335021972656
0.114935792982578278 0.877563416957855225 0.112547822296619415
-0.110305607318878174 0.791528046131134033 -0.198277890682220459
0.597311973571777344 0.512185990810394287 -0.20982871949672699
-0.764948129653930664 -0.537329435348510742 -0.0608559772372245789
0.0726758912205696106 0.568380832672119141 -0.424331873655319214
0.0803976282477378845 0.0426552407443523407 0.908567309379577637
-0.648063898086547852 0.657963573932647705 0.074626825749874115
-0.724305450916290283 0.677291572093963623 0.000465986784547567368
-0.193902537226676941 0.33315807580947876 -0.61391979455947876
0.0112193692475557327 -0.75772470235824585 -0.241043880581855774
0.462549537420272827 0.261738091707229614 -0.466304898262023926
0.955494105815887451 -0.0680222958326339722 -0.0379438921809196472
0.181918740272521973 -0.87418895959854126 -0.104117244482040405
-0.884686172008514404 -0.382833927869796753 -0.0315921083092689514
-0.624110996723175049 -0.634465217590332031 0.108201667666435242
0.196382895112037659 0.224810227751731873 -0.700993657112121582
0.874657630920410156 0.370749711990356445 -0.0486471392214298248
-0.0362929105758666992 -0.876543343067169189 0.118860676884651184
-0.346862971782684326 -0.629629671573638916 0.279760867357254028
-0.195643618702888489 0.380521208047866821 0.570290029048919678
0.519744277000427246 0.457849681377410889 0.30497133731842041
-0.778720736503601074 -0.416775733232498169 0.115135215222835541
-0.166987165808677673 0.435267716646194458 0.531714379787445068
0.594466865062713623 0.0715449601411819458 -0.398957252502441406
-0.536795735359191895 -0.293245077133178711 -0.387616753578186035
-0.454820752143859863 -0.866894721984863281 -0.0169272460043430328
0.41296049952507019 0.440343916416168213 -0.393587648868560791
-0.111917920410633087 -0.360484600067138672 -0.621166050434112549
0.153796330094337463 0.321418106555938721 0.642821371555328369
0.764554500579833984 -0.156450420618057251 -0.216179043054580688
0.789167404174804688 -0.156738683581352234 -0.192007392644882202
0.700756371021270752 0.370918780565261841 -0.205406039953231812
-0.224103540182113647 -0.279405653476715088 -0.640380024909973145
-0.127781659364700317 0.543602287769317627 0.439405173063278198
-0.248080208897590637 -0.517071664333343506 -0.425071775913238525
0.884357988834381104 0.0639529302716255188 -0.112670749425888062
-0.542549788951873779 0.0816591307520866394 0.44882500171661377
-0.177674859762191772 0.319041132926940918 0.633996307849884033
-0.130134657025337219 0.777709901332855225 -0.208096086978912354
0.895487129688262939 -0.410618603229522705 -0.0103707388043403625
0.24845653772354126 -0.289242208003997803 -0.617609202861785889
-0.0859757512807846069 0.783003866672515869 -0.208774104714393616
0.211274087429046631 0.366332024335861206 -0.576320111751556396
-0.661672770977020264 -0.521883904933929443 -0.154830470681190491
-0.502873778343200684 -0.341401249170303345 -0.389414101839065552
0.418779432773590088 0.0650891512632369995 -0.57527393102645874
-0.473732203245162964 0.798249602317810059 -0.0709642916917800903
-0.352510005235671997 0.41462823748588562 -0.454395830631256104
-0.756456732749938965 0.601088047027587891 -0.0314240194857120514
0.823568522930145264 -0.442178159952163696 -0.0621759146451950073
0.261481732130050659 -0.870292782783508301 -0.0909851416945457458
-0.190539330244064331 -0.200713992118835449 0.72272646427154541
0.22151125967502594 0.963773250579833984 0.000682289071846753359
-0.504348933696746826 -0.297722816467285156 0.413303792476654053
0.232200339436531067 -0.575566887855529785 -0.377711176872253418
-0.630124270915985107 0.59515380859375 -0.129387393593788147
-0.0615756623446941376 -0.802018225193023682 0.194258540868759155
0.549232840538024902 0.831183254718780518 -0.000759095069952309132
-0.52076113224029541 -0.711003601551055908 -0.114628113806247711
0.443367719650268555 0.870552539825439453 -0.0193716008216142654
-0.219719842076301575 0.64556962251663208 -0.315996378660202026
0.537006080150604248 -0.675642967224121094 -0.133427470922470093
0.618690192699432373 -0.725470960140228271 -0.0441356152296066284
0.253176301717758179 -0.152898341417312622 -0.702863693237304688
-0.736105978488922119 0.0667542591691017151 0.259252727031707764
0.528245508670806885 -0.250249117612838745 -0.415128320455551147
0.757653474807739258 0.368571996688842773 0.15713837742805481
0.1680745929479599 0.234972253441810608 -0.710794210433959961
0.457377433776855469 -0.146490931510925293 -0.519271254539489746
0.14236903190612793 0.157128065824508667 0.787943124771118164
0.109590142965316772 -0.498199999332427979 -0.487670719623565674
-0.765932619571685791 0.260115504264831543 -0.187607616186141968
0.116445206105709076 -0.317674547433853149 0.660246372222900391
0.335814684629440308 -0.219598591327667236 0.598677575588226318
-0.00234310445375740528 -0.852866232395172119 -0.145085752010345459
-0.602486550807952881 0.51236957311630249 -0.209067255258560181
0.239146053791046143 0.104925945401191711 -0.738231420516967773
-0.503791630268096924 0.173732638359069824 0.466537415981292725
0.145085662603378296 -0.165086284279823303 -0.779226899147033691
0.11639028787612915 0.0472127683460712433 0.874390304088592529
0.649832844734191895 -0.130482137203216553 -0.334348917007446289
-0.0878129899501800537 -0.273557513952255249 -0.712151527404785156
0.515425324440002441 -0.227630198001861572 -0.435126364231109619
-0.728742003440856934 0.0122033171355724335 0.267858117818832397
-0.699955463409423828 -0.635137617588043213 -0.0523720681667327881
0.345572203397750854 0.0457938909530639648 -0.650010108947753906
-0.603318214416503906 -0.612790465354919434 -0.138323456048965454
0.359707921743392944 -0.280899196863174438 0.542754471302032471
0.577151119709014893 -0.630587160587310791 0.141537338495254517
0.247863993048667908 -0.752639293670654297 -0.20392078161239624
0.863644182682037354 0.369174987077713013 0.0591887272894382477
-0.794616043567657471 -0.246001452207565308 -0.166715666651725769
-0.642482757568359375 -0.547736823558807373 0.155667990446090698
0.0176767725497484207 0.0907503142952919006 0.90730595588684082
0.502192437648773193 -0.369963347911834717 -0.375883519649505615
0.584528088569641113 0.372411131858825684 0.304308950901031494
0.351964205503463745 0.409548729658126831 -0.457490712404251099
0.39869612455368042 0.512042403221130371 -0.350358784198760986
-0.270008504390716553 0.896076798439025879 -0.0637598633766174316
0.836719870567321777 0.428113967180252075 -0.0557825490832328796
0.310750305652618408 0.669335901737213135 0.259545415639877319
0.422711491584777832 -0.0993451997637748718 -0.564840614795684814
0.142720967531204224 -0.345382899045944214 -0.624565482139587402
0.343025565147399902 -0.136337324976921082 -0.630653977394104004
0.0565675497055053711 0.664352595806121826 -0.330293446779251099
0.602925539016723633 0.192756861448287964 -0.364666134119033813
0.706110298633575439 -0.697878479957580566 -0.0062907002866268158
0.248253747820854187 0.711146295070648193 -0.245655402541160583
-0.370590507984161377 0.715328812599182129 -0.191127657890319824
-0.577670454978942871 -0.634444117546081543 -0.141860589385032654
-0.384019166231155396 0.50457465648651123 0.364690423011779785
-0.75828242301940918 -0.556809127330780029 0.0585643239319324493
0.152431339025497437 0.247947007417678833 0.70877540111541748
-0.314520835876464844 0.0916572287678718567 0.671659708023071289
0.71412193775177002 0.13065299391746521 0.27134251594543457
-0.648796677589416504 -0.644258379936218262 -0.0815970301628112793
0.0182841196656227112 -0.810339987277984619 -0.186393871903419495
-0.545782923698425293 0.796709954738616943 -0.0335204415023326874
-0.258119791746139526 0.751876533031463623 0.201401367783546448
0.406688004732131958 -0.37674066424369812 0.443081289529800415
0.55035024881362915 -0.594833076000213623 -0.186555266380310059
-0.562308132648468018 -0.328451246023178101 0.347884684801101685
0.552878022193908691 0.0211422480642795563 -0.444159924983978271
-0.296805292367935181 0.589482247829437256 -0.339164137840270996
-0.858610272407531738 -0.313805133104324341 -0.0833559930324554443
0.610334336757659912 0.43509209156036377 0.248071342706680298
-0.0678625255823135376 0.400833725929260254 0.593182086944580078
-0.0962290987372398376 0.849235296249389648 -0.144075170159339905
0.622376143932342529 0.135202392935752869 -0.361070901155471802
-0.376846343278884888 -0.0626494139432907104 -0.616211891174316406
-0.0982632264494895935 0.556979835033416748 0.432404577732086182
0.116769760847091675 -0.810902893543243408 -0.177930578589439392
-0.894861698150634766 -0.0894931405782699585 0.096504993736743927
0.0650131255388259888 0.769656181335449219 -0.224766761064529419
0.800028800964355469 -0.319398730993270874 -0.138178005814552307
-0.116549111902713776 -0.239538833498954773 -0.732858180999755859
-0.203628271818161011 0.0726559832692146301 -0.783113300800323486
0.165147483348846436 0.814872145652770996 -0.166034296154975891
-0.473877012729644775 -0.314439445734024048 0.43082815408706665
0.273607403039932251 -0.750744819641113281 0.19757746160030365
-0.92509615421295166 -0.227353036403656006 -0.043085344135761261
-0.654222249984741211 0.447200357913970947 0.203895583748817444
0.101375095546245575 0.892940819263458252 0.0982317551970481873
-0.462173312902450562 0.231640473008155823 0.48230290412902832
-0.310130536556243896 -0.937366902828216553 0.00604788213968276978
-0.647518336772918701 0.262118667364120483 -0.301437050104141235
-0.144016042351722717 -0.877260386943817139 -0.107261888682842255
-0.325124591588973999 -0.372476667165756226 -0.503329098224639893
0.489338546991348267 0.809428632259368896 0.0540427826344966888
0.675521373748779297 0.127154901623725891 0.309653699398040771
0.308879703283309937 0.742224276065826416 -0.192375555634498596
-0.551957190036773682 0.24238075315952301 -0.395502477884292603
-0.699575841426849365 -0.517262876033782959 0.129595503211021423
0.269216150045394897 0.422400742769241333 -0.497523367404937744
-0.121178001165390015 -0.544092953205108643 -0.442301064729690552
0.491295784711837769 -0.434252440929412842 0.341312527656555176
-0.642739295959472656 -0.688140869140625 -0.0541613176465034485
-0.339466989040374756 -0.733102500438690186 -0.189338251948356628
-0.829762160778045654 -0.392170757055282593 0.0816085338592529297
-0.729922711849212646 0.103776849806308746 0.259448826313018799
-0.1059679314494133 -0.159766197204589844 0.807402670383453369
0.971933364868164062 -0.00148492807056754827 -0.0279234051704406738
-0.892963409423828125 0.0521883741021156311 0.105032540857791901
-0.119495183229446411 -0.518063366413116455 -0.466102391481399536
-0.180508062243461609 -0.410308718681335449 0.549925386905670166
-0.360507309436798096 0.192769169807434082 0.590425252914428711
-0.778292179107666016 -0.428270131349563599 -0.108316637575626373
-0.209823191165924072 0.57091289758682251 -0.391725510358810425
-0.696401059627532959 -0.468230843544006348 -0.159711703658103943
-0.851735889911651611 -0.485787332057952881 0.0151081308722496033
0.097727552056312561 -0.804602682590484619 0.185743361711502075
-0.532364904880523682 -0.242220595479011536 -0.413258105516433716
-0.803195059299468994 -0.402233302593231201 -0.10048222541809082
0.0049968925304710865 0.195649817585945129 0.803441941738128662
-0.671470224857330322 -0.119879536330699921 -0.314838021993637085
0.229265496134757996 -0.620053231716156006 0.336224257946014404
0.203256413340568542 0.517331898212432861 0.443137198686599731
-0.344741076231002808 0.355049699544906616 -0.502822518348693848
0.544687867164611816 0.689917802810668945 -0.120578154921531677
-0.0406378358602523804 0.794838249683380127 -0.202806979417800903
0.349530518054962158 -0.0609177984297275543 -0.644032537937164307
0.743395566940307617 -0.0291565153747797012 -0.254475891590118408
-0.284080207347869873 0.356566756963729858 -0.542215824127197266
0.567748069763183594 0.226145029067993164 0.386469185352325439
-0.747613370418548584 -0.511498034000396729 -0.0899866595864295959
0.189874231815338135 -0.0945339873433113098 0.786947548389434814
0.511920154094696045 -0.290727376937866211 -0.411086022853851318
-0.531169533729553223 0.082895718514919281 0.461212277412414551
0.233254551887512207 0.434565842151641846 -0.506265521049499512
-0.304466187953948975 0.689878582954406738 -0.242784842848777771
0.317351758480072021 -0.548177838325500488 -0.364515721797943115
0.757201671600341797 0.446922719478607178 0.119202211499214172
0.935261845588684082 0.314475029706954956 0.00423633353784680367
0.506274759769439697 0.0451805815100669861 -0.490181446075439453
0.0853554084897041321 -0.656226694583892822 -0.335173815488815308
0.429627388715744019 -0.784248530864715576 -0.102862589061260223
-0.72192692756652832 -0.345082640647888184 0.199616387486457825
0.0345778316259384155 0.963902473449707031 -0.031622767448425293
0.938568532466888428 -0.294490933418273926 0.010610656812787056
0.214035689830780029 -0.796201229095458984 -0.171720102429389954
0.579960882663726807 0.224999874830245972 -0.375130504369735718
0.326273143291473389 -0.0330766811966896057 -0.671110272407531738
0.325464367866516113 -0.304623782634735107 -0.552686810493469238
-0.459946185350418091 0.195718422532081604 -0.497875571250915527
-0.398225665092468262 -0.0604566484689712524 -0.596441030502319336
-0.390536248683929443 -0.804881393909454346 -0.101226449012756348
-0.71193850040435791 0.142844423651695251 0.271020799875259399
0.730946600437164307 0.347445130348205566 0.190292716026306152
0.298497408628463745 -0.62778627872467041 -0.303300768136978149
0.360532999038696289 -0.89840465784072876 0.0292713344097137451
0.499780714511871338 -0.725715279579162598 -0.11834552139043808
0.181362256407737732 -0.0259554218500852585 0.816561579704284668
-0.398433655500411987 0.739088177680969238 -0.157336801290512085
0.318840444087982178 -0.448616385459899902 0.447216540575027466
-0.744328439235687256 0.53782421350479126 0.0804396644234657288
0.669788599014282227 0.00855525117367506027 0.327172279357910156
-0.073639310896396637 0.717702627182006836 0.278119921684265137
0.555032908916473389 0.234856903553009033 -0.396489143371582031
-0.638113677501678467 -0.536623775959014893 -0.162653908133506775
-0.232518911361694336 0.79037165641784668 0.175947591662406921
-0.88869553804397583 0.40745893120765686 0.0190851204097270966
0.411627769470214844 0.467779695987701416 0.376032799482345581
0.301271766424179077 0.370943009853363037 0.520310819149017334
0.232300087809562683 0.658246457576751709 -0.301128208637237549
-0.557390034198760986 -0.263312011957168579 -0.380870282649993896
0.152213215827941895 0.966538846492767334 -0.0176487546414136887
-0.13713112473487854 0.304666370153427124 -0.664455592632293701
0.0175912231206893921 0.478413969278335571 -0.519220292568206787
0.054876718670129776 0.0762216672301292419 -0.905954122543334961
-0.436585754156112671 0.7921905517578125 0.0926406830549240112
0.231992721557617188 -0.600958168506622314 -0.353567302227020264
0.187272220849990845 -0.714844226837158203 -0.259115874767303467
-0.361526042222976685 0.548077881336212158 -0.342001765966415405
0.29414328932762146 0.533401310443878174 -0.389677047729492188
0.320676952600479126 -0.273581504821777344 -0.576753616333007812
0.0600419677793979645 -0.146402105689048767 0.841403663158416748
-0.780705928802490234 -0.489422351121902466 0.0754075199365615845
-0.855008959770202637 0.0595113262534141541 -0.142490267753601074
0.885326564311981201 0.289166241884231567 -0.0646680593490600586
0.785305798053741455 0.116318419575691223 -0.204825744032859802
0.38531455397605896 -0.510418236255645752 -0.359060287475585938
0.0996862053871154785 0.241066113114356995 -0.738594949245452881
0.819388389587402344 0.521056413650512695 -0.0253515858203172684
0.970421850681304932 -0.183068215847015381 -0.0119177689775824547
-0.0260038338601589203 -0.0717124566435813904 -0.923684298992156982
0.042538180947303772 -0.367029100656509399 -0.629897475242614746
-0.26039499044418335 -0.598937511444091797 -0.344365149736404419
0.642678201198577881 -0.728439033031463623 -0.0242218188941478729
0.45182231068611145 0.649957358837127686 -0.208304509520530701
0.733205616474151611 0.48657873272895813 -0.116684041917324066
-0.486972808837890625 0.855545341968536377 -0.0127550475299358368
-0.370968401432037354 0.127618074417114258 -0.607309579849243164
-0.654279172420501709 -0.209302812814712524 0.310507744550704956
-0.510797202587127686 0.0894505828619003296 -0.479700654745101929
0.853384554386138916 -0.171130761504173279 0.129172250628471375
-0.560843706130981445 0.522382736206054688 -0.230063572525978088
0.16988159716129303 0.0400232300162315369 -0.824661433696746826
0.172074064612388611 -0.295636475086212158 -0.657397449016571045
-0.759049057960510254 0.284408450126647949 0.185668766498565674
-0.643031120300292969 0.489856362342834473 0.188599362969398499
-0.849884331226348877 -0.363433867692947388 -0.0714523643255233765
0.135886281728744507 0.286223441362380981 -0.682459056377410889
0.647779643535614014 0.14521731436252594 0.333065807819366455
0.00596061814576387405 0.501274943351745605 0.49704897403717041
0.488640964031219482 0.461747109889984131 -0.324716418981552124
0.208870381116867065 -0.427199900150299072 0.523436963558197021
-0.805532693862915039 -0.0602868907153606415 0.188651502132415771
0.976348459720611572 -0.00501831341534852982 0.0194613393396139145
0.0546893887221813202 -0.2788066565990448 0.71456146240234375
-0.0995307043194770813 -0.317075610160827637 0.666506946086883545
0.0769038274884223938 -0.184919297695159912 -0.799097776412963867
-0.200932547450065613 0.590107321739196777 -0.374726951122283936
0.971302330493927002 0.0285336077213287354 -0.0256086830049753189
-0.408266961574554443 0.420672625303268433 0.412234395742416382
0.0566897392272949219 -0.852712035179138184 -0.143329381942749023
0.0567039959132671356 -0.257386058568954468 -0.735426008701324463
0.157858848571777344 -0.0848140642046928406 0.820210397243499756
-0.314631074666976929 0.133722901344299316 -0.657614231109619141
-0.907128512859344482 -0.145522147417068481 -0.0789774283766746521
0.771232962608337402 -0.480270624160766602 0.0872994959354400635
0.163309365510940552 0.652477800846099854 -0.326188474893569946
0.666663110256195068 -0.544944524765014648 0.135017439723014832
0.667548120021820068 0.236484423279762268 0.289473474025726318
0.522842526435852051 0.208575978875160217 0.434681683778762817
-0.532003998756408691 -0.5200653076171875 -0.252853035926818848
0.602247714996337891 -0.606310248374938965 -0.142584323883056641
-0.573131203651428223 0.0864489972591400146 -0.417727440595626831
0.467756867408752441 -0.335529148578643799 0.422425031661987305
0.643592715263366699 0.487944275140762329 -0.188842400908470154
0.123961493372917175 0.259359776973724365 -0.711853384971618652
-0.332894623279571533 0.400129199028015137 0.47711530327796936
0.690060615539550781 0.455880284309387207 -0.17242807149887085
0.823760032653808594 0.286518126726150513 0.123925626277923584
-0.383123338222503662 -0.698557376861572266 -0.199630126357078552
0.608041286468505859 0.155744418501853943 -0.36986503005027771
0.525866687297821045 -0.730134487152099609 0.0961572900414466858
0.762193024158477783 -0.252490133047103882 -0.19377918541431427
0.353744655847549438 -0.434875935316085815 -0.43695637583732605
-0.343652695417404175 0.697924435138702393 -0.220518738031387329
0.289500176906585693 0.712828755378723145 -0.227055534720420837
0.0732099041342735291 -0.28792080283164978 0.701546549797058105
-0.725810527801513672 0.046250123530626297 -0.269727796316146851
-0.44178849458694458 -0.0517216809093952179 0.554723143577575684
-0.818196237087249756 -0.224344819784164429 0.147851571440696716
0.206832006573677063 0.179092124104499817 0.726194679737091064
-0.1544179767370224 -0.314587861299514771 -0.648493826389312744
-0.259718060493469238 -0.838204920291900635 -0.118584603071212769
0.778076469898223877 -0.0854636132717132568 0.21462799608707428
0.0183403696864843369 -0.114819005131721497 -0.883238792419433594
0.422158807516098022 0.816982507705688477 0.0767207741737365723
0.477008998394012451 0.414371132850646973 0.365772485733032227
0.368159443140029907 -0.412886649370193481 -0.446348637342453003
0.716615200042724609 0.263758301734924316 -0.234415382146835327
-0.351458638906478882 0.160047426819801331 -0.612578749656677246
0.874489307403564453 -0.424733757972717285 -0.0239204578101634979
0.193906486034393311 0.021520150825381279 -0.80460047721862793
-0.436690360307693481 -0.581787288188934326 -0.270554631948471069
-0.294499129056930542 0.781421005725860596 0.161715179681777954
-0.232473313808441162 0.0863446518778800964 0.751323461532592773
-0.972397267818450928 0.152990996837615967 0.011387435719370842
-0.141921773552894592 0.0867518708109855652 -0.833275794982910156
-0.206212863326072693 0.121080644428730011 0.760490953922271729
-0.932893037796020508 -0.272050946950912476 0.0254562217742204666
0.599653184413909912 -0.441163063049316406 -0.252658218145370483
-0.686348974704742432 0.372709363698959351 -0.215465888381004333
-0.536151587963104248 0.728696286678314209 -0.0926059260964393616
-0.905979454517364502 -0.135770708322525024 -0.0822828561067581177
0.270664632320404053 0.868297457695007324 0.0864271372556686401
0.256141752004623413 0.510353684425354004 -0.426978170871734619
0.208541467785835266 -0.0243555121123790741 -0.789270758628845215
-0.29231947660446167 0.378231465816497803 -0.520290732383728027
0.561303436756134033 -0.0186355672776699066 0.436898797750473022
0.14173610508441925 -0.497066318988800049 -0.481196820735931396
0.302358448505401611 0.540796995162963867 -0.377544581890106201
0.428605437278747559 -0.118954002857208252 -0.554626762866973877
-0.543690741062164307 0.290957659482955933 0.380522578954696655
0.347161233425140381 -0.657676339149475098 -0.255982667207717896
-0.258670568466186523 0.271384716033935547 0.623939871788024902
-0.715401232242584229 -0.68815845251083374 -0.00702860346063971519
0.1148110032081604 -0.690754830837249756 -0.296786695718765259
-0.537251770496368408 0.757524549961090088 0.0677301660180091858
-0.737764239311218262 -0.186638221144676208 -0.23567025363445282
-0.680049598217010498 0.205838873982429504 0.287906676530838013
0.450925290584564209 -0.266298472881317139 -0.475385606288909912
-0.332428842782974243 0.140065982937812805 0.637652158737182617
-0.0782032683491706848 0.795484483242034912 0.200541466474533081
-0.56777268648147583 -0.179047569632530212 -0.403866082429885864
0.817416608333587646 0.110068820416927338 -0.171965152025222778
-0.645030975341796875 -0.645779609680175781 -0.0859224796295166016
-0.389416933059692383 -0.0886552557349205017 -0.599603414535522461
0.144304946064949036 0.449845224618911743 0.526690959930419922
0.730539441108703613 0.144057050347328186 -0.252265781164169312
0.0652149990200996399 0.444650113582611084 -0.548574984073638916
-0.446800023317337036 -0.351673513650894165 -0.430180281400680542
0.0277610123157501221 -0.823461949825286865 -0.175940766930580139
-0.193504735827445984 -0.807982385158538818 -0.166073933243751526
-0.174371391534805298 0.224423408508300781 -0.715472936630249023
0.863339662551879883 0.143821775913238525 0.12070976197719574
-0.0256147943437099457 0.668213784694671631 0.328414648771286011
-0.641215860843658447 0.0170831531286239624 0.357136160135269165
0.102428466081619263 -0.53580009937286377 0.452972829341888428
0.515217006206512451 0.477783560752868652 0.296041041612625122
-0.559495210647583008 -0.803858697414398193 0.0165269356220960617
0.648323714733123779 -0.285600960254669189 0.289813578128814697
0.0388288013637065887 -0.535625278949737549 -0.460494458675384521
-0.396530896425247192 -0.0781355947256088257 -0.594206333160400391
-0.968101382255554199 -0.0616987906396389008 -0.0298907943069934845
-0.227730825543403625 0.306821316480636597 -0.616980671882629395
-0.259807169437408447 -0.944557726383209229 -0.0186616815626621246
0.371631771326065063 0.00825073104351758957 -0.627572298049926758
0.176302015781402588 -0.36797603964805603 -0.590865969657897949
-0.865705728530883789 -0.402839779853820801 -0.0440182648599147797
0.434932023286819458 0.765345871448516846 -0.11722293496131897
-0.953350067138671875 -0.0855055898427963257 0.0384013205766677856
-0.66935199499130249 0.712507784366607666 -0.0209497511386871338
0.588354170322418213 -0.771233201026916504 -0.0255194269120693207
-0.0681757479906082153 -0.863916933536529541 0.129467397928237915
-0.392433971166610718 0.250765323638916016 -0.532509326934814453
0.818940281867980957 -0.340707868337631226 -0.109121151268482208
0.42508271336555481 0.285312056541442871 0.485750913619995117
-0.431961625814437866 0.744661331176757812 -0.137677475810050964
0.279675692319869995 -0.186286389827728271 0.663638770580291748
0.27834010124206543 0.726934492588043213 -0.2187814861536026
-0.0298017077147960663 0.24669995903968811 -0.75036090612411499
-0.476258993148803711 -0.0597062669694423676 0.518089830875396729
-0.734369516372680664 -0.588924646377563477 0.0560660287737846375
0.185254201292991638 0.356302112340927124 0.59836190938949585
0.0586032457649707794 0.52868276834487915 -0.467402994632720947
0.0999432951211929321 -0.0464027859270572662 -0.889416277408599854
-0.253103196620941162 -0.869570255279541016 0.0907730236649513245
0.523714303970336914 -0.670448362827301025 0.148465946316719055
-0.651373028755187988 0.697739124298095703 -0.041200198233127594
0.229437097907066345 0.804169595241546631 0.162933096289634705
-0.200585320591926575 -0.810733437538146973 0.162001252174377441
0.540909111499786377 -0.292847871780395508 -0.383999466896057129
-0.691941499710083008 -0.684726595878601074 -0.022237338125705719
0.0624346062541007996 0.447622090578079224 -0.547205090522766113
-0.326290607452392578 0.76188814640045166 -0.168146416544914246
-0.607355713844299316 -0.651685595512390137 -0.105940058827400208
-0.884994745254516602 0.451450467109680176 -0.00457480689510703087
0.475743860006332397 -0.093195989727973938 -0.515162467956542969
0.735849678516387939 -0.361803948879241943 -0.176873981952667236
0.790180385112762451 0.359909981489181519 -0.127732858061790466
-0.308873623609542847 0.493479698896408081 -0.415752440690994263
0.0604490302503108978 -0.684233486652374268 0.310467749834060669
0.483141899108886719 -0.51905900239944458 -0.28828960657119751
-0.396132200956344604 0.45830652117729187 0.391428053379058838
-0.455677926540374756 0.742489814758300781 0.125097095966339111
-0.0140518993139266968 0.420949637889862061 0.577060580253601074
-0.435198962688446045 0.049464106559753418 0.561412572860717773
-0.746349811553955078 -0.558482646942138672 -0.0640223175287246704
-0.798464536666870117 -0.465609759092330933 0.0715398937463760376
-0.544631481170654297 -0.0602685064077377319 -0.451180577278137207
-0.52334284782409668 -0.0749218910932540894 -0.46895405650138855
0.39680105447769165 0.39230760931968689 -0.439548730850219727
-0.309922248125076294 -0.529961466789245605 -0.383925408124923706
-0.832008302211761475 -0.33740919828414917 -0.102128356695175171
-0.441582769155502319 0.742915511131286621 0.131980359554290771
0.686567604541778564 -0.210607290267944336 0.278552383184432983
0.35208284854888916 -0.00235229451209306717 -0.647690236568450928
-0.57271873950958252 -0.0217394419014453888 0.424218147993087769
-0.76702427864074707 0.0192094650119543076 -0.230429381132125854
0.744849622249603271 0.0817329585552215576 0.24726569652557373
0.194498792290687561 0.29954954981803894 -0.641950607299804688
-0.456975311040878296 0.520025491714477539 0.304590910673141479
0.520398914813995361 0.160328090190887451 -0.452964752912521362
0.367144584655761719 0.821978628635406494 0.0994690731167793274
-0.361338913440704346 -0.73081815242767334 -0.182129845023155212
0.446897238492965698 0.826691329479217529 0.05901360884308815
0.0198530741035938263 0.911779403686523438 0.084591984748840332
0.336575150489807129 0.890318989753723145 -0.0440254062414169312
0.388147562742233276 0.643475651741027832 -0.24536973237991333
-0.530929327011108398 -0.112795829772949219 -0.456409752368927002
0.588664412498474121 0.722594320774078369 -0.0638687312602996826
0.758950889110565186 0.420398861169815063 -0.129032343626022339
-0.431849062442779541 0.619252145290374756 -0.241926446557044983
-0.996625602245330811 0.0263065285980701447 -0.000836648920085281134
0.618063867092132568 0.327325731515884399 -0.298542588949203491
-0.495052844285964966 -0.789239585399627686 0.0650694742798805237
0.461034297943115234 0.170340046286582947 -0.507278025150299072
0.0015040405560284853 -0.944528818130493164 0.0531328357756137848
0.286910712718963623 -0.0165319778025150299 -0.71149444580078125
0.266747325658798218 0.201059028506278992 -0.664642393589019775
0.0506571382284164429 0.957445144653320312 -0.036825716495513916
0.339543700218200684 0.213383331894874573 0.597575962543487549
0.509356141090393066 0.206011652946472168 -0.448286712169647217
0.723497331142425537 0.672587692737579346 0.00180629943497478962
-0.458193510770797729 -0.74574047327041626 0.121318496763706207
0.780209720134735107 0.568009495735168457 -0.0306466426700353622
-0.456478267908096313 -0.0684374496340751648 0.537601113319396973
-0.667398631572723389 -0.348750591278076172 -0.245000407099723816
-0.446093708276748657 -0.0820613056421279907 -0.544726669788360596
0.495856672525405884 0.661815226078033447 0.169196099042892456
-0.198401719331741333 -0.113491781055927277 -0.770542562007904053
-0.11166054755449295 0.097567044198513031 -0.851057469844818115
-0.948298275470733643 -0.0445602349936962128 -0.0463540181517601013
0.913300812244415283 -0.0999235957860946655 -0.0770596936345100403
-0.474406450986862183 -0.156668722629547119 -0.500316858291625977
0.870040714740753174 -0.0831724926829338074 -0.121935710310935974
0.586306273937225342 0.248670607805252075 0.360260248184204102
-0.269765585660934448 -0.13257811963558197 -0.699194371700286865
-0.937975406646728516 0.313228696584701538 -0.0069727674126625061
-0.314885109663009644 -0.78660428524017334 0.148783937096595764
0.398513287305831909 0.499379247426986694 -0.35847124457359314
0.363797158002853394 0.894119620323181152 -0.032323639839887619
0.946028351783752441 -0.058758273720741272 -0.0481761395931243896
-0.0103095825761556625 0.46840938925743103 -0.529416084289550781
-0.194792479276657104 -0.378997653722763062 -0.572207391262054443
0.104691997170448303 -0.298658579587936401 -0.682098090648651123
-0.7586708664894104 0.113350093364715576 0.229402452707290649
0.204983875155448914 0.948972463607788086 -0.0248368252068758011
0.737963318824768066 -0.0459779016673564911 0.257601231336593628
-0.717871546745300293 -0.679320573806762695 0.00678423792123794556
-0.607703983783721924 0.710398674011230469 0.0628722980618476868
0.274258136749267578 -0.184084504842758179 -0.668510317802429199
-0.86941605806350708 -0.160685747861862183 0.112525120377540588
-0.428321778774261475 -0.172464624047279358 -0.53817671537399292
-0.357221692800521851 -0.637158811092376709 0.266145586967468262
-0.472993046045303345 0.37820085883140564 0.392783015966415405
0.273143023252487183 -0.502704858779907227 -0.425292104482650757
-0.0872725099325180054 -0.673286855220794678 -0.319359749555587769
-0.144297555088996887 0.285316258668899536 -0.679906368255615234
-0.146228283643722534 -0.717296302318572998 -0.265678286552429199
0.316034018993377686 -0.0474457181990146637 -0.679388940334320068
-0.332599103450775146 0.373390167951583862 0.498072654008865356
0.226375669240951538 -0.122377149760723114 -0.74178391695022583
0.16629454493522644 0.30903857946395874 -0.647785782814025879
0.501430749893188477 -0.594283044338226318 -0.218834236264228821
-0.344635516405105591 0.801005959510803223 -0.124156661331653595
0.248659297823905945 -0.0617950595915317535 0.743480265140533447
0.129361569881439209 0.659923255443572998 -0.324395805597305298
0.65548330545425415 0.244766682386398315 0.29829782247543335
-0.268373489379882812 -0.0159280076622962952 -0.731032013893127441
0.127342551946640015 -0.806361258029937744 0.183363050222396851
-0.859846413135528564 0.119996882975101471 0.128577649593353271
0.717643201351165771 0.109434947371482849 0.271799743175506592
0.213527306914329529 -0.372236162424087524 0.569557666778564453
0.907764554023742676 0.135590419173240662 -0.0791552141308784485
-0.827280104160308838 0.26468968391418457 0.127570271492004395
-0.27250903844833374 0.580178558826446533 0.356064409017562866
0.511999845504760742 -0.15623706579208374 0.463592380285263062
-0.571485757827758789 0.649832546710968018 -0.133399233222007751
0.0698855668306350708 -0.345580220222473145 -0.646361112594604492
-0.000659870798699557781 -0.509974956512451172 0.4876575767993927
-0.189153283834457397 0.956547975540161133 -0.022238314151763916
0.543486893177032471 0.708298861980438232 -0.104225784540176392
-0.693529427051544189 -0.456759393215179443 -0.166300207376480103
0.00259277783334255219 0.647573649883270264 -0.350923657417297363
0.505480766296386719 0.729340910911560059 0.109045900404453278
-0.354962706565856934 -0.579431712627410889 0.31758725643157959
0.0503097549080848694 -0.378741055727005005 0.617044150829315186
-0.60334932804107666 0.105082057416439056 -0.38477054238319397
-0.910299420356750488 0.286170333623886108 0.0444292202591896057
0.288994491100311279 -0.88796079158782959 -0.0618762262165546417
0.0740251466631889343 -0.724169671535491943 0.268931448459625244
-0.67860102653503418 0.142643928527832031 -0.303452998399734497
-0.0260270163416862488 -0.922819316387176514 -0.0731261521577835083
0.230577021837234497 0.933054208755493164 -0.0373746529221534729
0.375782251358032227 0.861848771572113037 -0.0592985302209854126
0.138096064329147339 0.220847010612487793 0.738365530967712402
-0.6599387526512146 0.230307862162590027 -0.29788362979888916
-0.72392117977142334 0.29844212532043457 0.213599085807800293
-0.619014739990234375 -0.657434046268463135 -0.0955843031406402588
0.298104971647262573 -0.904483675956726074 -0.0432381369173526764
0.796935141086578369 -0.439964354038238525 -0.0857126638293266296
-0.966563940048217773 -0.100443489849567413 0.0252909064292907715
0.181145846843719482 0.114119380712509155 0.785146772861480713
0.277895957231521606 -0.0122339688241481781 0.72056347131729126
0.903585612773895264 0.296679496765136719 -0.0449347496032714844
-0.173351466655731201 0.680564284324645996 -0.295593291521072388
0.810667932033538818 0.57517927885055542 -0.00142871204297989607
-0.0446365922689437866 0.341207802295684814 -0.654957294464111328
0.0684847906231880188 0.826718688011169434 -0.167463973164558411
0.647845983505249023 -0.395446836948394775 -0.238895997405052185
-0.0391049981117248535 0.55269622802734375 0.444738000631332397
0.371992260217666626 0.691052436828613281 0.212342187762260437
-0.0260295234620571136 0.514635622501373291 -0.482975244522094727
0.369789630174636841 0.679379880428314209 -0.22386777400970459
0.556935012340545654 -0.512034177780151367 -0.239960178732872009
0.667544722557067871 0.679277539253234863 -0.0456354059278964996
0.133454203605651855 0.46999320387840271 0.510902881622314453
-0.0302094221115112305 -0.690396964550018311 -0.305878549814224243
0.546693682670593262 -0.449629306793212891 0.28895270824432373
0.0883389487862586975 0.491615325212478638 -0.499743789434432983
0.232479482889175415 0.725054323673248291 0.237168148159980774
0.88291633129119873 -0.086385682225227356 0.110503688454627991
0.760382950305938721 -0.055895436555147171 -0.236916780471801758
0.751585185527801514 -0.594448089599609375 0.0373061895370483398
-0.393588453531265259 0.0584874972701072693 -0.600769340991973877
0.144670486450195312 0.943149983882904053 -0.0451062694191932678
0.0563837997615337372 -0.909205377101898193 -0.0865738093852996826
-0.0242806673049926758 0.385929703712463379 -0.61227869987487793
0.740686774253845215 -0.554358780384063721 -0.0710588544607162476
-0.779054760932922363 0.595390260219573975 0.0184659510850906372
-0.0779212489724159241 0.78681492805480957 0.209144860506057739
-0.703307747840881348 -0.633570730686187744 -0.0507204420864582062
-0.328503429889678955 0.832240164279937744 -0.103502631187438965
0.272341310977935791 0.89271998405456543 -0.0626104027032852173
0.746477246284484863 -0.46486198902130127 -0.117727905511856079
-0.103349432349205017 0.8432425856590271 -0.147930994629859924
0.30039629340171814 0.7635079026222229 0.177967578172683716
-0.918819248676300049 -0.19757358729839325 -0.0558905862271785736
0.406325012445449829 0.124574668705463409 0.574174225330352783
-0.287046819925308228 -0.591745555400848389 -0.340735554695129395
0.0408875569701194763 0.0702187195420265198 -0.918468177318572998
-0.403156489133834839 -0.767446517944335938 0.129609569907188416
-0.383696854114532471 -0.819107890129089355 -0.0925732851028442383
-0.00902511086314916611 -0.402472347021102905 0.595659255981445312
0.325064331293106079 -0.259635239839553833 -0.58292233943939209
-0.0106107136234641075 0.35174560546875 0.646664559841156006
0.607987463474273682 0.685972273349761963 -0.080014839768409729
-0.40857657790184021 0.71501469612121582 -0.174705669283866882
0.163371890783309937 -0.534337639808654785 -0.439106106758117676
-0.396406799554824829 -0.705559134483337402 -0.186952352523803711
-0.11289282888174057 -0.0740890279412269592 -0.864918887615203857
-0.602062225341796875 0.568226873874664307 -0.171175241470336914
-0.490135759115219116 0.663960158824920654 -0.172332167625427246
-0.34453853964805603 0.733421623706817627 -0.185958683490753174
0.000523196591529995203 -0.868486464023590088 -0.129308104515075684
0.630198657512664795 -0.244769871234893799 0.323077023029327393
-0.37245255708694458 0.741438150405883789 -0.166534841060638428
0.360179215669631958 -0.365151554346084595 -0.486103802919387817
-0.156649798154830933 0.27323305606842041 -0.68408888578414917
0.434760093688964844 0.02502482570707798 0.564251840114593506
0.276491850614547729 0.537392973899841309 -0.393055707216262817
0.0391086898744106293 -0.81992793083190918 0.178004235029220581
-0.463276207447052002 0.33737105131149292 -0.424790680408477783
0.0971431881189346313 -0.676091969013214111 -0.313865810632705688
0.585061371326446533 -0.0967002958059310913 -0.405610054731369019
-0.470183879137039185 -0.163727894425392151 -0.501479983329772949
0.5575370192527771 0.444475024938583374 -0.28366425633430481
-0.65816652774810791 0.0838073939085006714 0.333748698234558105
0.201047927141189575 0.47068747878074646 0.487571626901626587
0.943930923938751221 0.0523312836885452271 -0.0510207265615463257
0.495645254850387573 0.51892244815826416 -0.280889779329299927
-0.0319450683891773224 -0.286266684532165527 -0.711572945117950439
0.84670722484588623 0.472519725561141968 -0.0264952555298805237
-0.499973088502883911 0.734151721000671387 -0.107840828597545624
0.638995051383972168 0.4584999680519104 0.212244912981987
-0.421992272138595581 0.399799227714538574 -0.418113559484481812
0.166431620717048645 -0.0399290509521961212 -0.828536748886108398
-0.276558607816696167 -0.153374820947647095 0.68356555700302124
-0.195260629057884216 0.822490692138671875 -0.150956869125366211
-0.756634294986724854 0.129250138998031616 -0.228872820734977722
0.16572938859462738 -0.0541308373212814331 0.825574576854705811
-0.410705834627151489 0.697255551815032959 -0.187831118702888489
-0.542085587978363037 0.681028246879577637 -0.125948682427406311
0.469249159097671509 -0.25416979193687439 -0.463923603296279907
-0.0663720071315765381 0.268000602722167969 -0.722647190093994141
0.718472898006439209 -0.228721097111701965 -0.245157420635223389
0.0207200553268194199 -0.831330716609954834 -0.165192246437072754
-0.920157968997955322 0.224969193339347839 -0.0513481162488460541
0.329595118761062622 0.924237966537475586 -0.0150709385052323341
0.204751387238502502 0.146541982889175415 -0.747060656547546387
0.387238979339599609 -0.606764316558837891 -0.27878648042678833
-0.403845310211181641 0.473559737205505371 -0.374736577272415161
0.229468762874603271 0.869835197925567627 -0.0981731340289115906
0.495314419269561768 0.659363508224487305 -0.17303214967250824
0.496496617794036865 -0.140562832355499268 -0.481635332107543945
-0.210760831832885742 0.587058544158935547 -0.373541414737701416
-0.737330257892608643 -0.183718562126159668 -0.239284366369247437
-0.790512144565582275 0.394822239875793457 -0.11241062730550766
-0.942182421684265137 0.305137842893600464 -0.00581357022747397423
0.214885666966438293 0.502007126808166504 -0.453328907489776611
-0.853139698505401611 -0.425823569297790527 -0.04222145676612854
0.660935759544372559 -0.691617488861083984 -0.0389345660805702209
-0.245647326111793518 -0.139990091323852539 -0.716054558753967285
-0.569439113140106201 0.310089856386184692 0.349293142557144165
-0.765443980693817139 0.637365639209747314 -0.00294932094402611256
-0.615946292877197266 0.382070928812026978 -0.273824453353881836
-0.490511298179626465 0.368575006723403931 -0.383852928876876831
-0.328577965497970581 -0.875631928443908691 -0.0607173144817352295
-0.145134463906288147 0.587991952896118164 0.391613095998764038
0.146087810397148132 -0.212945476174354553 0.740638434886932373
0.715260207653045654 0.505791306495666504 -0.119925059378147125
0.504484117031097412 0.697925090789794922 -0.13587053120136261
-0.143223375082015991 0.489644855260848999 -0.487672358751296997
-0.410832971334457397 0.245174244046211243 -0.519361674785614014
0.354747861623764038 -0.60737001895904541 -0.29560425877571106
-0.902298092842102051 0.0770407170057296753 -0.0927798822522163391
0.507662177085876465 0.372587203979492188 -0.369817942380905151
-0.749196171760559082 0.61317288875579834 -0.0274538006633520126
0.177798271179199219 0.289003342390060425 -0.659363210201263428
0.699986755847930908 0.433644413948059082 -0.172790884971618652
0.520380079746246338 -0.35724937915802002 0.366879761219024658
0.66600191593170166 -0.167482644319534302 0.312628567218780518
0.521974861621856689 0.356905847787857056 -0.366448909044265747
-0.034758247435092926 0.453200608491897583 -0.543968081474304199
-0.264641135931015015 -0.372123301029205322 -0.541371405124664307
-0.0821349918842315674 -0.189480170607566833 -0.792689263820648193
0.334182202816009521 0.148563429713249207 -0.632585763931274414
0.188632696866989136 -0.535397887229919434 0.430310636758804321
-0.0518492348492145538 0.353763759136199951 -0.640850722789764404
0.154603615403175354 -0.82750779390335083 0.156442031264305115
0.570322990417480469 0.392462641000747681 0.305634111166000366
0.27604520320892334 -0.201681017875671387 -0.65684741735458374
-0.197097152471542358 0.804046630859375 -0.170977190136909485
0.0593424402177333832 -0.295403718948364258 -0.697301208972930908
0.355553656816482544 -0.64864814281463623 0.256910592317581177
-0.870412170886993408 -0.438637018203735352 -0.0220120064914226532
0.582288563251495361 0.537356138229370117 -0.206043615937232971
0.723247945308685303 0.68490225076675415 -0.00290494342334568501
-0.145740151405334473 -0.0787593796849250793 -0.833774983882904053
0.363265335559844971 0.722333192825317383 -0.188607558608055115
-0.0322335176169872284 0.557834208011627197 -0.438652783632278442
-0.581815004348754883 -0.771726250648498535 -0.0307443216443061829
-0.66224372386932373 0.647387981414794922 -0.0699401721358299255
0.369075775146484375 0.231908842921257019 -0.56214439868927002
0.700578153133392334 -0.497502118349075317 0.139025777578353882
-0.190902009606361389 0.686043798923492432 -0.284664720296859741
0.156447112560272217 -0.838757932186126709 -0.145039528608322144
-0.843526482582092285 -0.448249489068984985 -0.0403630919754505157
-0.0636983215808868408 0.565851986408233643 0.428004950284957886
-0.191774100065231323 -0.798274338245391846 -0.17537844181060791
0.104123435914516449 -0.0280417203903198242 -0.892100214958190918
-0.441100269556045532 -0.487514376640319824 -0.339799731969833374
0.0515777505934238434 -0.645685732364654541 -0.351316779851913452
-0.0479386858642101288 0.878447055816650391 -0.118561670184135437
0.477827459573745728 0.522962510585784912 -0.288764417171478271
0.525893568992614746 0.499438196420669556 -0.271553754806518555
0.200264543294906616 -0.0731554627418518066 -0.785802960395812988
-0.585035383701324463 -0.768269658088684082 -0.0298996660858392715
-0.521450698375701904 0.488186836242675781 0.2824573814868927
-0.379861623048782349 0.326515287160873413 -0.498869180679321289
-0.282169848680496216 0.483122557401657104 0.439703613519668579
0.360663324594497681 0.189332902431488037 0.59077143669128418
0.69225078821182251 0.260321348905563354 -0.258195608854293823
-0.453917056322097778 0.263343483209609985 -0.473317265510559082
-0.436070859432220459 -0.487020581960678101 0.343749731779098511
0.660495340824127197 -0.151503056287765503 -0.319206207990646362
0.741867244243621826 0.122843600809574127 -0.24628216028213501
-0.726271629333496094 0.0214396920055150986 -0.270041286945343018
0.550335824489593506 -0.525006949901580811 -0.236474379897117615
0.0982511043548583984 0.637502133846282959 -0.354530066251754761
0.62482762336730957 0.0461818240582942963 0.372913271188735962
-0.512027323246002197 0.69650578498840332 0.131548836827278137
0.849855244159698486 -0.0903617516160011292 -0.143728449940681458
0.818201124668121338 -0.0684155598282814026 -0.175198912620544434
-0.0473024435341358185 0.212187722325325012 0.781744897365570068
-0.252524137496948242 -0.0705686584115028381 0.736617445945739746
0.4372139573097229 0.253582537174224854 0.492318421602249146
0.807402610778808594 -0.185603544116020203 0.16932128369808197
0.21786712110042572 -0.01393133495002985 0.780788958072662354
-0.453621596097946167 -0.667008936405181885 0.192491158843040466
-0.0208391603082418442 -0.637866616249084473 -0.359147489070892334
-0.859847128391265869 0.187515914440155029 -0.118264377117156982
-0.773569583892822266 0.509649276733398438 -0.0696618631482124329
0.475847512483596802 0.716950297355651855 -0.137817040085792542
0.972540140151977539 0.0997228175401687622 -0.0194794684648513794
0.749632418155670166 0.161245152354240417 -0.229722633957862854
-0.422837793827056885 0.32036203145980835 -0.467207670211791992
-0.746459424495697021 0.43850630521774292 -0.13289111852645874
-0.0952454954385757446 0.772368788719177246 -0.220063328742980957
0.768097758293151855 0.437391698360443115 -0.112324319779872894
0.00717286160215735435 0.702729344367980957 -0.294008344411849976
-0.945300102233886719 -0.205603167414665222 -0.0281587801873683929
0.192631199955940247 0.395767629146575928 -0.557802796363830566
-0.745889663696289062 -0.151259034872055054 -0.236000016331672668
-0.467783719301223755 -0.299578070640563965 -0.44236639142036438
0.391954421997070312 0.827010154724121094 0.0805784016847610474
-0.228301554918289185 0.27534949779510498 -0.641123294830322266
-0.377701044082641602 -0.283027708530426025 0.526046454906463623
0.536602616310119629 0.531129360198974609 -0.241654261946678162
0.00517843104898929596 0.434488266706466675 0.564058244228363037
-0.0228575244545936584 0.512059390544891357 -0.486850440502166748
0.072925567626953125 0.0340248122811317444 -0.919233262538909912
0.308138102293014526 0.386833012104034424 -0.505414307117462158
0.0173369050025939941 -0.857493698596954346 0.141411468386650085
0.526988685131072998 -0.363280236721038818 -0.356968492269515991
