ply
format ascii 1.0
element vertex 739
property float x
property float y
property float z
end_header
0.311298280954360962 0.205721050500869751 -0.674122452735900879
-0.85306394100189209 -0.645162582397460938 0.0839551165699958801
0.480428606271743774 -0.629568040370941162 -0.321005851030349731
0.722097039222717285 0.435107678174972534 -0.252591699361801147
-0.709420919418334961 0.459956318140029907 0.258625566959381104
-0.352032184600830078 -0.105346173048019409 -0.646620392799377441
0.922028481960296631 -0.418495804071426392 -0.0676058977842330933
0.762832939624786377 0.71220850944519043 -0.120688572525978088
0.898047327995300293 0.0443163290619850159 0.100100770592689514
-0.0875741839408874512 -0.298989087343215942 0.699425101280212402
-0.221533879637718201 0.605537056922912598 -0.389566481113433838
-0.266818612813949585 0.897912561893463135 -0.0974123477935791016
-0.696668088436126709 -0.800645232200622559 0.101905547082424164
0.102319143712520599 -0.537590920925140381 -0.461162656545639038
-0.718857228755950928 0.130074292421340942 0.28013947606086731
-0.153185188770294189 0.239571496844291687 -0.750120639801025391
-0.354430258274078369 -0.411863714456558228 -0.538962006568908691
0.0891562476754188538 -0.366012543439865112 -0.632903575897216797
0.307741612195968628 0.536090970039367676 0.448816269636154175
0.103136226534843445 0.849383234977722168 -0.149874851107597351
0.608237028121948242 0.861681044101715088 -0.0881131067872047424
-0.793169200420379639 0.746219754219055176 -0.0822446271777153015
0.872630536556243896 0.301410108804702759 -0.121587134897708893
0.18524545431137085 0.111359752714633942 -0.808314204216003418
-0.699616312980651855 -0.812283992767333984 0.0917483344674110413
0.901186525821685791 0.575870096683502197 -0.0631857365369796753
-0.557692587375640869 -0.253263652324676514 -0.434923797845840454
0.243472740054130554 0.684372842311859131 -0.310382604598999023
-0.647046208381652832 -0.794442713260650635 -0.128444358706474304
0.113895438611507416 -0.272486656904220581 -0.72520369291305542
-0.170618891716003418 0.97538149356842041 0.0206756442785263062
0.288915842771530151 -0.290552675724029541 -0.654253661632537842
-0.0741143301129341125 -0.450865864753723145 -0.548947453498840332
-0.0522797070443630219 -0.871113896369934082 -0.127553194761276245
0.0395638681948184967 -0.602404236793518066 -0.396199077367782593
0.120205521583557129 -0.553367197513580322 0.445349812507629395
0.300838440656661987 0.449411898851394653 -0.529397070407867432
-0.769391953945159912 -0.218048498034477234 -0.225988224148750305
-0.444944769144058228 0.776339471340179443 -0.200724244117736816
-0.282555699348449707 -0.716225862503051758 0.279197186231613159
0.740596473217010498 -0.685663521289825439 -0.147354379296302795
0.343000859022140503 0.0852696225047111511 -0.655192553997039795
0.871530711650848389 -0.0759969502687454224 0.126069411635398865
-0.231183990836143494 -0.868157267570495605 0.129829928278923035
-0.0777922272682189941 0.601967275142669678 0.395893484354019165
-0.562314808368682861 -0.662985026836395264 0.26220288872718811
-0.233269140124320984 -0.463055849075317383 0.528609573841094971
0.192331135272979736 -0.500317931175231934 -0.495246946811676025
-0.574514865875244141 0.174225613474845886 0.421793818473815918
0.750603616237640381 -0.450194746255874634 -0.224965378642082214
0.693352103233337402 -0.797527432441711426 -0.103988341987133026
0.111296512186527252 0.481479346752166748 0.516284823417663574
0.495418190956115723 0.716139614582061768 0.244446992874145508
-0.808510482311248779 -0.266913920640945435 -0.186883240938186646
0.0169812347739934921 0.565859556198120117 -0.433093041181564331
-0.82593458890914917 -0.332068502902984619 0.166999086737632751
0.543898999691009521 -0.672838330268859863 -0.263264626264572144
-0.0746896639466285706 0.834902644157409668 0.164082705974578857
-0.331644147634506226 -0.366921454668045044 -0.581901669502258301
0.528104662895202637 0.191837966442108154 -0.467822462320327759
0.0401361621916294098 -0.314148843288421631 -0.68473970890045166
0.726333379745483398 0.873527944087982178 0.0365645177662372589
0.718597114086151123 0.888707637786865234 0.0266024172306060791
-0.533076167106628418 -0.111982204020023346 0.464551270008087158
-0.75485759973526001 0.215071678161621094 0.242917746305465698
0.52045363187789917 0.390336185693740845 -0.440787523984909058
-0.649995207786560059 -0.448319405317306519 -0.31381186842918396
0.787139594554901123 0.208254948258399963 -0.211514726281166077
-0.919296860694885254 0.344833910465240479 -0.0753886625170707703
-0.619928240776062012 0.362948328256607056 -0.360833883285522461
0.33563387393951416 0.905538320541381836 0.0879479125142097473
-0.423378974199295044 -0.280148476362228394 0.556719958782196045
-0.404024392366409302 0.059127073734998703 -0.595340907573699951
-0.34502759575843811 -0.800500750541687012 0.189818158745765686
0.760870039463043213 0.084051281213760376 0.236945167183876038
-0.302508503198623657 -0.809371471405029297 -0.184602096676826477
-0.353402554988861084 0.558259665966033936 0.418535828590393066
-0.620551347732543945 -0.49728769063949585 0.321319520473480225
0.862358987331390381 0.564721405506134033 0.0982978790998458862
-0.483559757471084595 0.618548691272735596 0.328371256589889526
0.0240185614675283432 -0.302561372518539429 0.697038352489471436
0.624721407890319824 -0.504766285419464111 -0.31514856219291687
-0.853431582450866699 0.661377489566802979 0.0750467851758003235
0.468681752681732178 0.288457393646240234 -0.514172375202178955
-0.4755096435546875 0.647995531558990479 0.307088285684585571
0.299159586429595947 0.164755046367645264 -0.693119943141937256
-0.11046813428401947 0.71490943431854248 -0.283433079719543457
-0.0531705059111118317 0.330258637666702271 0.668975651264190674
0.434949398040771484 -0.583583652973175049 -0.373657405376434326
0.503030002117156982 0.455677956342697144 -0.427198320627212524
-0.269966363906860352 0.476767867803573608 0.510278642177581787
0.349098712205886841 -0.77179253101348877 -0.217538654804229736
0.842971265316009521 0.489205539226531982 -0.131267592310905457
-0.0932864248752593994 0.891463100910186768 0.107598304748535156
-0.858926653861999512 0.592858314514160156 -0.0957453250885009766
-0.811533033847808838 -0.521500885486602783 -0.153112694621086121
0.376597225666046143 -0.947583377361297607 0.0463316105306148529
0.565475225448608398 -0.378771156072616577 -0.406685888767242432
-0.00242492859251797199 -0.366789638996124268 -0.632387816905975342
-0.466340899467468262 0.73230743408203125 -0.237859681248664856
-0.311493188142776489 0.406784892082214355 0.560846388339996338
-0.802812576293945312 -0.763359189033508301 0.0646124035120010376
0.717302143573760986 0.736977040767669678 -0.132064193487167358
0.209552943706512451 0.547002434730529785 -0.448510110378265381
-0.120698906481266022 0.559005558490753174 -0.439987480640411377
-0.0968424305319786072 -0.703110992908477783 0.295258879661560059
0.393152326345443726 -0.598420917987823486 -0.373665720224380493
-0.70853346586227417 -0.128894239664077759 -0.290481090545654297
0.155358985066413879 -0.475732654333114624 0.522547483444213867
-0.143952026963233948 -0.441782653331756592 -0.555718541145324707
0.956279397010803223 -0.0624253414571285248 -0.0418257825076580048
-0.215819016098976135 -0.555983960628509521 0.440500736236572266
-0.465334981679916382 -0.658912599086761475 0.302643924951553345
-0.729354143142700195 0.5057639479637146 -0.229319632053375244
-0.630951523780822754 -0.00253191380761563778 0.367576867341995239
-0.00103817647323012352 -0.0551269091665744781 -0.944764435291290283
0.772341787815093994 0.65495002269744873 -0.14184550940990448
0.820744752883911133 0.844861865043640137 0.00252636917866766453
-0.358280032873153687 0.289295852184295654 -0.607317328453063965
-0.297912061214447021 -0.0397468432784080505 -0.70119786262512207
-0.128731280565261841 -0.80874943733215332 0.189375504851341248
0.527780830860137939 -0.00628991751000285149 -0.472085893154144287
0.271647453308105469 -0.859747469425201416 0.13509833812713623
-0.0547983124852180481 -0.346874594688415527 -0.6529579758644104
0.467288762331008911 -0.142458349466323853 0.530909419059753418
0.760780096054077148 -0.273058593273162842 -0.233553305268287659
0.684698104858398438 0.184906676411628723 -0.312782436609268188
0.570954799652099609 -0.323071748018264771 0.413012236356735229
-0.174735993146896362 0.77959907054901123 0.216839253902435303
0.425248771905899048 -0.0325822420418262482 -0.573603034019470215
0.890336275100708008 0.0266154911369085312 0.107470475137233734
0.628054380416870117 0.181973844766616821 -0.369910329580307007
-0.806237637996673584 -0.211053282022476196 -0.189290791749954224
-0.272158533334732056 0.981991052627563477 0.0106958663091063499
0.168517008423805237 -0.691292226314544678 -0.306655377149581909
0.36336052417755127 -0.633431613445281982 -0.348867416381835938
0.636292636394500732 0.679434478282928467 -0.21373690664768219
-0.542280435562133789 0.92702174186706543 -0.0446642078459262848
-0.360372394323348999 -0.945331752300262451 -0.0487616248428821564
-0.892496645450592041 0.748692631721496582 -0.0113866850733757019
-0.518742024898529053 0.164471566677093506 -0.479225724935531616
0.447116464376449585 0.302011996507644653 -0.530622303485870361
-0.52391284704208374 -0.901450216770172119 0.0706404000520706177
-0.62314140796661377 0.420969367027282715 0.345056772232055664
-0.113092139363288879 -0.984945297241210938 -0.0127711100503802299
0.780095219612121582 -0.709835946559906006 -0.108155548572540283
-0.630854606628417969 -0.328001111745834351 -0.356090903282165527
0.122934445738792419 -0.687275350093841553 -0.309917420148849487
0.441878229379653931 -0.760713279247283936 -0.215776816010475159
-0.173062026500701904 0.394660711288452148 0.600326240062713623
0.146605610847473145 0.124345041811466217 -0.836864233016967773
-0.0493377000093460083 -0.185709774494171143 -0.813568413257598877
0.164297416806221008 0.378236621618270874 -0.617618381977081299
0.508939683437347412 -0.565319299697875977 -0.356772303581237793
-0.155712202191352844 0.94436335563659668 -0.0519205778837203979
0.0364033207297325134 -0.947074353694915771 -0.0512579977512359619
-0.616830050945281982 -0.320006340742111206 0.371992617845535278
0.690004348754882812 0.638709783554077148 -0.205664053559303284
-0.795241713523864746 -0.472704946994781494 -0.179970681667327881
0.632458209991455078 -0.0104336868971586227 0.366026639938354492
-0.312153786420822144 -0.239650517702102661 -0.662861645221710205
-0.0412572957575321198 0.0753522738814353943 -0.922778308391571045
0.701448380947113037 -0.389341235160827637 -0.281499594449996948
-0.881838500499725342 -0.150239020586013794 -0.116883464157581329
0.384544134140014648 0.644961059093475342 0.33507731556892395
-0.394597172737121582 -0.170808196067810059 -0.601783931255340576
-0.535804331302642822 -0.643887937068939209 0.287618279457092285
0.44900175929069519 -0.836296379566192627 0.144323468208312988
0.273487776517868042 0.134720295667648315 -0.722251355648040771
0.419869482517242432 -0.161392331123352051 0.577301979064941406
0.644236922264099121 0.454027235507965088 -0.31740143895149231
-0.982014596462249756 0.380889564752578735 0.00744239939376711845
0.553084850311279297 0.0467054247856140137 -0.445925623178482056
0.796992957592010498 -0.207691773772239685 0.201837345957756042
0.410620272159576416 -0.59044116735458374 0.37656828761100769
0.810166537761688232 0.550320863723754883 -0.14754129946231842
-0.904269099235534668 0.0397183150053024292 -0.0934390276670455933
0.609111785888671875 -0.691253244876861572 -0.220083028078079224
-0.498988330364227295 -0.583481073379516602 -0.349020898342132568
-0.727933228015899658 0.0697235763072967529 0.270736813545227051
-0.451477736234664917 -0.472481220960617065 0.450080126523971558
-0.0317946113646030426 0.727689981460571289 0.270622909069061279
0.937191009521484375 0.174137547612190247 -0.059119541198015213
-0.677990078926086426 -0.2062826007604599 -0.319214284420013428
-0.589458763599395752 -0.803842782974243164 -0.140580862760543823
-0.757556557655334473 -0.653674185276031494 -0.151524856686592102
-0.692701578140258789 0.362159639596939087 0.292328953742980957
0.482063561677932739 0.00051937898388132453 -0.517925441265106201
-0.847940266132354736 -0.579611718654632568 0.10619141161441803
-0.375269114971160889 -0.0738464891910552979 -0.624237239360809326
0.715096175670623779 -0.818282842636108398 -0.0789541304111480713
-0.566467881202697754 0.0569279938936233521 -0.431934118270874023
-0.891826391220092773 0.378270655870437622 -0.098514065146446228
-0.943459808826446533 -0.430382668972015381 -0.0432105399668216705
0.113436445593833923 -0.809809386730194092 -0.189644783735275269
0.600764811038970947 0.219261690974235535 0.394589692354202271
-0.329920709133148193 -0.279900908470153809 -0.632542908191680908
0.748696446418762207 -0.532535970211029053 -0.206379711627960205
0.189635246992111206 0.00165335414931178093 -0.809917926788330078
0.0598316118121147156 0.426274806261062622 -0.57215958833694458
-0.275146156549453735 -0.526380240917205811 0.463335514068603516
-0.461283683776855469 -0.296544790267944336 -0.519920170307159424
-0.987180829048156738 -0.11268363893032074 -0.0104317450895905495
0.311827152967453003 0.317694544792175293 -0.624330043792724609
-0.292135238647460938 -0.196650773286819458 -0.693456590175628662
-0.742276966571807861 0.737860977649688721 -0.117413230240345001
0.764703571796417236 0.0768697559833526611 -0.233667805790901184
0.791177093982696533 0.748988866806030273 -0.0817125588655471802
0.528291940689086914 -0.89987337589263916 -0.0713351443409919739
0.349282026290893555 -0.112994968891143799 0.648868739604949951
0.294763863086700439 0.0415637344121932983 -0.704355537891387939
-0.810554385185241699 0.387743860483169556 -0.176141440868377686
0.571347832679748535 -0.104211635887622833 -0.426803439855575562
-0.792246639728546143 -0.823105335235595703 -0.0358039624989032745
0.363077819347381592 0.939665317535400391 -0.0519272349774837494
-0.319103240966796875 -0.833436489105224609 -0.15974089503288269
-0.0524229817092418671 -0.974261283874511719 0.0230622049421072006
0.491273880004882812 -0.791030168533325195 -0.178935438394546509
-0.560372054576873779 0.681163668632507324 0.248981490731239319
0.241244688630104065 0.662371993064880371 -0.332317352294921875
-0.0717938840389251709 -0.715936064720153809 -0.28327670693397522
0.828212559223175049 -0.618163228034973145 0.111062183976173401
0.247589051723480225 0.436405062675476074 -0.552030205726623535
-0.472425103187561035 -0.710344314575195312 -0.254881620407104492
0.651947021484375 -0.277929157018661499 -0.340524733066558838
-0.640376567840576172 -0.0285088121891021729 -0.358287245035171509
0.0681032389402389526 0.23348940908908844 0.765969276428222656
-0.474597960710525513 0.741325020790100098 -0.226644381880760193
0.0862300470471382141 -0.519315600395202637 -0.480478614568710327
-0.701514780521392822 -0.537698745727539062 -0.241918548941612244
0.157262891530990601 0.329533189535140991 -0.665212094783782959
-0.0603086724877357483 0.753551959991455078 -0.244166567921638489
-0.901972353458404541 0.202766969799995422 -0.0969690605998039246
-0.605043172836303711 0.43482092022895813 -0.356764703989028931
0.933056414127349854 0.673869490623474121 -0.00156410387717187405
-0.521831870079040527 -0.600228428840637207 -0.326896160840988159
-0.21226540207862854 -0.226159662008285522 -0.738226711750030518
0.876819729804992676 -0.212513431906700134 -0.12007681280374527
0.079540155827999115 0.834444165229797363 -0.162893012166023254
0.260947436094284058 0.705334126949310303 0.28963133692741394
0.904900610446929932 0.640822529792785645 -0.0404210910201072693
-0.199536174535751343 0.915515720844268799 -0.0827571526169776917
-0.313087701797485352 0.47419661283493042 0.503135025501251221
0.414923936128616333 0.6260184645652771 -0.343740940093994141
-0.887753307819366455 0.0208941623568534851 -0.11008838564157486
-0.639444410800933838 0.35254475474357605 -0.343995362520217896
0.100929081439971924 0.436281174421310425 0.562707304954528809
-0.340396106243133545 -0.537551701068878174 -0.440081030130386353
0.91021960973739624 0.179946422576904297 -0.0859678685665130615
0.930061817169189453 0.0269616749137639999 -0.0693669393658638
0.259538739919662476 0.922897040843963623 -0.0749632269144058228
-0.0325259678065776825 0.671833574771881104 -0.326608806848526001
-0.593704640865325928 -0.083560064435005188 0.404524952173233032
-0.453722357749938965 -0.722981393337249756 0.248739898204803467
0.813255131244659424 0.211806103587150574 -0.182257354259490967
-0.104255728423595428 0.820819258689880371 0.178512841463088989
0.879224717617034912 -0.7732505202293396 0.00623120646923780441
-0.359080731868743896 0.584564745426177979 -0.395301073789596558
-0.66817784309387207 0.473440229892730713 0.290784537792205811
-0.570358753204345703 0.74537956714630127 -0.195475131273269653
-0.383414179086685181 -0.74203723669052124 -0.243400365114212036
-0.0720509737730026245 -0.763609647750854492 -0.233961433172225952
-0.630909860134124756 -0.400131940841674805 -0.34488600492477417
0.466696798801422119 0.166170656681060791 -0.529908299446105957
0.770620524883270264 -0.0471907369792461395 -0.227836772799491882
0.271452367305755615 -0.729605972766876221 -0.264304518699645996
-0.878453433513641357 0.623046576976776123 -0.0695035755634307861
-0.256547659635543823 0.202944129705429077 -0.720642924308776855
0.162289738655090332 -0.677040636539459229 -0.32106471061706543
0.929543256759643555 -0.569208443164825439 -0.037852209061384201
0.180772647261619568 -0.507234871387481689 -0.489730477333068848
-0.00637816358357667923 0.433404356241226196 -0.56572258472442627
0.511568844318389893 0.56380993127822876 -0.357655346393585205
0.263465195894241333 -0.281517952680587769 0.674592196941375732
0.78075718879699707 -0.641354858875274658 -0.141505405306816101
0.856207132339477539 0.651138007640838623 -0.0790192633867263794
-0.00108829746022820473 0.338487297296524048 0.660765945911407471
0.458704113960266113 -0.555364549160003662 -0.387239396572113037
-0.815447211265563965 0.220761731266975403 -0.182853549718856812
0.0700797736644744873 0.426758855581283569 0.573063671588897705
0.210840404033660889 -0.71311420202255249 -0.283082455396652222
-0.355507642030715942 0.0099066002294421196 -0.64428246021270752
0.338489294052124023 -0.0952679067850112915 -0.659492254257202148
-0.843229293823242188 0.331627041101455688 0.150317847728729248
0.289276927709579468 -0.696200191974639893 0.296256422996520996
0.452145844697952271 -0.384260475635528564 0.496123254299163818
0.00373650947585701942 -0.409167081117630005 0.589884281158447266
0.19726639986038208 0.345369517803192139 -0.645174384117126465
0.490779072046279907 0.745868980884552002 0.220967873930931091
-0.807185530662536621 0.8547096848487854 -0.0100092059001326561
-0.217805325984954834 -0.402327597141265869 -0.58800351619720459
-0.397720277309417725 0.0861347541213035583 -0.60092395544052124
-0.462341010570526123 -0.445533901453018188 0.459167838096618652
0.684650123119354248 0.915362119674682617 0.0167357195168733597
0.356617122888565063 0.27951514720916748 -0.612319111824035645
-0.521382272243499756 0.800707161426544189 -0.163277581334114075
-0.0733976364135742188 -0.229728952050209045 -0.76898723840713501
0.662591397762298584 0.0668873712420463562 -0.335537940263748169
0.29744333028793335 -0.524356842041015625 -0.461329907178878784
0.880708277225494385 -0.601305663585662842 -0.0741455927491188049
-0.254357367753982544 0.354810774326324463 -0.623620510101318359
-0.322077453136444092 -0.0260811839252710342 -0.677309930324554443
-0.779622256755828857 -0.744144439697265625 -0.0900639593601226807
0.415577560663223267 -0.726870357990264893 0.252877682447433472
-0.720689117908477783 -0.381324052810668945 0.263054996728897095
-0.565497934818267822 0.145732030272483826 -0.433771520853042603
0.118926927447319031 0.202350050210952759 -0.791152477264404297
0.925707459449768066 -0.602549552917480469 0.0327982380986213684
0.732834517955780029 -0.430552870035171509 -0.244198054075241089
0.826552629470825195 -0.28391873836517334 -0.167431950569152832
-0.351683974266052246 -0.575026869773864746 -0.405606836080551147
-0.161383971571922302 -0.691359877586364746 0.306887239217758179
0.144181668758392334 0.886386454105377197 0.110146716237068176
0.559473752975463867 0.15928301215171814 -0.438884735107421875
-0.560850441455841064 0.261001944541931152 -0.431340634822845459
0.176482871174812317 -0.836044788360595703 -0.160252273082733154
0.752357542514801025 -0.831879138946533203 0.0536678098142147064
-0.927521407604217529 -0.00674434565007686615 -0.0703682601451873779
0.658522129058837891 0.612351655960083008 0.240657120943069458
0.16184939444065094 -0.344537466764450073 -0.65021216869354248
0.802616655826568604 0.704600811004638672 -0.0972329452633857727
0.278885364532470703 0.22375623881816864 -0.695757210254669189
-0.469409763813018799 -0.305488944053649902 -0.509152770042419434
-0.919118762016296387 0.295985937118530273 0.0746101811528205872
0.498151659965515137 0.0492688380181789398 -0.500804483890533447
-0.578640580177307129 -0.940739214420318604 0.0245285090059041977
0.937149167060852051 -0.191854670643806458 -0.0587860122323036194
0.580906867980957031 -0.228145062923431396 0.414259403944015503
0.874618470668792725 -0.643106520175933838 -0.0650509372353553772
-0.079367712140083313 0.499820500612258911 -0.499020665884017944
-0.817933082580566406 0.850328981876373291 -0.00684901420027017593
0.20144103467464447 -0.776066482067108154 -0.221115604043006897
-0.469484448432922363 0.00611146353185176849 -0.52939915657043457
-0.0610019564628601074 0.592360019683837891 -0.405701160430908203
0.478327035903930664 0.288604557514190674 -0.50554203987121582
0.103326193988323212 -0.0709249153733253479 -0.891047537326812744
0.891368508338928223 0.554531872272491455 -0.0760575085878372192
0.147290423512458801 -0.0705808922648429871 -0.850534915924072266
0.581219136714935303 -0.360421746969223022 -0.396345674991607666
-0.0856780782341957092 0.349780768156051636 -0.648543417453765869
0.774972200393676758 -0.463894158601760864 -0.200039282441139221
0.593494296073913574 -0.392981827259063721 -0.378721475601196289
-0.639244318008422852 -0.505778849124908447 0.3033008873462677
0.52565467357635498 0.352238684892654419 0.448422640562057495
0.736689269542694092 -0.648978114128112793 -0.168325498700141907
-0.890306532382965088 -0.193110466003417969 -0.10560203343629837
-0.720733702182769775 0.243708759546279907 0.274808943271636963
-0.809494197368621826 0.493940979242324829 -0.160883650183677673
-0.234281495213508606 0.548964858055114746 -0.445194244384765625
-0.84340512752532959 0.556761622428894043 -0.116051159799098969
-0.119855545461177826 -0.911774218082427979 0.0849639177322387695
0.213707417249679565 -0.613941311836242676 0.382440090179443359
0.884052574634552002 -0.288281172513961792 -0.109839595854282379
-0.78939509391784668 0.0351621434092521667 -0.208957850933074951
-0.921613574028015137 -0.488544255495071411 0.0583505295217037201
0.446867465972900391 0.646608114242553711 -0.317908287048339844
-0.33124127984046936 -0.150547653436660767 -0.664136052131652832
0.489538013935089111 -0.580763816833496094 -0.354929447174072266
0.391632080078125 0.0543431304395198822 -0.60773766040802002
-0.589636504650115967 -0.471721231937408447 -0.355426430702209473
-0.28670656681060791 -0.132620275020599365 -0.709695994853973389
0.275259882211685181 -0.28896680474281311 -0.663168668746948242
-0.949954509735107422 0.329034537076950073 -0.0436950400471687317
-0.0249038897454738617 -0.316992908716201782 -0.682272136211395264
-0.328635305166244507 0.69155806303024292 0.297590434551239014
0.787003219127655029 0.845081925392150879 -0.0254289340227842331
0.0469254963099956512 -0.685600817203521729 0.312408357858657837
0.84527134895324707 0.19190584123134613 -0.153746172785758972
0.742568075656890869 -0.290084570646286011 -0.250467777252197266
0.429899066686630249 0.0898796841502189636 0.569562137126922607
0.834705948829650879 -0.547071278095245361 -0.127988800406455994
-0.867642879486083984 0.523967564105987549 0.103197172284126282
0.706291496753692627 -0.00572776049375534058 -0.293587177991867065
0.345063984394073486 0.0111475298181176186 0.654194653034210205
0.906329214572906494 0.194432303309440613 0.0905907005071640015
-0.114044129848480225 0.166738763451576233 -0.824563443660736084
0.796100735664367676 -0.310016602277755737 -0.196492657065391541
-0.532987833023071289 -0.36593550443649292 -0.437964051961898804
-0.446484178304672241 0.0968103706836700439 -0.552973806858062744
0.900435864925384521 -0.640834212303161621 0.0453978143632411957
0.320379018783569336 -0.0749001726508140564 -0.679259538650512695
0.86275637149810791 -0.55003124475479126 -0.103538468480110168
-0.743664264678955078 -0.614515960216522217 0.180498808622360229
0.393757045269012451 -0.758833706378936768 -0.225981712341308594
0.475548207759857178 -0.45416027307510376 -0.445624679327011108
-0.77022850513458252 0.637427926063537598 -0.150751188397407532
-0.0698789507150650024 -0.83717644214630127 -0.161752551794052124
0.931210935115814209 -0.507842481136322021 -0.0470813065767288208
-0.35634690523147583 0.0870570763945579529 -0.642388343811035156
0.857459902763366699 0.0092497263103723526 0.140510737895965576
0.0931217148900032043 0.758682548999786377 -0.239558473229408264
-0.417080789804458618 -0.767294406890869141 -0.216415196657180786
-0.117284588515758514 -0.868408560752868652 -0.128451243042945862
-0.751974165439605713 0.354879677295684814 0.236181661486625671
-0.818542122840881348 0.448527544736862183 0.160674348473548889
0.782973945140838623 0.852679669857025146 0.0231326408684253693
-0.493664354085922241 -0.883563518524169922 0.0925708338618278503
-0.445934057235717773 0.594068169593811035 -0.361313790082931519
-0.516835212707519531 -0.367693632841110229 0.450954020023345947
-0.229641437530517578 -0.141344279050827026 -0.761955499649047852
-0.500587642192840576 0.0153725650161504745 0.498332828283309937
0.156542971730232239 -0.843091428279876709 -0.153403580188751221
-0.838753461837768555 -0.761008679866790771 -0.0429358631372451782
0.0756761729717254639 0.0773646682500839233 0.908783435821533203
-0.656720817089080811 0.369521558284759521 0.325553715229034424
-0.604268014430999756 0.516090691089630127 -0.327222377061843872
-0.060809604823589325 0.0655517652630805969 -0.924581766128540039
-0.162370741367340088 -0.289438039064407349 -0.702628731727600098
0.890195608139038086 0.154403641819953918 0.106533020734786987
0.676759898662567139 0.619579493999481201 0.226541399955749512
0.04885067418217659 -0.405672669410705566 -0.59338676929473877
-0.521827638149261475 -0.420982152223587036 -0.429999411106109619
0.504075169563293457 0.821295261383056641 -0.148199036717414856
0.416861504316329956 -0.147246956825256348 -0.580018758773803711
0.68918079137802124 0.497003912925720215 -0.266924530267715454
0.00395983410999178886 0.776321947574615479 -0.221878156065940857
-0.704010307788848877 0.814896583557128906 -0.0879368707537651062
-0.533324897289276123 0.297131478786468506 -0.45287814736366272
0.034731399267911911 -0.496184676885604858 0.502664923667907715
-0.085599072277545929 0.899903655052185059 -0.0990572124719619751
-0.0689493119716644287 0.381736814975738525 0.618140339851379395
-0.759815454483032227 0.137880995869636536 -0.237729579210281372
-0.146726220846176147 -0.452789932489395142 -0.544342100620269775
0.299652129411697388 0.267416566610336304 0.660547137260437012
0.547235608100891113 -0.245493665337562561 -0.445702970027923584
0.762871265411376953 0.12093517929315567 -0.234566465020179749
-0.199104532599449158 -0.124568752944469452 -0.793513655662536621
0.631285786628723145 -0.669015884399414062 -0.22367057204246521
0.0360560901463031769 -0.835060596466064453 -0.163511320948600769
-0.876904606819152832 -0.615814328193664551 -0.0714415386319160461
0.445596933364868164 -0.68655848503112793 -0.283997625112533569
0.0580589547753334045 0.113577485084533691 0.884303808212280273
0.168624863028526306 -0.186387434601783752 0.787542879581451416
-0.363418906927108765 -0.140958338975906372 0.634002625942230225
0.953014492988586426 -0.521409928798675537 -0.0245968010276556015
0.203740090131759644 -0.725693106651306152 0.272624373435974121
-0.656260669231414795 0.102039754390716553 -0.34273877739906311
0.808257162570953369 -0.481796532869338989 -0.164468109607696533
0.619745075702667236 0.231630891561508179 -0.375079691410064697
-0.600321710109710693 -0.813202619552612305 0.129993364214897156
-0.732469141483306885 0.172734782099723816 0.26671212911605835
0.148433655500411987 0.615159273147583008 0.383078277111053467
0.729705810546875 0.0213682036846876144 -0.268498867750167847
0.139211416244506836 -0.377602994441986084 0.620088279247283936
-0.149933815002441406 0.619071722030639648 -0.379492968320846558
-0.450255632400512695 0.674040734767913818 -0.292398273944854736
0.752440750598907471 0.829902529716491699 -0.0532658509910106659
0.178086966276168823 -0.344911128282546997 -0.648528933525085449
-0.295927971601486206 -0.225423917174339294 -0.680943012237548828
0.0469510518014431 0.0564068444073200226 -0.937587738037109375
0.260155290365219116 -0.0781901106238365173 -0.738188087940216064
-0.308961540460586548 -0.242521166801452637 -0.66438668966293335
-0.837635576725006104 0.326761066913604736 -0.155441358685493469
0.633870184421539307 -0.951114118099212646 -0.00500503368675708771
-0.737769544124603271 0.813580155372619629 0.0711421817541122437
0.566247820854187012 -0.58256995677947998 -0.314356952905654907
0.0537213049829006195 -0.815107405185699463 -0.183696761727333069
0.322447091341018677 0.968775808811187744 -0.0247309710830450058
-0.989437699317932129 0.294630289077758789 0.000517604814376682043
-0.125756487250328064 0.920900285243988037 -0.0757549181580543518
-0.376314163208007812 0.0461274273693561554 -0.622582197189331055
-0.193156629800796509 -0.530943453311920166 0.465532422065734863
-0.179331272840499878 2.86485555989202112e-05 -0.820253968238830566
-0.270745247602462769 -0.723178565502166748 -0.270714998245239258
0.185417726635932922 0.775914609432220459 0.220417529344558716
-0.108700655400753021 0.402680546045303345 -0.596385836601257324
-0.333755314350128174 0.450463533401489258 -0.517723619937896729
-0.650925219058990479 -0.333386749029159546 0.338150382041931152
0.219325318932533264 0.406193077564239502 -0.584117352962493896
-0.232392489910125732 0.629411697387695312 0.365409791469573975
0.887855112552642822 -0.699210405349731445 -0.0345660336315631866
0.0305534973740577698 0.404078304767608643 -0.595370829105377197
-0.00595775432884693146 -0.413092881441116333 0.585949361324310303
-0.15220855176448822 -0.311218410730361938 -0.68335413932800293
0.839299380779266357 -0.513064384460449219 -0.131394296884536743
-0.284315884113311768 0.717873454093933105 0.275482088327407837
-0.820333957672119141 0.00103398866485804319 0.177774608135223389
0.944882214069366455 -0.5386543869972229 0.0279833301901817322
0.831307053565979004 -0.545340597629547119 0.129614174365997314
0.294773578643798828 0.945736289024353027 -0.049057692289352417
-0.525347411632537842 0.0432920008897781372 0.473657220602035522
-0.500167310237884521 0.766268551349639893 -0.198919594287872314
0.463123112916946411 0.917039155960083008 -0.0651244297623634338
-0.218267694115638733 -0.485288918018341064 -0.508652925491333008
0.0378493405878543854 -0.0225343704223632812 -0.960961639881134033
0.494881510734558105 0.196356132626533508 -0.501153469085693359
-0.39689934253692627 -0.174476668238639832 0.598196625709533691
0.589578330516815186 0.886572062969207764 -0.0700787752866744995
0.0348977409303188324 -0.232114493846893311 0.767347335815429688
-0.938188493251800537 0.244174689054489136 -0.0584058724343776703
0.0669313147664070129 0.293467819690704346 -0.70585179328918457
0.359024941921234131 0.180343225598335266 -0.634196937084197998
0.845737278461456299 -0.209167212247848511 -0.15124809741973877
-0.196788996458053589 0.0211249124258756638 -0.802763402462005615
-0.193723291158676147 0.985091030597686768 -0.0106979617848992348
0.982220709323883057 -0.339952051639556885 -0.0112288864329457283
0.235256552696228027 0.0901628285646438599 -0.763186097145080566
0.0545725263655185699 -0.122406564652919769 -0.876193225383758545
0.436345756053924561 0.595082938671112061 -0.365370750427246094
0.697411298751831055 0.43584972620010376 0.274986177682876587
0.264722853899002075 0.517313063144683838 -0.473041236400604248
0.641436636447906494 0.205998241901397705 -0.35525926947593689
-0.419638067483901978 0.640482604503631592 -0.329970091581344604
0.90790247917175293 -0.593561112880706787 -0.0499392226338386536
-0.687948226928710938 0.0701251551508903503 -0.310106068849563599
0.444778412580490112 -0.623422026634216309 -0.339171618223190308
-0.410202264785766602 -0.0609501414000988007 -0.589157998561859131
-0.580018997192382812 -0.932781040668487549 -0.0330802090466022491
0.734674274921417236 -0.493916243314743042 0.229218676686286926
0.763630211353302002 -0.335142254829406738 -0.229269117116928101
-0.671533524990081787 -0.342711031436920166 -0.315233349800109863
0.8640097975730896 0.516209065914154053 0.107619941234588623
0.652472734451293945 0.265041172504425049 -0.341665655374526978
-0.281087696552276611 -0.488764286041259766 -0.497413724660873413
0.180724605917930603 0.0340318754315376282 -0.819029867649078369
0.902091741561889648 0.106775544583797455 -0.0956459939479827881
0.131647780537605286 -0.511375546455383301 -0.486813277006149292
0.073133617639541626 0.261861920356750488 -0.736787319183349609
0.421852320432662964 0.800545454025268555 -0.181669741868972778
-0.309397339820861816 0.78381812572479248 -0.208894819021224976
0.417023390531539917 -0.715164303779602051 -0.263883739709854126
-0.765074014663696289 0.211908236145973206 -0.232083946466445923
-0.860052168369293213 0.675033688545227051 -0.0646846592426300049
-0.594345390796661377 0.483867615461349487 -0.348629564046859741
0.939886510372161865 -0.3403472900390625 -0.0529025569558143616
0.193825125694274902 -0.0869569405913352966 0.803586900234222412
0.50275123119354248 -0.050958685576915741 0.495828330516815186
-0.449937999248504639 -0.639958083629608154 -0.323165416717529297
0.105420105159282684 -0.79426121711730957 0.202886492013931274
-0.217979028820991516 -0.89923703670501709 0.0986781120300292969
-0.914063751697540283 -0.162172332406044006 -0.0825003013014793396
0.690019369125366211 0.653049349784851074 0.198705077171325684
0.87485802173614502 -0.668760716915130615 0.0552715510129928589
0.355147212743759155 0.988952219486236572 -0.00510229310020804405
0.0204419996589422226 0.898850023746490479 -0.0990660339593887329
0.68738090991973877 0.0828478336334228516 0.310610294342041016
0.607854366302490234 0.601764857769012451 0.278612971305847168
0.83620607852935791 -0.693634152412414551 0.075505279004573822
0.578111112117767334 0.346264421939849854 0.402775794267654419
-0.0444518625736236572 -0.100927025079727173 -0.897775173187255859
0.336746633052825928 0.6800040602684021 -0.308228373527526855
0.109108798205852509 -0.532098293304443359 0.467185556888580322
0.365798830986022949 0.306991934776306152 -0.594757199287414551
0.489279866218566895 -0.895811796188354492 0.081965424120426178
0.0768199712038040161 -0.990623533725738525 -0.000265678070718422532
-0.756883919239044189 0.808607101440429688 -0.0644528120756149292
-0.371078908443450928 0.144678801298141479 -0.625855803489685059
-0.170206144452095032 -0.272240906953811646 -0.717531979084014893
-0.636962175369262695 0.643433690071105957 -0.236960604786872864
-0.735931575298309326 0.670319139957427979 -0.158822506666183472
0.527573883533477783 0.640365839004516602 0.293654441833496094
0.526614069938659668 0.295744657516479492 -0.458934545516967773
-0.528534114360809326 -0.766205191612243652 -0.19228711724281311
0.753457129001617432 -0.54758143424987793 0.19741329550743103
0.0768368765711784363 0.322145044803619385 -0.677108049392700195
0.458782166242599487 -0.788399815559387207 -0.187090173363685608
0.381189405918121338 0.361749619245529175 0.557027101516723633
0.731871068477630615 -0.514348506927490234 -0.226539567112922668
-0.461502134799957275 0.319936811923980713 0.512376070022583008
-0.29908066987991333 0.685392260551452637 -0.307039588689804077
-0.0446534417569637299 -0.971884608268737793 0.0258621200919151306
-0.503587663173675537 0.915234863758087158 0.0641021430492401123
-0.769167780876159668 0.632112562656402588 -0.152186289429664612
0.498036235570907593 0.486267626285552979 -0.412913531064987183
-0.040338616818189621 -0.287862539291381836 -0.711943626403808594
-0.080858476459980011 0.779719173908233643 0.218473076820373535
0.702552378177642822 0.750469028949737549 -0.131671860814094543
-0.98151010274887085 -0.482644349336624146 -0.00186808430589735508
0.899164915084838867 -0.759898900985717773 -0.000803312170319259167
0.517283201217651367 0.207592546939849854 -0.477529942989349365
0.963568449020385742 -0.0617509782314300537 0.0338910296559333801
0.0570273958146572113 -0.503798961639404297 0.494497030973434448
0.754183530807495117 -0.313533276319503784 -0.239173620939254761
-0.455928951501846313 0.272672861814498901 0.529432594776153564
-0.691309511661529541 -0.474696636199951172 -0.272706747055053711
-0.193560302257537842 0.951986730098724365 -0.0468010082840919495
-0.397648841142654419 -0.628558635711669922 0.3462962806224823
-0.225938811898231506 0.231849953532218933 0.726788818836212158
0.64539039134979248 0.647256910800933838 -0.228753343224525452
0.168734163045883179 -0.182856291532516479 0.790035724639892578
-0.447657346725463867 0.94361501932144165 -0.044460780918598175
-0.667372703552246094 -0.476276665925979614 -0.29056704044342041
-0.357317626476287842 0.885497391223907471 0.105769790709018707
-0.146923914551734924 0.0367435477674007416 -0.852922439575195312
-0.101016730070114136 0.505889296531677246 -0.493543714284896851
-0.908896207809448242 0.235504657030105591 -0.0898519232869148254
0.355060547590255737 -0.829392313957214355 -0.162520110607147217
-0.303586363792419434 0.301377803087234497 -0.640062034130096436
0.332053661346435547 0.0932544693350791931 -0.665970563888549805
-0.0598333887755870819 0.355481415987014771 0.643106698989868164
0.55003589391708374 -0.781262218952178955 -0.17179436981678009
-0.104357600212097168 0.04845476895570755 0.894080519676208496
-0.448267847299575806 -0.125485599040985107 -0.550546884536743164
-0.778949499130249023 0.648757576942443848 -0.139105215668678284
-0.485985457897186279 -0.841175258159637451 -0.133290648460388184
0.937459826469421387 0.530714929103851318 -0.0361765585839748383
-0.842697203159332275 -0.510816752910614014 0.12852826714515686
-0.76449507474899292 -0.628777921199798584 -0.159000813961029053
-0.671071231365203857 -0.677748739719390869 -0.196177929639816284
-0.529184222221374512 0.723616242408752441 -0.226851120591163635
-0.0424536727368831635 -0.890964090824127197 -0.106646895408630371
-0.269460797309875488 0.310358762741088867 0.651936471462249756
0.388535022735595703 0.112711861729621887 -0.609076917171478271
-0.698937177658081055 0.555159568786621094 -0.23743891716003418
0.101443596184253693 -0.376396656036376953 -0.62170112133026123
-0.712843120098114014 -0.663886308670043945 -0.179319515824317932
0.520609676837921143 -0.758857131004333496 -0.201015844941139221
-0.298200219869613647 0.645509898662567139 -0.345061808824539185
-0.518609106540679932 -0.735208570957183838 0.220330521464347839
-0.258452266454696655 0.610050857067108154 -0.383537858724594116
-0.459176123142242432 -0.788935184478759766 -0.186523661017417908
0.8141898512840271 0.573573052883148193 0.136851057410240173
0.307061851024627686 -0.79658806324005127 0.196315333247184753
-0.299319326877593994 -0.181940123438835144 -0.690317153930664062
0.261272132396697998 0.00506940670311450958 0.738149464130401611
0.214452087879180908 0.14237859845161438 0.775030255317687988
-0.604028522968292236 0.159855291247367859 -0.39258459210395813
0.623133957386016846 0.161890402436256409 0.374605536460876465
-0.802269518375396729 -0.1346568763256073 -0.196557551622390747
0.866850852966308594 -0.184071898460388184 0.130212798714637756
-0.7805137038230896 0.311890006065368652 -0.212878257036209106
-0.786333620548248291 0.0186810903251171112 0.211942955851554871
0.858162879943847656 -0.746368169784545898 -0.0362581200897693634
0.300256252288818359 0.679865002632141113 0.311326384544372559
-0.294937461614608765 0.465522706508636475 -0.515877723693847656
0.743965685367584229 0.351028501987457275 -0.245662227272987366
-0.391137987375259399 0.771872580051422119 0.214331686496734619
-0.323258936405181885 0.984154343605041504 0.00931000150740146637
-0.757105827331542969 -0.164341941475868225 -0.241975948214530945
0.0976052209734916687 0.761908352375030518 -0.237480610609054565
0.660156905651092529 0.398022264242172241 0.317822277545928955
0.64196312427520752 -0.44621431827545166 -0.321331679821014404
-0.141994059085845947 0.642424643039703369 -0.354661762714385986
-0.421081185340881348 0.397547543048858643 0.510952889919281006
0.92814326286315918 0.228889122605323792 0.0685517117381095886
-0.582690894603729248 -0.0903883352875709534 -0.416419655084609985
0.638225197792053223 -0.0810701549053192139 -0.360057175159454346
0.306491106748580933 0.964706063270568848 0.0294400826096534729
-0.180017799139022827 0.383332401514053345 0.610923111438751221
-0.599089503288269043 -0.371340304613113403 -0.377818465232849121
0.959644734859466553 0.186352327466011047 0.0371927991509437561
0.618219614028930664 -0.870862662792205811 -0.0759414061903953552
-0.630539000034332275 -0.114239133894443512 -0.36704060435295105
0.0506466664373874664 -0.152021691203117371 0.847106575965881348
-0.438267618417739868 0.38818812370300293 -0.504770398139953613
-0.122051462531089783 -0.955803334712982178 0.0408156923949718475
-0.139213278889656067 0.221284598112106323 0.769716918468475342
-0.911189258098602295 0.333388626575469971 -0.0816378816962242126
0.557699203491210938 0.23458506166934967 -0.436462521553039551
-0.875896751880645752 -0.0345437042415142059 -0.122253067791461945
0.0622147805988788605 -0.328264683485031128 -0.670357108116149902
0.70028388500213623 -0.262615740299224854 0.29567447304725647
0.972633004188537598 0.383845001459121704 0.0180088281631469727
0.0411698669195175171 -0.119808539748191833 -0.87933427095413208
-0.314714044332504272 0.363568425178527832 0.592842042446136475
-0.981219112873077393 0.0222067143768072128 -0.0183103699237108231
-0.705124258995056152 -0.411004573106765747 -0.272964030504226685
0.63977426290512085 0.550157308578491211 -0.286292016506195068
0.420473277568817139 0.74574047327041626 -0.233446210622787476
0.686248898506164551 -0.147585943341255188 0.312911868095397949
0.31716194748878479 -0.597804486751556396 0.390135824680328369
-0.627145767211914062 -0.67884516716003418 0.220180094242095947
0.345806896686553955 -0.446099311113357544 0.518029451370239258
0.403516292572021484 0.369185000658035278 -0.538930416107177734
-0.213392242789268494 -0.00629911106079816818 0.786146283149719238
0.304449945688247681 0.735399007797241211 0.257170289754867554
-0.296873867511749268 -0.885436654090881348 -0.108537957072257996
0.0684961676597595215 -0.0941275060176849365 0.899580478668212891
0.00673769554123282433 0.191139861941337585 0.808517038822174072
0.0684366524219512939 0.450755923986434937 0.547533273696899414
0.437362164258956909 0.860726356506347656 -0.123679175972938538
-0.682424664497375488 0.336334526538848877 0.30693286657333374
0.0798951759934425354 0.00962475594133138657 -0.919900894165039062
0.427635699510574341 0.253696143627166748 -0.558593094348907471
0.118008315563201904 0.0884062498807907104 -0.873240470886230469
0.505187332630157471 -0.545126855373382568 -0.372786402702331543
-0.0207874160259962082 0.160627827048301697 -0.838801026344299316
0.451445996761322021 0.151330739259719849 -0.545842409133911133
-0.183609604835510254 0.305081367492675781 0.685260534286499023
-0.408687293529510498 -0.674841463565826416 -0.303474307060241699
0.742854595184326172 -0.0945101603865623474 -0.254949271678924561
0.534984469413757324 -0.74419713020324707 -0.210223585367202759
0.804704070091247559 -0.1322307288646698 -0.192765802145004272
0.149034246802330017 -0.894100427627563477 -0.102364085614681244
-0.460985392332077026 -0.0277017541229724884 0.538089096546173096
0.684365451335906982 -0.651094555854797363 -0.20241972804069519
-0.503513216972351074 0.535085916519165039 0.379896223545074463
-0.605866909027099609 -0.196093529462814331 0.38997843861579895
-0.634661376476287842 0.356743574142456055 -0.349449664354324341
0.40435713529586792 0.956563353538513184 0.0325123369693756104
-0.391613662242889404 0.827384769916534424 0.159830093383789062
0.41536867618560791 -0.709399223327636719 -0.268843919038772583
0.477345496416091919 0.745569109916687012 -0.223607838153839111
0.742623448371887207 0.255587100982666016 0.252511531114578247
0.945339858531951904 0.506705045700073242 0.0335335135459899902
0.572955489158630371 -0.434142887592315674 -0.384386718273162842
0.485731005668640137 -0.697389304637908936 -0.262208282947540283
-0.504898428916931152 -0.369887202978134155 -0.460783988237380981
-0.222534850239753723 -0.885160148143768311 0.112787634134292603
0.546208083629608154 -0.709752798080444336 -0.23267306387424469
-0.487016677856445312 -0.878602921962738037 0.0983467549085617065
-0.591276407241821289 0.85488051176071167 -0.0967777222394943237
-0.627989530563354492 0.0959166288375854492 -0.371044248342514038
-0.50689852237701416 0.829596579074859619 -0.140368551015853882
0.714275598526000977 0.39314800500869751 -0.268215745687484741
-0.684065759181976318 -0.263936340808868408 -0.310342222452163696
-0.620939254760742188 -0.923195898532867432 -0.0322585776448249817
0.374613553285598755 0.725166261196136475 0.260617047548294067
-0.0561965033411979675 -0.22929692268371582 -0.769604146480560303
0.311112076044082642 0.376361191272735596 0.584440052509307861
-0.967640519142150879 0.217279449105262756 0.0277559570968151093
-0.846815764904022217 0.155115142464637756 -0.149897783994674683
-0.626660346984863281 -0.459628850221633911 -0.330544471740722656
-0.289786010980606079 -0.0672607719898223877 -0.708788931369781494
-0.599302530288696289 -0.387166112661361694 0.374062538146972656
0.183945417404174805 0.0758738592267036438 0.81444704532623291
0.0953714624047279358 -0.725401222705841064 -0.272003471851348877
0.638301849365234375 -0.446910858154296875 -0.324182271957397461
-0.510197639465332031 0.000103056590887717903 -0.48862224817276001
0.588964283466339111 -0.0793084874749183655 0.409355431795120239
-0.614660263061523438 0.847553074359893799 0.0963914915919303894
-0.619722425937652588 0.0588894635438919067 -0.37902987003326416
-0.413738012313842773 0.321868419647216797 -0.551828682422637939
0.654269993305206299 -0.677854835987091064 -0.206860020756721497
0.0958899855613708496 0.138263091444969177 0.854069530963897705
-0.101149730384349823 -0.925655066967010498 0.0734161585569381714
0.18066994845867157 0.0274056736379861832 0.819051146507263184
0.947520315647125244 -0.294770598411560059 -0.0462343692779541016
0.194178730249404907 -0.0595572516322135925 -0.804559409618377686
-0.283455759286880493 -0.417331218719482422 -0.560904324054718018
0.905191004276275635 0.383775234222412109 -0.0866779163479804993
0.168317824602127075 0.863103270530700684 0.133222341537475586
-0.576911389827728271 -0.420474082231521606 -0.385162502527236938
0.65540468692779541 -0.405777513980865479 0.320938855409622192
-0.704510986804962158 -0.3842659592628479 0.277868151664733887
0.0901221707463264465 0.404306381940841675 -0.593851864337921143
-0.590551018714904785 -0.635902583599090576 0.268083035945892334
0.628461956977844238 -0.195076584815979004 -0.369097113609313965
0.812124550342559814 0.645695507526397705 0.114257305860519409
